# .PCD v0.7 - Point Cloud Data file format
VERSION 0.7
FIELDS x y z
SIZE 4 4 4
TYPE F F F
COUNT 1 1 1
WIDTH 2510
HEIGHT 1
VIEWPOINT 0 0 0 1 0 0 0
POINTS 2510
DATA ascii
678.17 35.81 1.57 
678.17 35.82 2.52 
679.86 36.14 -0.08 
680.41 35.94 -0.09 
680.46 35.79 0.48 
680.81 35.50 1.01 
680.45 35.80 1.63 
681.31 35.75 1.28 
681.53 35.82 1.34 
681.70 36.11 0.51 
681.86 35.84 1.05 
681.86 35.84 1.66 
681.85 35.85 2.27 
681.85 35.86 3.50 
683.40 35.99 2.50 
669.09 36.27 2.38 
669.24 36.38 3.07 
669.32 36.65 3.46 
670.03 36.77 1.28 
670.18 36.23 1.50 
670.15 36.73 2.81 
669.91 36.38 3.94 
670.00 36.65 4.35 
671.14 36.61 1.03 
670.72 36.54 1.88 
671.10 36.26 2.52 
670.88 36.66 3.08 
671.08 36.34 3.61 
671.74 36.54 1.02 
671.63 36.55 1.72 
671.52 36.69 2.52 
671.71 36.58 3.23 
671.80 36.72 3.84 
671.81 36.50 4.29 
671.49 36.18 5.00 
672.45 36.75 1.28 
672.15 36.56 1.46 
672.30 36.63 2.61 
672.00 36.48 3.26 
672.30 36.65 3.53 
672.25 36.70 4.38 
672.80 36.67 0.55 
673.09 36.86 0.85 
672.94 36.46 1.78 
672.83 36.51 2.46 
673.07 36.53 3.04 
672.68 36.78 3.97 
672.81 36.72 5.11 
673.95 36.52 -0.16 
673.83 36.43 0.44 
673.83 36.44 1.03 
673.71 36.25 1.76 
673.83 36.45 2.21 
673.58 36.43 3.26 
673.47 36.39 3.93 
673.66 36.17 4.50 
673.73 36.34 5.03 
674.43 36.59 -0.37 
674.37 36.52 0.27 
674.39 36.55 1.11 
674.44 36.59 1.64 
674.27 36.48 2.32 
674.28 36.65 2.94 
674.39 36.38 3.62 
674.05 36.78 4.57 
674.44 36.59 5.03 
675.02 36.74 -0.38 
674.96 36.40 0.07 
675.02 36.62 0.95 
675.04 36.66 1.83 
675.05 36.68 2.27 
675.25 36.31 3.18 
675.09 36.74 3.61 
674.88 36.50 4.59 
674.72 36.56 5.30 
676.06 36.61 -0.15 
675.75 36.42 0.37 
675.43 36.49 0.91 
675.74 36.48 1.39 
675.91 36.61 2.14 
675.61 36.60 2.80 
675.65 36.72 3.74 
675.63 36.75 4.72 
675.48 36.85 4.91 
676.23 36.49 -0.22 
676.24 36.49 0.28 
676.43 36.32 0.98 
676.56 36.49 1.67 
676.63 36.38 2.41 
676.31 36.50 3.30 
676.56 36.78 3.81 
677.25 36.55 0.07 
677.08 36.51 1.61 
677.09 36.49 2.16 
677.03 36.58 3.85 
677.86 36.45 4.12 
677.76 36.84 4.25 
678.25 36.43 -0.31 
678.25 36.43 0.15 
678.25 36.44 1.08 
678.24 36.44 2.01 
678.24 36.45 2.47 
678.24 36.45 2.94 
680.84 36.65 -0.11 
680.84 36.65 0.44 
680.83 36.65 0.99 
680.83 36.66 1.54 
680.81 36.67 3.18 
680.81 36.67 3.74 
681.46 36.81 -0.09 
681.56 36.43 1.19 
680.81 36.67 3.74 
681.13 36.23 4.18 
681.67 36.48 0.75 
681.69 36.41 1.78 
681.78 36.79 2.93 
682.94 36.62 0.67 
682.96 36.61 1.72 
682.96 36.60 2.25 
682.97 36.60 2.78 
683.47 36.58 3.93 
684.06 36.28 1.23 
684.35 36.69 1.76 
684.33 36.49 2.04 
684.08 36.26 2.88 
684.34 36.71 3.72 
669.76 37.21 2.54 
669.74 37.45 3.36 
670.26 37.15 1.15 
670.44 37.51 3.31 
670.87 37.16 1.80 
670.94 37.41 3.04 
670.61 37.44 4.06 
671.71 37.41 2.56 
671.47 36.97 3.64 
672.39 37.14 1.48 
672.29 37.17 2.63 
672.18 37.13 2.99 
672.41 37.07 3.47 
672.07 37.36 4.29 
673.02 37.24 -0.15 
673.00 37.24 0.29 
673.04 37.30 0.93 
673.01 37.41 1.78 
672.85 37.04 2.30 
672.72 37.04 2.88 
673.19 36.99 4.05 
673.66 37.25 -0.21 
673.89 37.03 0.18 
673.48 37.07 0.71 
673.36 37.18 1.57 
673.49 37.26 2.48 
673.49 37.33 3.09 
673.70 36.94 4.03 
673.59 37.23 4.58 
673.90 37.04 5.22 
674.15 37.36 -0.58 
674.13 37.24 0.41 
674.51 37.11 1.07 
674.39 37.14 1.70 
674.20 37.36 2.57 
674.55 37.09 2.80 
674.28 37.05 4.00 
674.00 37.18 4.48 
674.51 37.07 5.37 
675.09 37.10 -0.40 
675.12 37.14 0.48 
675.13 37.16 0.92 
674.87 37.29 1.81 
675.16 37.22 2.23 
674.90 37.34 3.09 
675.07 37.30 3.59 
674.91 37.38 4.29 
675.30 37.52 5.38 
675.87 37.36 -0.18 
675.64 37.06 0.37 
675.66 37.12 0.83 
675.70 37.24 1.76 
675.72 37.29 2.23 
675.75 37.38 2.95 
675.64 37.15 3.71 
676.06 37.43 4.69 
675.61 36.89 5.48 
676.31 37.30 -0.22 
676.60 37.36 0.15 
676.33 37.31 0.78 
676.20 37.33 1.95 
676.37 37.31 2.27 
676.48 37.08 3.26 
677.21 37.31 0.06 
677.26 37.55 1.81 
677.14 37.36 2.72 
677.15 37.35 3.27 
677.78 37.52 3.35 
678.16 36.99 4.24 
678.33 37.03 -0.29 
678.32 37.03 0.61 
678.32 37.04 1.06 
678.32 37.05 1.97 
678.31 37.05 2.43 
678.31 37.06 3.35 
678.82 37.46 4.52 
679.28 37.56 -0.06 
678.96 36.95 2.25 
679.18 37.44 3.16 
679.97 37.18 2.66 
680.72 37.51 -0.12 
680.50 37.02 0.48 
680.49 37.03 1.03 
680.49 37.03 1.58 
680.48 37.05 2.68 
680.47 37.05 3.24 
680.47 37.06 3.79 
680.47 37.06 4.35 
681.33 37.26 -0.13 
681.00 37.20 2.11 
681.01 37.19 3.08 
681.02 37.19 3.58 
681.84 37.22 -0.13 
681.84 37.23 0.45 
681.84 37.23 1.03 
681.83 37.24 1.61 
681.94 36.92 2.18 
681.95 36.91 3.19 
681.96 36.90 3.71 
682.37 37.48 1.21 
682.37 37.54 1.91 
683.35 37.19 0.28 
683.47 37.15 0.84 
684.23 37.10 1.37 
684.21 37.11 2.03 
684.19 37.15 3.35 
684.18 37.17 4.01 
670.46 37.57 2.02 
670.39 38.15 2.13 
670.34 38.15 2.94 
671.16 37.81 1.56 
671.04 37.72 2.58 
670.52 37.80 4.05 
671.18 37.95 3.21 
671.62 37.70 4.15 
671.93 37.95 1.66 
672.24 37.90 2.28 
672.27 37.89 2.81 
672.88 38.03 1.27 
673.06 37.97 1.69 
672.84 38.05 2.11 
673.24 37.62 2.84 
672.88 37.71 4.74 
672.76 37.85 5.17 
673.79 37.77 -0.20 
673.56 37.97 0.05 
673.62 38.19 1.10 
673.56 37.78 1.62 
673.79 37.89 2.52 
673.59 38.00 3.02 
673.89 37.67 3.48 
673.34 38.01 5.04 
674.29 37.93 -0.50 
674.29 37.93 0.43 
674.30 37.93 0.99 
674.40 37.88 1.57 
674.27 37.68 2.14 
674.38 37.75 3.09 
674.23 37.99 3.53 
674.02 37.87 4.66 
674.24 37.68 5.35 
674.93 37.73 -0.34 
674.87 38.20 0.24 
674.96 37.78 0.93 
674.99 37.81 1.77 
675.00 37.82 2.20 
675.02 37.86 3.05 
675.03 37.87 3.48 
675.13 37.78 4.32 
675.11 38.17 5.37 
675.51 38.05 -0.31 
675.81 38.18 0.23 
675.51 37.89 1.08 
675.78 37.80 1.69 
675.82 37.91 2.61 
675.84 37.97 3.07 
675.54 37.99 3.61 
675.79 37.57 4.19 
675.37 37.93 4.89 
676.62 37.78 -0.35 
676.36 37.70 0.28 
676.42 38.11 0.77 
676.61 37.96 1.85 
676.69 37.72 2.71 
676.34 37.85 2.81 
676.21 38.04 5.03 
677.38 38.14 -0.68 
677.40 38.12 0.17 
677.17 38.10 0.99 
677.44 38.08 1.86 
677.45 38.06 2.29 
677.30 37.96 2.94 
677.31 37.94 3.50 
677.83 37.78 3.31 
678.27 37.87 -0.27 
678.46 38.15 0.17 
678.39 37.61 1.05 
678.21 38.12 1.61 
678.24 37.99 2.17 
678.27 37.86 3.31 
678.52 38.19 4.31 
679.35 37.82 -0.11 
679.26 37.62 2.68 
679.15 38.02 3.88 
679.10 38.17 4.26 
679.94 37.69 -0.13 
679.97 38.01 0.36 
680.07 37.98 0.85 
679.74 37.84 2.07 
680.86 37.71 -0.08 
680.53 38.15 0.49 
680.53 38.16 1.02 
680.85 37.72 1.50 
680.84 37.72 2.55 
680.51 38.18 3.13 
680.83 37.73 3.61 
681.52 37.60 -0.20 
681.64 37.57 0.32 
681.66 37.64 2.85 
681.66 37.65 3.44 
681.64 38.26 4.65 
681.68 37.61 0.51 
681.68 37.62 1.09 
681.67 37.63 1.68 
682.81 38.10 0.42 
682.38 37.59 2.62 
682.38 37.64 3.32 
683.07 38.03 0.99 
683.33 37.95 1.58 
683.60 37.88 2.17 
683.72 38.21 4.17 
683.87 37.80 2.78 
670.13 38.53 2.18 
670.92 38.83 3.10 
671.49 38.76 1.52 
671.79 38.89 2.67 
671.85 38.59 3.10 
672.01 38.78 1.88 
672.24 38.36 2.69 
672.06 38.76 2.91 
672.54 38.78 5.14 
673.05 38.40 0.98 
673.04 38.42 1.79 
673.07 38.66 2.17 
672.95 38.86 2.91 
673.22 38.31 5.21 
673.41 39.07 1.02 
673.65 38.51 1.70 
673.82 38.56 2.37 
673.57 38.49 2.95 
674.27 38.37 -0.38 
674.37 38.69 0.54 
674.38 38.68 0.90 
674.39 38.68 1.63 
674.50 38.64 2.43 
674.26 38.73 3.05 
673.99 38.63 3.54 
675.12 38.58 -0.36 
675.14 38.61 0.47 
675.15 38.62 0.89 
675.17 38.66 1.72 
674.95 38.45 2.32 
675.23 38.53 3.18 
675.14 38.38 3.44 
674.95 38.61 4.82 
675.57 38.41 -0.36 
675.84 38.57 0.17 
675.63 38.60 0.97 
675.88 38.54 1.74 
675.63 38.44 2.36 
675.60 38.92 3.13 
675.70 38.54 3.81 
675.56 38.56 4.39 
675.42 38.72 5.41 
676.57 38.36 -0.24 
676.45 38.50 0.27 
676.61 38.33 0.98 
676.63 38.31 1.80 
676.48 38.92 2.52 
676.35 38.93 3.05 
676.40 38.77 3.74 
677.08 38.76 -0.43 
677.11 38.86 0.04 
677.32 38.70 0.86 
677.30 38.89 1.84 
677.30 38.43 2.39 
677.32 38.86 2.96 
677.32 38.39 3.51 
677.79 38.84 -0.14 
677.79 38.84 0.28 
677.69 38.80 0.98 
677.48 38.66 1.73 
677.78 38.84 2.38 
677.75 38.54 2.99 
678.53 38.68 -0.25 
678.53 38.68 0.18 
678.58 38.50 1.05 
678.52 38.69 1.88 
678.52 38.69 2.30 
678.51 38.70 3.17 
679.37 38.76 -0.40 
679.37 38.75 0.04 
678.87 38.30 2.25 
679.36 38.29 3.94 
679.51 38.31 4.26 
679.60 38.90 -0.03 
679.99 38.79 0.96 
680.13 38.37 1.97 
679.81 38.76 3.40 
679.83 38.60 3.90 
679.93 38.44 4.27 
680.89 38.69 -0.05 
680.88 38.69 0.96 
680.87 38.70 1.97 
680.62 38.61 2.53 
680.82 38.55 3.08 
680.36 38.69 3.89 
680.41 38.36 4.30 
681.24 38.83 0.30 
681.24 38.78 1.35 
681.31 38.62 2.20 
681.41 38.89 3.39 
681.82 38.50 -0.10 
681.67 38.96 -0.05 
681.95 38.63 1.29 
681.81 38.51 1.56 
681.80 38.51 2.68 
681.80 38.52 3.23 
682.39 38.94 -0.13 
683.37 38.71 0.81 
683.75 38.62 1.40 
684.15 38.41 1.32 
684.14 38.51 2.01 
684.03 38.93 2.57 
684.11 38.47 3.23 
684.10 38.49 3.87 
684.55 38.41 2.65 
670.25 39.31 3.20 
670.84 38.98 3.24 
671.57 39.27 2.67 
671.24 39.49 2.86 
671.95 39.58 2.32 
672.10 39.30 2.77 
673.16 39.59 1.58 
673.04 39.08 2.18 
672.77 39.60 2.90 
673.41 39.07 1.02 
673.84 38.99 1.63 
673.65 39.36 2.41 
673.94 39.34 3.09 
674.60 39.19 -0.25 
674.61 39.21 0.12 
674.64 39.26 1.25 
674.65 39.28 1.62 
674.46 39.03 2.57 
674.42 39.06 3.05 
674.98 39.31 -0.28 
675.14 39.14 0.43 
675.17 39.26 0.86 
675.14 39.13 1.54 
675.19 39.29 2.27 
675.04 39.17 2.99 
675.52 39.19 -0.47 
675.73 39.24 0.43 
675.75 39.30 0.86 
675.79 39.43 1.74 
675.60 39.33 2.52 
675.80 39.28 3.13 
675.78 39.11 3.75 
675.48 39.13 4.93 
676.33 39.65 -0.32 
676.33 39.64 0.25 
676.02 39.39 1.01 
676.35 39.61 1.97 
676.36 39.37 2.55 
676.38 39.34 3.07 
676.11 39.56 3.78 
677.00 39.45 -0.33 
677.01 39.44 0.06 
677.04 39.65 0.98 
676.95 39.00 1.90 
676.82 39.36 2.73 
676.84 39.35 3.75 
676.87 39.29 4.59 
677.88 39.41 -0.53 
677.74 39.23 0.05 
677.57 39.39 0.94 
677.90 39.29 1.86 
677.86 39.40 2.34 
677.86 39.40 3.17 
677.47 39.43 4.45 
678.52 39.01 -0.38 
678.59 39.18 0.18 
678.59 39.19 1.01 
678.58 39.19 1.85 
678.58 39.20 2.69 
678.23 39.19 2.82 
678.46 39.14 3.45 
679.06 39.12 0.55 
678.99 39.50 1.19 
678.88 39.14 2.47 
679.33 39.29 3.35 
679.33 39.03 3.50 
679.59 39.56 1.30 
679.87 39.49 1.82 
680.16 39.41 2.35 
679.72 39.06 3.10 
680.15 39.10 4.05 
680.26 39.14 4.50 
680.57 39.19 0.49 
680.66 39.58 1.25 
680.74 39.27 1.85 
680.57 39.42 2.67 
680.54 39.22 3.03 
680.54 39.22 3.54 
680.84 39.02 4.53 
680.28 39.13 5.18 
681.66 38.97 0.51 
681.24 39.18 1.26 
681.66 38.98 1.62 
681.23 39.18 2.25 
681.33 39.11 2.78 
681.64 39.01 3.86 
681.46 39.49 4.35 
681.28 39.48 5.14 
681.83 39.10 -0.12 
682.06 39.84 0.09 
682.22 39.62 1.13 
681.70 39.35 4.28 
681.79 39.05 4.94 
682.86 39.15 0.20 
682.61 39.65 4.53 
671.59 39.72 3.22 
672.29 39.81 3.24 
673.76 39.87 2.99 
674.21 39.84 1.66 
674.07 40.34 3.05 
675.32 39.79 -0.29 
675.32 39.78 0.43 
675.15 39.73 0.93 
675.32 39.77 1.52 
675.32 39.77 2.25 
675.28 40.12 2.92 
675.66 39.89 -0.08 
675.67 39.91 0.35 
675.61 39.87 0.92 
675.71 39.97 1.62 
675.73 40.01 2.47 
675.74 40.03 2.90 
675.64 39.80 3.73 
676.76 40.15 0.29 
676.54 40.26 1.23 
676.17 40.25 1.82 
676.14 39.93 2.33 
676.43 40.15 3.10 
676.33 39.99 3.93 
677.38 39.97 0.00 
677.43 39.79 1.90 
676.97 40.14 2.13 
676.86 39.76 3.24 
677.29 39.97 3.85 
677.96 39.94 -0.11 
677.96 39.94 0.29 
677.95 39.94 1.09 
677.95 39.94 1.89 
677.95 39.94 2.30 
677.54 40.12 3.11 
677.64 39.96 3.56 
678.28 40.09 -0.08 
678.65 39.67 0.59 
678.28 39.98 0.98 
678.65 39.67 1.41 
678.64 39.68 2.23 
678.68 40.23 3.00 
678.46 39.86 3.75 
678.95 40.15 0.96 
679.10 39.92 2.32 
679.42 40.14 3.07 
679.32 40.27 3.47 
679.47 40.05 4.17 
680.20 40.12 1.69 
679.48 39.97 2.33 
679.57 39.84 3.32 
680.08 39.89 3.56 
680.10 39.82 4.15 
680.64 40.06 0.50 
680.56 40.01 1.02 
680.63 40.07 1.48 
680.62 40.08 2.45 
680.62 40.08 2.95 
680.77 40.11 3.69 
680.86 39.86 4.27 
680.67 39.67 5.10 
681.65 40.20 0.51 
681.25 40.00 1.24 
681.25 40.00 1.72 
681.25 40.00 2.20 
681.24 40.00 3.16 
681.58 39.80 3.88 
681.61 40.07 4.13 
681.79 39.67 0.46 
681.79 39.67 0.99 
681.79 39.67 1.52 
681.78 39.68 2.59 
681.78 39.68 3.12 
681.78 39.69 3.66 
681.94 40.11 4.79 
682.15 40.17 5.05 
682.50 39.96 2.45 
682.81 40.30 3.26 
682.57 39.73 4.88 
683.48 39.80 0.77 
683.45 39.82 1.76 
683.46 40.11 2.47 
684.02 39.91 0.46 
684.02 39.91 1.05 
683.97 40.14 1.88 
683.96 40.16 2.48 
683.95 40.17 3.08 
683.94 40.19 3.68 
675.75 40.47 -0.44 
675.83 40.62 1.16 
675.84 40.64 1.58 
675.86 40.68 2.43 
675.83 40.99 3.19 
676.02 40.66 3.57 
676.12 40.72 -0.51 
676.68 40.90 0.29 
676.69 40.90 1.21 
676.08 40.97 2.40 
676.29 40.78 3.13 
676.31 40.84 3.59 
676.98 40.43 0.02 
676.99 40.45 0.97 
677.00 40.47 1.93 
677.20 40.64 2.42 
676.93 40.57 3.25 
676.79 40.84 3.95 
677.53 40.42 -0.10 
678.09 41.01 0.11 
678.09 41.01 1.06 
678.09 41.01 1.83 
678.08 41.00 2.60 
678.00 40.52 3.04 
678.06 40.57 3.53 
678.44 40.72 1.01 
678.80 40.92 2.00 
678.79 40.65 2.41 
678.68 40.79 3.21 
678.81 40.63 3.63 
679.26 40.46 2.44 
679.31 40.57 3.57 
679.83 40.48 2.40 
679.69 41.06 2.98 
680.93 40.44 0.46 
680.66 40.96 0.97 
680.80 40.69 1.55 
680.91 40.45 2.35 
680.91 40.45 3.31 
680.89 40.72 3.49 
681.08 41.05 0.28 
681.26 40.77 1.22 
681.26 40.77 1.68 
681.25 40.78 2.61 
681.25 40.78 3.08 
681.24 40.78 3.55 
681.77 40.74 0.46 
681.77 40.74 0.97 
681.77 40.74 1.48 
681.76 40.75 2.50 
681.76 40.75 3.02 
681.75 40.76 4.05 
681.92 40.76 4.30 
682.60 40.88 2.68 
683.05 40.94 4.38 
683.74 40.50 2.17 
683.09 40.86 3.82 
683.28 40.63 4.79 
683.91 40.49 0.13 
683.90 40.50 0.71 
683.88 40.53 1.88 
683.87 40.54 2.47 
683.86 40.55 3.05 
683.85 40.57 3.64 
686.22 41.04 0.30 
686.21 41.04 0.80 
686.20 41.04 1.79 
686.20 41.04 2.28 
686.19 41.03 3.28 
686.19 41.03 3.79 
688.52 40.71 0.84 
688.52 40.71 1.38 
688.51 40.71 2.46 
688.50 40.71 3.00 
688.50 40.70 3.54 
689.42 40.57 0.30 
689.41 40.57 0.85 
689.41 40.57 1.41 
689.40 40.56 2.52 
689.39 40.56 3.08 
689.39 40.56 3.64 
690.37 40.42 0.30 
690.36 40.42 0.87 
690.36 40.42 1.45 
671.09 41.70 -0.01 
675.81 41.32 3.23 
676.04 41.62 3.60 
676.63 41.68 0.30 
676.64 41.68 1.22 
676.36 41.38 2.13 
676.21 41.61 3.20 
676.20 41.51 3.67 
676.93 41.23 0.01 
676.94 41.25 0.96 
676.95 41.27 1.92 
677.40 41.53 3.02 
676.81 41.31 3.68 
678.16 41.48 0.68 
678.16 41.47 1.43 
678.15 41.47 2.55 
678.15 41.47 2.93 
677.53 41.09 3.94 
678.17 41.48 0.12 
678.65 41.07 1.89 
678.84 41.22 2.83 
679.27 41.28 0.49 
679.00 41.65 1.71 
679.28 41.15 2.53 
679.85 41.22 3.38 
680.18 41.43 3.86 
680.95 41.23 0.47 
680.95 41.23 0.92 
680.94 41.23 1.84 
680.93 41.23 2.30 
680.93 41.24 3.22 
680.92 41.24 3.69 
681.64 41.32 0.52 
681.27 41.50 1.20 
681.63 41.33 1.53 
681.26 41.50 2.10 
681.26 41.50 3.01 
681.37 41.63 3.64 
681.87 41.76 0.31 
681.75 41.73 0.96 
681.87 41.76 1.56 
681.74 41.74 2.43 
681.86 41.75 3.24 
681.73 41.75 3.91 
682.95 41.60 -0.13 
682.40 41.68 0.31 
682.94 41.59 0.74 
682.39 41.68 1.59 
682.93 41.59 2.49 
682.38 41.67 3.31 
683.05 41.28 4.10 
683.59 41.46 0.31 
683.59 41.46 0.75 
683.58 41.46 1.65 
683.58 41.45 2.55 
683.57 41.45 3.00 
683.57 41.45 3.45 
683.26 41.55 4.31 
683.88 41.28 0.46 
683.87 41.29 1.02 
683.87 41.29 1.58 
684.18 41.36 2.60 
683.86 41.30 3.25 
683.86 41.31 3.81 
683.77 41.49 4.35 
684.83 41.26 0.30 
684.83 41.26 0.77 
684.82 41.26 1.71 
684.82 41.26 2.18 
684.81 41.26 3.13 
684.81 41.25 3.61 
685.51 41.16 0.30 
685.50 41.15 0.79 
685.49 41.15 1.75 
685.49 41.15 2.72 
685.48 41.15 3.20 
685.48 41.15 3.69 
686.09 41.73 0.17 
686.09 41.72 0.65 
686.09 41.72 1.63 
686.09 41.72 2.61 
686.09 41.71 3.11 
686.09 41.71 3.60 
686.91 41.61 0.16 
686.91 41.61 1.17 
686.91 41.61 1.67 
686.90 41.60 2.68 
686.90 41.60 3.19 
686.90 41.60 3.71 
687.77 41.49 0.67 
687.77 41.49 1.72 
687.77 41.48 2.24 
687.77 41.48 3.29 
687.77 41.48 3.82 
688.91 41.28 0.69 
688.91 41.28 1.77 
688.91 41.27 2.32 
688.91 41.27 3.42 
668.58 42.08 0.31 
670.77 42.31 0.01 
671.21 42.24 -0.02 
674.61 42.28 -0.39 
675.83 42.39 -0.08 
675.61 42.15 2.70 
675.71 42.10 3.23 
676.06 42.10 3.62 
676.58 42.46 0.30 
676.51 41.81 2.67 
676.09 42.18 3.28 
676.47 41.91 3.44 
676.87 42.04 0.00 
676.88 42.06 0.96 
676.90 42.08 1.92 
677.36 42.17 2.26 
677.41 41.98 3.03 
677.42 41.97 3.59 
677.48 42.31 -0.29 
677.74 42.06 3.42 
678.34 42.30 0.31 
678.33 42.30 1.03 
678.33 42.30 1.76 
678.33 42.30 2.48 
678.32 42.29 2.85 
679.53 42.14 0.12 
679.13 42.17 1.06 
679.13 42.17 1.80 
679.52 42.13 2.21 
679.12 42.16 2.93 
679.97 42.07 0.12 
679.96 42.06 1.08 
679.96 42.06 1.85 
679.95 42.06 2.63 
679.95 42.06 3.02 
679.97 41.92 3.49 
680.88 41.92 0.31 
680.68 41.80 0.96 
680.88 41.91 1.51 
680.76 42.08 2.52 
680.87 41.91 3.13 
680.66 41.82 3.71 
681.29 42.19 0.31 
681.28 42.19 1.18 
681.28 42.19 1.62 
681.27 42.19 2.50 
681.26 42.19 2.94 
681.63 42.37 3.89 
682.12 42.26 0.61 
682.12 42.26 1.03 
682.12 42.26 1.86 
682.28 42.06 2.32 
682.02 41.85 2.90 
682.02 41.89 3.52 
682.03 41.94 4.13 
682.66 42.22 0.62 
682.66 42.22 1.04 
682.66 42.21 1.89 
682.66 42.21 2.32 
682.66 42.21 2.75 
683.04 42.02 3.68 
683.38 42.01 0.18 
683.27 42.13 1.06 
683.27 42.12 1.93 
683.73 41.99 2.37 
683.27 42.12 2.81 
683.71 42.01 3.49 
683.69 42.04 4.61 
683.92 42.04 0.19 
683.92 42.03 1.08 
683.74 41.98 1.82 
683.92 42.03 2.42 
683.92 42.03 2.88 
684.61 41.94 0.18 
684.60 41.94 0.64 
684.60 41.93 2.02 
684.60 41.93 2.48 
684.60 41.93 3.42 
685.47 42.41 0.17 
685.33 41.83 0.65 
685.47 42.40 1.59 
685.47 42.40 2.54 
685.32 41.82 3.02 
685.47 42.39 3.50 
686.32 42.30 0.16 
686.32 42.30 0.65 
686.32 42.29 1.63 
686.32 42.29 2.62 
686.32 42.28 3.12 
686.32 42.28 3.61 
687.22 42.18 0.15 
687.22 42.17 1.17 
687.22 42.17 1.68 
687.22 42.16 2.70 
687.22 42.16 3.22 
687.22 42.16 3.73 
688.20 42.04 1.20 
688.20 42.04 1.73 
688.19 42.04 2.26 
688.19 42.03 3.32 
688.19 42.03 3.86 
689.14 41.97 1.23 
689.14 41.96 1.78 
689.14 41.96 2.33 
689.14 41.96 2.88 
689.14 41.95 3.43 
670.84 42.88 0.01 
671.07 43.12 5.61 
671.22 43.04 0.01 
673.51 42.73 -0.33 
675.86 42.62 0.01 
675.74 42.55 3.82 
675.89 43.01 5.05 
676.53 43.11 0.42 
676.59 42.47 1.23 
676.55 43.14 1.43 
676.56 42.62 2.71 
676.34 42.88 3.14 
676.08 43.08 3.66 
677.14 43.08 -0.11 
676.82 42.86 -0.02 
676.95 42.81 0.97 
676.84 42.90 1.93 
677.38 42.60 2.27 
677.14 42.80 2.99 
677.45 42.86 3.62 
677.62 42.70 -0.02 
677.63 42.60 0.98 
677.63 42.50 1.99 
678.71 42.76 -0.35 
678.65 42.79 0.05 
678.65 42.79 0.94 
678.62 42.59 2.02 
678.62 42.59 2.38 
678.62 42.59 2.74 
679.13 42.70 -0.50 
679.39 42.80 0.25 
679.14 42.69 1.31 
679.14 42.69 1.68 
679.14 42.69 2.04 
679.14 42.69 2.78 
679.58 42.64 -0.52 
679.58 42.64 0.04 
679.58 42.63 0.96 
679.58 42.63 1.70 
679.58 42.62 2.45 
679.58 42.62 2.83 
680.72 42.57 0.07 
680.71 42.58 0.95 
680.70 42.58 1.39 
680.70 42.59 2.27 
680.69 42.59 3.16 
680.68 42.60 3.60 
681.30 42.84 -0.10 
681.29 42.84 0.32 
681.29 42.84 1.17 
681.28 42.84 1.59 
681.28 42.84 2.44 
681.28 42.94 3.02 
681.47 42.52 3.54 
681.89 42.91 0.20 
681.73 42.65 0.94 
681.92 42.71 1.78 
681.90 42.90 2.23 
681.90 42.89 3.05 
681.71 42.66 3.79 
682.50 42.83 0.61 
682.50 42.83 1.03 
682.50 42.83 1.44 
682.51 42.82 2.70 
682.51 42.82 3.13 
683.26 42.70 0.19 
683.74 42.53 1.00 
683.26 42.69 1.48 
683.74 42.54 2.59 
683.26 42.68 3.22 
683.73 42.55 3.66 
683.73 42.55 4.20 
683.95 42.62 -0.26 
683.95 42.61 0.18 
683.95 42.61 1.07 
683.95 42.61 1.51 
683.95 42.60 2.41 
683.96 42.59 3.31 
684.69 42.52 0.17 
684.69 42.51 1.09 
684.69 42.50 2.01 
684.69 42.50 2.47 
684.69 42.50 2.94 
669.75 43.75 0.05 
670.09 43.38 0.04 
670.04 43.28 5.31 
670.36 43.46 5.94 
670.52 43.37 0.03 
670.81 43.81 5.36 
671.42 43.41 0.45 
671.93 43.80 -0.22 
672.05 43.73 0.32 
672.69 43.56 -0.27 
673.44 43.47 -0.29 
674.26 43.79 0.10 
675.29 43.52 0.03 
675.77 43.48 3.86 
675.93 43.40 5.06 
676.45 43.74 0.33 
676.54 43.26 1.24 
676.49 43.70 2.13 
676.50 43.68 3.04 
676.77 43.71 0.95 
676.79 43.74 1.93 
677.04 43.65 3.13 
677.46 43.31 3.64 
677.49 43.43 -0.29 
677.47 43.77 3.65 
678.73 43.57 0.16 
679.58 43.43 -0.38 
680.61 43.57 0.36 
680.73 43.31 0.94 
680.72 43.31 1.79 
680.96 43.42 2.56 
680.71 43.32 3.08 
680.71 43.32 3.51 
681.58 43.47 -0.41 
681.33 43.40 0.33 
681.33 43.40 1.15 
681.32 43.40 1.57 
681.32 43.40 2.40 
681.31 43.40 3.24 
681.55 43.50 3.80 
681.81 43.53 0.41 
681.82 43.57 0.99 
681.82 43.61 1.57 
681.75 43.43 2.30 
681.74 43.43 3.22 
681.74 43.43 3.69 
683.64 43.25 0.18 
683.63 43.66 0.98 
683.61 43.28 1.76 
683.62 43.67 2.50 
683.62 43.68 3.01 
683.58 43.33 3.88 
683.57 43.34 4.41 
684.24 43.77 1.16 
684.06 43.82 1.73 
670.22 44.37 0.06 
670.66 44.10 0.50 
671.01 44.05 4.93 
671.63 44.13 -0.20 
671.31 44.25 5.35 
672.01 44.23 -0.22 
672.62 44.18 -0.24 
673.79 43.98 0.37 
673.99 44.06 0.62 
674.78 44.09 -0.02 
676.02 44.22 -0.27 
676.23 44.29 -0.35 
676.15 44.04 0.26 
676.48 44.07 1.25 
676.48 43.99 1.43 
676.50 44.02 2.45 
676.58 44.03 3.08 
677.13 44.44 3.12 
676.97 44.52 3.53 
678.14 44.37 0.18 
677.48 44.24 3.10 
677.49 44.23 3.66 
678.50 43.95 0.51 
679.88 44.24 1.23 
679.88 44.13 3.07 
680.76 43.98 -0.31 
680.76 43.98 0.52 
680.75 43.99 0.93 
680.75 43.99 1.34 
680.74 44.00 2.58 
680.96 44.05 3.33 
681.35 43.99 -0.47 
681.34 43.99 0.33 
681.33 43.98 1.14 
681.56 44.36 1.87 
681.32 43.98 2.35 
681.31 43.98 3.17 
681.54 44.37 3.68 
681.74 44.22 0.48 
681.74 44.22 0.92 
681.74 44.22 1.36 
681.73 44.23 2.24 
681.73 44.23 3.13 
681.72 44.23 3.58 
683.52 44.44 0.20 
683.52 44.70 0.96 
683.49 44.47 1.71 
683.51 44.71 2.42 
683.47 44.50 3.22 
683.46 44.51 3.73 
683.45 44.52 4.24 
670.86 45.02 -0.15 
670.90 44.90 0.45 
671.73 44.68 0.33 
671.89 44.87 -0.19 
672.94 45.03 0.16 
673.60 45.01 0.62 
674.52 45.04 -0.51 
674.53 44.96 0.01 
676.08 44.87 -0.21 
676.44 45.14 0.01 
676.71 45.08 0.92 
676.37 44.84 1.43 
676.39 44.87 2.45 
676.71 44.91 2.91 
676.88 45.04 -0.02 
677.04 44.95 0.99 
677.18 44.84 3.12 
677.03 44.90 3.50 
677.64 44.91 0.19 
677.60 44.94 0.75 
677.61 44.79 2.65 
677.52 44.80 3.42 
677.52 45.14 3.70 
680.78 44.63 0.52 
680.81 45.21 1.30 
680.77 44.63 1.72 
680.80 45.21 2.48 
680.80 45.21 3.27 
681.23 45.17 0.13 
681.34 45.07 1.11 
681.22 45.17 1.71 
681.33 45.07 2.27 
681.33 45.07 3.05 
681.53 45.18 3.57 
682.00 45.14 0.12 
682.00 45.14 0.93 
681.99 45.14 1.74 
681.99 45.14 2.56 
681.98 45.14 2.97 
681.71 44.98 3.48 
682.40 45.13 0.12 
682.40 45.13 0.94 
682.81 45.11 1.36 
682.39 45.12 2.58 
682.39 45.12 3.00 
682.80 45.11 3.45 
683.67 45.07 0.10 
683.67 45.07 0.96 
683.67 45.07 1.81 
683.66 45.07 2.24 
683.66 45.07 3.10 
683.65 45.07 3.54 
684.10 45.08 0.53 
684.10 45.08 0.96 
684.09 45.08 1.83 
684.08 45.08 2.70 
684.08 45.08 3.14 
684.08 45.08 3.58 
685.03 45.04 0.53 
685.03 45.04 0.98 
684.55 45.06 1.85 
685.02 45.04 2.32 
685.02 45.04 2.77 
685.01 45.04 3.68 
685.53 45.03 0.08 
685.52 45.02 0.99 
685.52 45.02 1.44 
685.51 45.02 2.35 
685.51 45.02 3.27 
685.50 45.02 3.73 
687.09 44.97 0.54 
687.09 44.97 1.02 
687.09 44.97 1.49 
687.08 44.96 2.45 
687.08 44.96 2.93 
687.07 44.96 3.90 
687.65 44.95 0.54 
687.65 44.95 1.03 
687.65 44.95 1.51 
687.64 44.95 2.49 
687.64 44.95 2.98 
687.63 44.95 3.47 
688.32 44.89 0.54 
688.31 44.89 1.04 
688.31 44.89 1.54 
688.31 44.89 2.04 
688.30 44.89 3.04 
688.30 44.89 3.54 
688.92 44.87 0.55 
688.92 44.87 1.05 
688.92 44.87 1.56 
688.91 44.86 2.58 
688.91 44.86 3.09 
688.90 44.86 4.12 
689.56 44.84 0.55 
689.56 44.84 1.07 
689.55 44.84 1.58 
689.55 44.84 2.62 
689.54 44.84 3.15 
689.54 44.84 3.67 
689.54 44.84 4.20 
690.22 44.81 0.55 
690.22 44.81 1.08 
690.22 44.81 1.61 
690.21 44.81 2.67 
690.20 44.81 3.20 
690.20 44.81 3.74 
690.20 44.81 4.28 
690.92 44.79 0.55 
690.92 44.79 1.09 
690.91 44.78 1.63 
690.91 44.78 2.18 
690.90 44.78 3.27 
690.89 44.78 3.81 
690.89 44.78 4.37 
691.64 44.75 1.11 
691.64 44.75 1.66 
691.64 44.75 2.22 
691.63 44.75 2.77 
691.62 44.75 3.89 
692.41 44.72 1.12 
692.40 44.72 1.69 
692.40 44.72 2.26 
692.39 44.72 3.40 
692.38 44.72 3.98 
669.47 45.87 0.50 
670.63 45.29 -0.13 
670.95 45.36 0.52 
671.21 45.64 0.34 
672.11 45.81 0.18 
672.91 45.71 0.15 
673.46 45.99 0.15 
673.30 45.88 1.50 
673.46 45.77 3.52 
674.05 45.36 -0.47 
674.05 45.78 3.65 
675.98 45.82 4.78 
676.31 45.75 2.45 
676.79 45.71 0.98 
677.36 45.46 3.33 
677.08 45.29 3.47 
677.56 45.70 3.44 
678.61 45.37 0.28 
680.15 45.94 2.84 
681.39 45.71 0.11 
681.35 45.58 1.10 
681.38 45.71 1.63 
681.38 45.71 2.39 
681.33 45.57 2.99 
681.53 45.94 3.47 
681.78 45.70 0.11 
681.77 45.70 1.26 
681.77 45.69 1.64 
681.76 45.69 2.42 
681.76 45.69 3.20 
681.67 45.35 3.65 
681.68 45.39 4.20 
682.99 45.66 0.10 
682.99 45.66 0.90 
682.98 45.66 1.70 
682.56 45.67 2.47 
682.97 45.66 2.91 
683.41 45.53 0.22 
683.43 45.65 0.94 
683.41 45.64 1.72 
683.42 45.66 2.34 
683.36 45.58 3.11 
683.41 45.67 3.76 
683.87 45.63 0.09 
684.32 45.62 0.92 
684.31 45.62 1.34 
683.85 45.63 2.57 
683.85 45.63 2.99 
684.30 45.62 3.46 
684.85 45.58 0.08 
684.85 45.58 0.93 
684.84 45.57 1.79 
684.83 45.57 2.65 
684.83 45.57 3.09 
684.83 45.57 3.52 
685.85 45.55 0.51 
685.85 45.54 0.95 
685.33 45.56 1.81 
685.33 45.56 2.25 
685.83 45.54 3.18 
685.83 45.54 3.64 
686.38 45.53 0.51 
686.38 45.53 0.96 
686.37 45.53 1.87 
686.37 45.52 2.32 
686.36 45.53 3.24 
686.36 45.52 3.70 
686.94 45.51 0.51 
686.93 45.51 0.97 
686.92 45.51 1.90 
686.92 45.51 2.36 
686.91 45.51 3.29 
686.91 45.51 3.76 
688.11 45.47 0.51 
688.11 45.47 1.00 
688.10 45.47 1.48 
688.10 45.47 2.44 
688.09 45.47 2.93 
688.08 45.46 3.91 
689.34 45.46 0.52 
689.34 45.46 1.02 
688.68 45.48 1.50 
689.33 45.46 2.53 
689.32 45.46 3.04 
689.32 45.46 3.54 
690.03 45.44 0.52 
690.02 45.44 1.03 
690.02 45.44 1.55 
690.01 45.44 2.58 
690.00 45.44 3.10 
690.00 45.44 3.62 
689.99 45.44 4.14 
690.74 45.42 1.05 
690.73 45.42 1.58 
690.72 45.42 2.63 
690.72 45.42 3.16 
690.71 45.42 3.70 
690.71 45.42 4.23 
690.91 45.96 0.90 
690.91 45.95 1.42 
690.90 45.95 2.47 
690.89 45.95 2.99 
690.89 45.94 3.52 
691.46 45.39 4.33 
691.70 45.94 0.91 
691.70 45.94 1.45 
691.48 45.39 2.69 
691.47 45.39 3.24 
691.67 45.93 3.61 
691.67 45.92 4.16 
692.28 45.37 1.08 
692.27 45.37 1.64 
692.53 45.92 2.04 
692.26 45.37 3.31 
692.51 45.91 3.71 
692.50 45.91 4.27 
669.02 46.35 0.50 
669.24 46.10 0.50 
669.15 46.59 1.22 
670.94 46.22 0.47 
671.61 46.42 0.19 
671.47 46.62 3.95 
672.55 46.46 0.47 
672.86 46.49 0.16 
673.46 45.99 0.15 
673.80 46.36 3.49 
674.58 46.47 1.82 
674.47 46.50 3.65 
674.13 46.47 4.47 
674.54 45.99 5.13 
674.69 46.60 1.58 
674.69 46.51 2.56 
674.97 46.03 3.71 
675.24 46.04 4.60 
674.94 46.54 5.69 
675.56 46.54 3.38 
676.00 46.22 4.93 
676.34 46.38 -0.22 
676.25 46.65 2.46 
676.35 46.58 4.35 
677.37 46.59 2.01 
677.17 46.65 2.45 
676.84 46.41 2.93 
677.82 46.16 3.26 
677.55 46.07 3.73 
679.61 46.36 0.38 
680.16 46.00 1.12 
680.47 46.24 -0.02 
680.46 46.23 0.82 
680.45 46.22 1.67 
680.42 46.20 3.36 
681.36 46.06 0.36 
681.65 46.16 1.10 
681.65 46.16 1.47 
681.34 46.05 2.57 
681.64 46.15 2.96 
682.04 46.16 0.36 
681.78 46.17 0.94 
682.03 46.15 1.48 
682.03 46.15 2.24 
681.78 46.17 3.03 
682.16 46.18 3.48 
682.54 46.20 0.11 
682.54 46.20 0.95 
682.94 46.11 1.53 
682.93 46.11 2.31 
682.54 46.20 3.08 
682.93 46.20 3.54 
683.37 46.42 -0.23 
683.38 46.11 0.36 
683.35 46.20 0.96 
683.37 46.10 1.55 
683.36 46.10 2.34 
683.34 46.20 3.14 
683.34 46.20 3.58 
684.19 46.20 0.09 
684.18 46.20 0.97 
684.18 46.20 1.86 
684.18 46.20 2.30 
684.18 46.20 3.20 
684.18 46.20 3.65 
684.77 46.08 0.37 
684.62 46.21 0.98 
684.76 46.07 1.61 
684.75 46.07 2.45 
684.75 46.07 2.87 
684.61 46.21 3.69 
685.52 46.22 0.07 
685.52 46.22 0.99 
685.52 46.22 1.45 
685.52 46.21 2.37 
685.51 46.21 3.30 
685.51 46.22 3.77 
686.54 46.29 0.35 
686.54 46.19 1.01 
686.28 46.07 1.69 
686.53 46.19 2.43 
686.26 46.07 3.02 
686.26 46.06 3.47 
686.85 46.07 -0.08 
686.85 46.07 0.37 
687.04 46.20 1.02 
686.84 46.06 1.72 
687.03 46.20 2.46 
686.82 46.05 3.08 
686.82 46.05 3.54 
687.43 46.06 0.37 
687.55 46.20 1.02 
687.42 46.05 1.75 
687.55 46.20 2.49 
687.41 46.04 3.14 
687.40 46.04 3.61 
688.08 46.20 0.54 
688.08 46.20 1.03 
688.08 46.20 1.53 
688.03 46.04 2.26 
688.08 46.20 3.02 
688.02 46.03 3.69 
689.20 46.20 0.54 
689.20 46.20 1.05 
689.20 46.20 1.56 
689.20 46.20 2.08 
689.19 46.20 3.11 
689.19 46.20 3.63 
689.19 46.20 4.15 
690.05 46.02 0.37 
690.05 46.01 0.88 
689.75 46.24 1.58 
690.03 46.00 2.40 
689.74 46.24 3.15 
689.74 46.24 3.68 
689.74 46.24 4.21 
690.36 46.24 0.54 
690.36 46.24 1.07 
690.36 46.24 1.60 
690.36 46.24 2.13 
690.35 46.24 3.20 
690.35 46.24 3.74 
690.35 46.24 4.28 
690.99 46.24 1.08 
690.99 46.24 1.62 
690.98 46.24 2.71 
690.98 46.24 3.25 
690.98 46.24 3.80 
690.98 46.24 4.35 
691.65 46.25 0.54 
691.64 46.25 1.09 
691.64 46.25 1.64 
691.64 46.25 2.20 
691.64 46.25 3.31 
691.63 46.25 3.86 
691.63 46.25 4.43 
692.33 46.25 0.54 
692.32 46.25 1.10 
692.32 46.25 1.67 
692.32 46.25 2.23 
692.32 46.25 3.36 
692.31 46.25 3.93 
692.31 46.25 4.51 
668.97 46.68 0.75 
669.23 47.06 0.82 
669.91 46.82 0.60 
670.65 46.74 3.88 
671.66 47.09 0.61 
671.56 47.07 4.34 
671.96 46.86 0.61 
673.16 46.68 0.14 
674.19 46.89 0.05 
674.18 46.82 1.05 
674.17 46.75 2.04 
674.17 46.68 3.04 
674.14 47.24 3.48 
674.69 46.68 0.60 
675.00 47.10 1.08 
674.84 46.83 3.91 
675.04 47.24 5.08 
675.01 47.36 6.08 
675.84 47.30 0.97 
675.84 47.22 1.89 
675.84 47.15 2.82 
675.57 47.26 4.49 
675.76 47.17 6.10 
675.83 46.75 6.29 
676.51 47.15 0.08 
676.20 47.18 0.93 
676.37 47.20 1.90 
676.52 46.92 2.82 
676.19 46.94 3.78 
676.09 47.00 5.93 
677.01 47.14 0.76 
677.01 47.07 1.66 
677.01 47.00 2.56 
677.52 47.14 3.37 
678.35 47.30 2.96 
678.99 46.87 0.34 
678.99 46.82 1.20 
681.52 46.68 1.91 
681.52 46.71 2.42 
681.53 46.74 2.93 
681.53 46.77 3.45 
682.18 47.05 -0.17 
681.83 46.71 0.49 
682.20 46.72 0.89 
682.20 46.72 1.68 
682.19 46.72 2.49 
682.19 46.72 2.89 
681.86 47.06 3.94 
682.58 46.72 0.49 
682.58 46.72 0.89 
682.58 46.72 1.70 
682.58 46.72 2.51 
682.57 46.72 2.92 
682.71 47.14 3.43 
683.16 47.13 0.32 
683.42 46.71 0.90 
683.42 46.71 1.73 
683.42 46.71 2.57 
683.41 46.71 2.99 
683.25 47.17 3.45 
683.84 46.72 0.07 
684.26 46.72 0.92 
683.83 46.72 1.75 
683.83 46.72 2.60 
683.83 46.72 3.02 
683.83 46.72 3.45 
684.70 46.73 0.06 
684.70 46.73 0.92 
684.69 46.73 1.79 
684.69 46.73 2.66 
684.69 46.73 3.09 
685.09 47.34 3.50 
685.61 46.74 0.05 
685.61 46.74 0.94 
685.61 46.74 1.83 
685.60 46.74 2.72 
685.60 46.74 3.17 
685.60 46.74 3.62 
686.06 46.77 0.49 
686.06 46.77 0.94 
686.06 46.77 1.85 
686.05 46.77 2.30 
686.05 46.77 3.21 
686.05 46.77 3.67 
686.84 46.96 0.22 
687.58 46.79 0.50 
687.58 46.79 0.97 
687.58 46.79 1.44 
687.58 46.79 2.39 
687.57 46.79 3.35 
687.57 46.79 3.83 
688.13 46.80 0.50 
688.12 46.80 0.98 
688.12 46.80 1.46 
688.12 46.79 2.43 
688.11 46.79 3.40 
688.11 46.79 3.89 
689.27 46.81 0.50 
689.27 46.81 1.00 
688.68 46.80 1.97 
689.26 46.81 2.50 
689.26 46.81 3.00 
688.67 46.80 3.95 
689.87 46.83 -0.01 
689.87 46.82 1.01 
689.86 46.82 1.52 
689.86 46.82 2.03 
689.86 46.82 3.05 
689.86 46.82 3.57 
690.60 46.80 0.50 
690.60 46.80 1.02 
690.60 46.80 1.55 
690.60 46.80 2.07 
690.59 46.80 3.12 
690.59 46.80 3.65 
690.59 46.79 4.18 
691.26 46.81 0.50 
691.26 46.81 1.04 
691.26 46.81 1.57 
691.26 46.81 2.10 
691.25 46.80 3.18 
691.25 46.80 3.72 
691.25 46.80 4.26 
691.95 46.82 1.59 
691.94 46.81 2.69 
691.94 46.81 3.24 
691.93 46.81 3.79 
668.07 48.03 5.29 
669.59 48.00 1.74 
673.19 47.78 0.41 
673.18 47.67 2.42 
673.53 47.61 2.60 
673.80 47.39 5.36 
673.95 47.57 5.69 
674.49 47.94 0.24 
674.51 47.53 1.29 
674.64 47.48 2.64 
674.66 47.85 3.61 
674.33 47.78 4.45 
674.09 47.80 5.27 
674.82 47.63 0.24 
675.33 47.71 3.60 
674.84 47.61 4.16 
674.71 47.43 6.00 
675.81 47.81 4.55 
675.45 47.42 5.32 
675.71 47.47 6.14 
675.59 48.00 6.31 
676.18 47.56 2.47 
677.75 47.91 0.31 
677.57 47.57 3.39 
677.74 47.76 3.76 
678.36 47.42 0.38 
678.26 47.75 3.68 
679.41 48.04 0.14 
679.31 47.62 0.94 
679.41 48.04 1.73 
679.23 47.61 2.23 
680.27 47.42 0.70 
683.27 47.35 0.25 
683.20 47.49 0.91 
683.20 47.49 1.77 
683.23 47.39 2.48 
683.19 47.50 3.07 
683.21 47.41 3.82 
683.86 47.74 0.26 
683.86 47.74 1.14 
683.85 47.74 1.59 
684.24 47.78 2.05 
684.24 47.79 2.95 
683.83 47.76 3.83 
684.66 47.81 0.25 
684.66 47.82 1.16 
685.06 47.86 1.62 
685.06 47.86 2.08 
685.05 47.86 3.00 
684.63 47.83 3.89 
685.49 47.89 0.25 
685.49 47.90 0.71 
685.48 47.90 1.63 
685.47 47.90 2.56 
685.56 47.38 2.97 
685.46 47.91 3.96 
686.02 47.92 0.25 
686.01 47.92 0.71 
686.50 47.48 1.88 
685.99 47.93 2.59 
686.43 47.97 3.09 
686.06 47.43 3.54 
687.20 47.41 0.21 
686.98 47.51 0.77 
686.99 47.52 1.33 
687.02 47.53 2.45 
687.04 47.54 3.01 
687.05 47.55 3.57 
687.07 47.55 4.14 
687.37 48.05 0.24 
687.36 48.05 0.72 
687.53 47.57 1.89 
687.34 48.06 2.66 
687.56 47.59 3.02 
687.33 48.06 3.64 
687.59 47.60 4.16 
688.01 47.60 0.19 
688.04 47.61 1.32 
688.05 47.62 1.89 
688.07 47.63 2.47 
688.09 47.64 3.04 
688.64 47.69 3.64 
689.10 47.70 0.16 
689.11 47.71 0.74 
689.15 47.72 1.90 
689.16 47.73 2.49 
689.18 47.74 3.07 
689.20 47.74 3.66 
689.68 47.76 0.73 
689.71 47.77 1.91 
689.73 47.78 2.50 
689.74 47.79 3.09 
689.76 47.80 3.69 
690.25 47.82 0.73 
690.29 47.83 1.92 
690.31 47.84 2.52 
690.32 47.85 3.12 
690.34 47.86 3.72 
690.92 47.84 0.11 
690.95 47.85 1.32 
690.97 47.86 1.93 
690.99 47.87 2.54 
691.01 47.88 3.15 
691.02 47.89 3.76 
691.53 47.90 0.10 
691.57 47.91 1.32 
691.58 47.92 1.94 
691.60 47.93 2.55 
691.62 47.93 3.17 
691.64 47.94 3.80 
692.20 47.97 1.32 
692.22 47.98 1.95 
692.23 47.99 2.57 
692.25 47.99 3.20 
692.27 48.00 3.83 
668.22 48.15 4.47 
668.30 48.19 5.07 
667.67 48.67 5.83 
668.83 48.74 0.51 
668.83 48.74 0.78 
668.83 48.74 1.61 
669.02 48.61 2.32 
668.58 48.35 3.34 
668.44 48.31 3.65 
668.41 48.24 4.20 
669.33 48.14 1.41 
671.78 48.35 0.23 
672.23 48.37 0.24 
672.87 48.64 0.13 
673.19 48.25 1.71 
673.75 48.35 0.12 
673.86 48.63 1.05 
673.85 48.56 2.01 
673.57 48.75 2.63 
673.85 48.49 2.97 
673.90 48.69 3.51 
674.32 48.27 0.24 
674.34 48.44 1.56 
674.13 48.12 2.11 
674.34 48.28 3.46 
674.17 48.32 5.46 
674.26 48.59 5.64 
674.73 48.11 1.11 
674.79 48.52 1.82 
674.86 48.37 2.61 
674.85 48.43 3.22 
675.15 48.29 5.88 
675.60 48.52 3.57 
676.06 48.28 4.23 
676.04 48.23 5.26 
675.83 48.52 6.04 
676.11 48.48 2.47 
676.08 48.31 2.79 
676.14 48.59 3.91 
676.54 48.24 4.50 
676.76 48.44 5.16 
676.32 48.22 5.95 
677.21 48.45 0.54 
677.16 48.68 1.99 
677.21 48.35 2.27 
677.21 48.30 3.14 
676.78 48.34 4.48 
677.75 48.10 4.58 
678.72 48.69 2.83 
678.18 48.30 3.62 
679.19 48.62 0.29 
679.18 48.60 1.09 
679.17 48.55 2.69 
679.70 48.14 0.13 
679.69 48.13 1.16 
683.57 48.18 0.48 
683.57 48.18 0.90 
683.57 48.18 1.74 
683.19 48.14 2.57 
683.18 48.14 3.00 
683.56 48.18 3.45 
684.35 48.25 0.48 
683.95 48.21 0.90 
683.95 48.21 1.75 
683.95 48.21 2.61 
683.95 48.21 3.04 
683.95 48.21 3.48 
684.75 48.29 0.48 
684.75 48.29 0.91 
684.75 48.29 1.78 
685.14 48.35 2.24 
685.14 48.35 3.12 
684.74 48.29 3.54 
685.56 48.39 0.48 
685.56 48.39 0.92 
685.56 48.39 1.81 
685.55 48.39 2.70 
685.55 48.39 3.15 
685.55 48.39 3.61 
685.99 48.43 0.03 
686.42 48.47 0.93 
686.42 48.47 1.39 
686.42 48.47 2.30 
685.98 48.43 3.18 
686.42 48.47 3.68 
686.87 48.51 0.48 
686.87 48.51 0.94 
686.87 48.51 1.86 
686.87 48.51 2.32 
686.87 48.51 3.25 
686.87 48.51 3.72 
687.84 48.09 -0.25 
687.80 48.60 0.01 
687.83 48.09 0.73 
687.80 48.60 1.90 
687.82 48.10 2.20 
687.80 48.60 3.33 
687.80 48.10 3.68 
687.80 48.11 4.18 
688.29 48.65 0.00 
688.32 48.13 0.73 
688.28 48.65 1.92 
688.30 48.14 2.22 
688.28 48.65 3.37 
688.29 48.15 3.72 
688.28 48.15 4.22 
688.82 48.18 0.23 
688.81 48.18 0.74 
689.29 48.26 1.75 
689.28 48.26 2.26 
688.85 48.68 2.93 
689.27 48.27 3.80 
689.26 48.27 4.32 
689.37 48.73 -0.01 
689.82 48.30 0.74 
689.81 48.30 1.77 
689.80 48.31 2.29 
689.80 48.31 2.81 
689.79 48.31 3.85 
689.78 48.32 4.37 
690.35 48.35 1.27 
690.35 48.35 1.79 
690.34 48.36 2.32 
690.33 48.36 3.37 
690.32 48.36 3.90 
690.32 48.37 4.43 
690.92 48.40 0.22 
690.91 48.40 1.28 
690.90 48.40 1.81 
690.90 48.41 2.34 
690.89 48.41 2.88 
691.45 48.47 4.00 
690.87 48.42 4.49 
692.08 48.51 0.21 
691.48 48.46 1.29 
692.06 48.51 1.85 
691.47 48.46 2.37 
692.05 48.52 2.95 
692.04 48.52 3.51 
692.03 48.52 4.62 
668.29 49.13 0.52 
668.25 49.01 1.13 
668.14 48.93 1.97 
668.19 49.00 2.14 
668.17 48.96 2.96 
668.30 49.06 3.68 
668.16 48.91 4.59 
667.89 48.81 5.71 
668.98 49.15 0.47 
668.98 49.15 0.72 
668.40 49.05 1.58 
668.97 49.14 2.21 
668.46 49.45 3.26 
669.38 49.14 0.68 
669.18 49.13 1.09 
669.32 49.13 1.78 
669.31 49.13 2.41 
669.33 48.99 2.89 
669.26 48.97 3.64 
673.26 49.14 0.65 
673.15 49.25 1.46 
672.90 49.34 3.34 
673.70 49.41 -0.08 
673.52 49.42 3.25 
673.74 48.97 3.56 
673.73 48.89 4.36 
673.75 48.91 5.03 
674.12 49.42 -0.08 
674.51 49.09 0.27 
674.47 49.12 1.03 
674.38 48.91 1.77 
674.34 49.38 2.40 
674.44 48.90 2.88 
674.23 48.99 3.47 
674.42 48.84 4.22 
674.24 49.19 5.03 
675.19 49.11 1.06 
675.06 49.13 2.14 
675.06 49.13 2.14 
674.92 49.15 2.77 
675.02 49.24 5.43 
675.84 49.01 0.03 
675.84 48.94 0.94 
675.91 49.10 1.86 
676.04 49.42 2.48 
675.91 49.03 2.73 
675.92 48.96 3.61 
675.42 49.44 5.10 
675.60 48.83 5.88 
676.48 49.18 -0.09 
676.40 49.40 0.33 
676.48 49.13 0.77 
676.48 49.07 1.63 
676.48 49.00 2.49 
676.48 48.94 3.36 
676.57 49.16 3.91 
676.65 49.29 4.43 
676.19 49.29 5.19 
676.23 48.86 5.81 
677.06 49.36 4.85 
677.53 48.78 4.39 
678.21 49.15 0.36 
678.72 48.77 1.21 
678.21 49.02 2.79 
678.80 49.05 3.44 
678.18 48.81 4.20 
679.40 48.96 0.02 
679.39 48.95 0.80 
679.38 48.94 1.58 
689.90 48.78 0.48 
689.90 48.78 0.98 
689.90 48.78 1.49 
689.90 48.78 2.50 
689.90 48.78 3.00 
689.89 48.78 4.03 
690.45 48.83 0.48 
690.45 48.83 0.99 
690.45 48.83 1.50 
690.45 48.83 2.53 
690.44 48.83 3.05 
690.44 48.83 4.08 
691.02 48.89 0.48 
691.02 48.89 1.00 
691.02 48.89 1.52 
691.02 48.89 2.04 
691.01 48.89 3.09 
691.01 48.89 3.62 
691.01 48.89 4.15 
691.61 48.94 0.48 
691.61 48.94 1.01 
691.61 48.94 1.54 
691.61 48.94 2.07 
691.60 48.94 3.14 
691.60 48.94 3.67 
691.60 48.94 4.21 
692.22 49.00 0.48 
692.22 49.00 1.02 
692.22 49.00 1.56 
692.22 49.00 2.10 
692.22 49.00 3.18 
692.22 49.00 3.73 
692.21 49.00 4.28 
668.26 49.90 1.15 
668.02 49.74 2.07 
667.92 49.61 3.33 
668.03 49.79 3.92 
667.79 49.53 4.20 
669.61 49.63 0.62 
669.61 49.62 1.04 
669.61 49.62 1.89 
669.61 49.62 2.32 
669.15 49.66 3.43 
671.00 49.62 0.43 
670.99 49.62 0.95 
670.84 50.06 1.75 
671.12 50.07 2.57 
670.98 49.62 3.05 
672.87 49.57 -0.17 
672.92 49.49 0.42 
673.10 49.62 1.81 
673.10 50.16 3.31 
673.28 49.58 -0.17 
673.37 49.91 3.76 
673.29 50.02 4.46 
674.50 49.63 1.06 
674.02 50.15 1.55 
674.29 49.91 2.52 
674.12 49.58 3.28 
675.13 49.77 0.34 
674.88 50.15 1.07 
674.81 49.70 1.80 
675.15 50.03 2.13 
674.95 50.02 3.43 
675.92 49.48 3.40 
675.77 50.05 3.60 
676.03 49.89 4.18 
675.83 50.11 5.69 
676.27 49.65 0.48 
676.52 50.02 0.73 
676.32 49.66 1.44 
676.38 49.67 2.41 
676.65 50.03 3.99 
676.37 50.14 4.37 
676.19 49.59 5.50 
676.28 49.75 6.01 
677.13 49.94 0.33 
677.13 49.91 1.15 
677.12 49.87 1.97 
677.12 49.84 2.79 
677.18 50.04 4.39 
677.24 49.92 5.22 
677.66 49.56 0.39 
677.66 49.53 1.21 
677.66 49.49 2.02 
677.70 49.49 4.89 
679.18 50.13 -0.07 
670.83 50.70 0.24 
670.77 50.68 1.34 
670.72 50.66 2.44 
672.47 50.32 3.94 
673.05 50.61 1.59 
672.94 50.58 3.95 
672.81 50.83 4.59 
673.57 50.37 0.13 
673.56 50.31 1.05 
673.56 50.24 1.97 
673.55 50.18 2.90 
673.53 50.58 4.11 
673.64 50.36 4.70 
674.02 50.22 0.64 
674.56 50.21 1.66 
674.45 50.36 2.37 
675.12 50.45 0.24 
674.79 50.70 0.70 
675.01 50.82 1.82 
675.16 50.73 2.54 
675.26 50.67 3.41 
675.12 50.42 3.43 
675.51 50.64 0.07 
675.50 50.58 0.95 
675.47 50.86 1.83 
675.50 50.44 2.70 
675.73 50.40 3.89 
675.83 50.62 5.57 
676.50 50.64 0.55 
676.50 50.59 1.37 
676.50 50.55 2.19 
676.50 50.51 3.01 
676.50 50.46 3.83 
676.14 50.17 4.89 
676.18 50.30 5.87 
677.12 50.47 4.23 
677.18 50.36 5.03 
677.47 50.51 1.92 
677.94 50.86 2.70 
677.94 50.83 3.46 
677.66 50.74 5.04 
678.32 50.84 1.80 
678.31 50.82 2.56 
678.31 50.80 3.31 
681.25 50.65 -0.05 
681.02 50.55 1.14 
681.01 50.55 1.59 
681.01 50.55 2.34 
688.52 50.34 0.14 
688.51 50.34 1.00 
688.72 50.81 -0.31 
688.72 50.81 0.55 
688.71 50.81 0.97 
688.70 50.80 3.12 
672.45 51.23 0.54 
672.41 51.21 1.59 
672.36 51.19 2.64 
672.32 51.17 3.69 
672.66 51.09 0.44 
672.66 51.04 1.38 
672.65 50.99 2.32 
672.64 50.94 3.27 
673.23 51.07 3.86 
673.47 51.33 0.59 
673.82 51.28 1.35 
673.38 51.30 2.71 
673.35 50.94 3.38 
673.71 51.41 3.91 
674.51 51.44 0.63 
674.51 51.29 1.76 
674.01 51.47 3.15 
675.01 50.94 0.14 
675.01 50.88 0.98 
675.10 51.25 1.39 
675.04 51.44 3.24 
675.47 50.99 0.17 
675.88 51.08 0.78 
675.75 51.51 1.82 
675.88 50.97 2.42 
675.88 50.92 3.24 
675.71 51.41 4.79 
675.56 51.23 4.93 
676.23 51.40 2.01 
676.25 51.32 3.40 
676.54 50.95 4.31 
676.58 50.87 5.05 
677.04 51.48 0.41 
677.03 51.45 1.18 
677.33 51.21 1.75 
677.03 51.39 2.73 
677.02 51.36 3.50 
677.14 50.88 4.16 
677.95 50.96 0.42 
677.94 50.93 1.18 
677.94 50.90 1.94 
677.72 51.30 2.20 
677.51 51.02 3.45 
677.69 51.17 4.22 
677.59 51.24 4.93 
678.33 50.89 0.31 
678.32 50.87 1.05 
678.46 51.29 1.51 
678.45 51.28 2.24 
678.44 51.27 2.97 
681.23 51.12 0.23 
681.22 51.12 1.10 
681.22 51.12 1.53 
681.46 51.46 2.43 
681.09 51.32 3.25 
689.05 51.37 -0.33 
688.98 51.38 0.43 
688.97 51.37 0.86 
689.03 51.38 1.86 
689.03 51.38 2.30 
689.03 51.38 2.74 
672.81 52.22 0.14 
672.84 52.18 1.20 
672.85 52.16 1.55 
672.86 52.20 2.25 
673.07 51.63 3.60 
673.72 51.87 -0.22 
673.39 52.13 0.30 
673.58 52.19 0.78 
673.39 52.06 1.75 
673.58 52.14 2.23 
673.61 51.62 3.22 
674.53 52.28 0.30 
674.64 52.47 0.98 
674.31 52.25 1.59 
674.29 52.24 2.20 
674.00 52.24 2.94 
675.20 52.17 0.11 
675.19 52.11 0.95 
675.19 52.05 1.80 
675.19 51.98 2.65 
675.34 51.85 2.75 
675.18 51.92 3.50 
675.98 51.94 0.72 
675.71 52.04 1.81 
676.01 52.24 2.91 
676.00 52.20 3.70 
676.57 51.78 0.35 
676.57 51.75 1.13 
676.56 51.72 1.91 
676.56 51.68 2.69 
676.56 51.65 3.47 
677.43 51.99 3.91 
677.22 51.95 4.28 
677.73 52.16 2.04 
677.55 51.79 4.66 
677.67 52.26 5.00 
681.66 51.64 0.23 
681.66 51.62 1.00 
681.65 51.64 1.48 
681.65 51.64 2.43 
681.63 51.96 2.63 
681.77 52.17 0.21 
681.77 52.17 0.66 
681.76 52.17 1.86 
681.76 52.17 2.32 
689.14 52.01 0.52 
689.13 52.00 0.95 
689.13 52.00 1.81 
689.13 52.00 2.24 
689.25 51.65 2.75 
689.39 52.26 0.52 
689.39 52.26 0.95 
689.38 52.26 1.82 
689.38 52.25 2.25 
672.54 52.33 2.29 
672.40 52.45 3.20 
672.81 52.22 0.14 
673.24 52.39 1.17 
673.25 52.37 1.52 
672.87 52.27 2.60 
673.15 52.41 2.93 
673.20 52.92 3.69 
673.90 52.45 -0.23 
673.76 52.30 0.30 
673.76 52.26 1.01 
673.81 52.41 1.51 
673.35 52.50 2.34 
673.42 52.57 2.90 
674.65 52.52 0.17 
674.64 52.47 0.98 
674.64 52.41 1.79 
674.21 52.63 2.39 
674.18 52.61 3.33 
674.64 52.29 3.43 
675.07 52.61 0.20 
675.07 52.55 1.00 
675.12 52.78 1.50 
675.09 52.76 2.45 
675.06 52.75 3.39 
675.25 52.85 4.32 
675.44 52.78 0.01 
675.41 52.91 0.98 
675.44 52.68 1.57 
675.57 52.52 2.05 
675.55 52.75 3.01 
675.44 52.53 3.94 
676.14 52.55 1.96 
676.11 52.66 2.08 
676.12 52.84 4.43 
677.25 52.88 0.43 
677.25 52.85 1.15 
676.89 52.93 1.85 
677.25 52.79 2.58 
676.88 52.87 3.31 
677.24 52.73 4.03 
677.30 52.71 4.74 
677.57 52.89 0.32 
677.57 52.87 1.03 
677.56 52.85 1.73 
677.56 52.82 2.44 
677.55 52.81 3.15 
677.55 52.79 3.86 
678.01 52.77 4.27 
678.11 52.62 5.01 
678.23 52.46 -0.04 
678.21 52.47 0.66 
678.20 52.47 1.35 
678.18 52.48 2.05 
678.17 52.48 2.74 
681.13 52.43 0.28 
681.14 52.44 0.68 
681.16 52.45 1.47 
681.19 52.46 2.27 
681.21 52.47 3.08 
682.71 52.81 3.08 
688.44 52.86 0.09 
688.45 52.89 1.07 
688.46 52.90 1.56 
688.46 52.92 2.05 
688.47 52.95 3.03 
673.35 52.99 0.19 
673.42 53.29 0.67 
673.42 53.23 1.52 
673.42 53.17 2.37 
673.80 53.39 3.09 
673.41 53.04 4.08 
674.48 53.34 0.24 
674.53 53.31 1.10 
674.58 53.32 1.48 
674.11 53.39 2.42 
674.07 53.38 3.27 
674.03 53.36 4.13 
675.00 53.59 -0.12 
674.92 53.30 0.26 
674.89 53.29 1.14 
674.93 53.55 1.61 
675.04 53.54 2.21 
674.85 53.52 3.34 
674.90 53.35 3.43 
674.81 53.50 4.20 
675.75 53.44 0.29 
675.71 53.10 1.17 
675.71 53.09 1.59 
675.66 53.48 2.24 
675.69 53.26 3.36 
676.04 53.30 4.10 
676.19 53.07 0.17 
676.47 53.19 1.16 
676.05 53.39 1.85 
676.08 53.03 2.70 
676.45 53.11 3.37 
676.45 53.08 4.11 
676.89 53.01 0.40 
676.92 53.21 1.05 
676.94 53.05 1.60 
676.91 53.03 2.56 
676.84 53.18 2.75 
676.88 53.02 3.53 
677.70 53.41 0.24 
677.66 53.35 0.76 
677.88 53.20 1.64 
677.85 53.18 2.62 
677.63 53.32 2.81 
677.55 53.35 3.67 
677.67 53.11 4.73 
678.85 53.35 1.70 
678.81 53.33 2.69 
678.78 53.31 3.68 
678.89 53.36 0.70 
679.91 53.54 -0.26 
679.87 53.52 0.74 
679.84 53.50 1.75 
679.80 53.48 2.75 
679.76 53.46 3.76 
680.94 53.62 0.79 
680.90 53.60 1.81 
680.86 53.58 2.84 
682.84 53.12 0.52 
682.67 53.59 1.12 
682.82 53.12 1.69 
682.82 53.12 2.37 
682.81 53.13 2.88 
690.21 53.54 0.74 
690.19 53.55 1.63 
690.18 53.56 2.53 
690.17 53.56 2.98 
690.16 53.56 3.44 
674.31 53.99 0.21 
674.30 53.94 0.98 
674.30 53.89 1.77 
674.30 53.83 2.55 
674.30 53.78 3.34 
674.30 53.73 4.13 
674.83 54.34 0.23 
674.80 54.32 1.01 
674.77 54.30 1.79 
674.74 54.29 2.57 
675.03 54.11 3.05 
674.70 53.82 4.09 
674.67 54.26 4.14 
675.76 53.77 -0.09 
675.56 53.95 0.58 
675.55 53.91 1.32 
675.68 53.74 1.65 
675.55 53.87 2.07 
675.61 53.70 3.40 
675.55 53.80 3.57 
675.56 54.32 4.40 
676.57 53.92 -0.06 
676.53 53.90 0.82 
676.49 53.89 1.70 
676.45 53.87 2.58 
676.41 53.85 3.46 
677.39 54.07 -0.03 
677.43 53.72 1.28 
677.32 54.04 1.75 
677.39 53.70 2.20 
677.35 53.68 3.12 
677.24 54.00 3.53 
678.16 54.19 1.80 
678.12 54.18 2.70 
678.08 54.16 3.61 
678.35 53.89 0.39 
678.31 53.87 1.32 
678.27 53.85 2.26 
678.23 53.83 3.19 
679.31 53.73 0.30 
679.27 53.71 1.18 
679.22 54.03 1.37 
679.18 54.01 2.31 
679.14 53.99 3.26 
679.15 53.67 3.81 
680.14 53.89 0.33 
680.10 53.88 1.22 
680.14 54.19 1.42 
680.10 54.17 2.38 
680.02 53.84 2.99 
679.98 53.83 3.88 
680.95 54.04 1.26 
680.90 54.03 2.16 
680.86 54.01 3.06 
680.82 54.00 3.96 
680.99 54.06 0.37 
681.09 54.36 1.47 
681.05 54.34 2.44 
681.01 54.32 3.41 
681.86 54.23 0.40 
681.99 53.78 0.84 
681.95 53.76 1.87 
681.77 54.20 2.22 
681.73 54.19 3.13 
683.03 53.92 1.93 
682.99 53.90 2.98 
683.07 53.94 0.88 
684.19 54.11 0.93 
684.15 54.09 1.99 
684.11 54.07 3.06 
690.14 54.18 0.49 
690.47 53.80 0.74 
690.13 54.18 1.80 
690.46 53.80 2.09 
690.45 53.81 2.99 
690.44 53.81 3.45 
674.64 54.67 3.35 
674.90 54.81 0.26 
674.87 54.79 1.02 
674.84 54.78 1.77 
674.81 54.76 2.53 
674.75 54.73 4.05 
675.36 54.41 4.20 
675.96 54.82 -0.26 
675.59 54.98 0.39 
675.58 54.95 1.10 
675.58 54.92 1.81 
675.58 54.89 2.52 
675.57 54.87 3.23 
675.57 54.84 3.95 
676.03 54.60 4.26 
676.32 54.68 -0.27 
676.32 54.65 0.42 
676.32 54.62 1.10 
676.32 54.58 1.79 
676.32 54.55 2.48 
676.31 54.52 3.18 
676.31 54.49 3.88 
676.08 55.05 4.17 
676.90 54.66 0.34 
676.89 54.64 1.00 
676.89 54.62 1.67 
676.88 54.60 2.33 
676.88 54.59 3.00 
676.87 54.57 3.67 
679.10 54.39 0.04 
679.06 54.37 0.95 
679.99 54.56 0.07 
679.95 54.54 0.99 
679.91 54.52 1.91 
679.86 54.50 2.83 
679.82 54.48 3.76 
680.89 54.73 0.10 
680.85 54.71 1.03 
680.81 54.69 1.97 
680.77 54.67 2.90 
680.73 54.65 3.84 
681.14 54.37 0.50 
682.17 54.50 0.53 
681.78 54.89 1.08 
681.74 54.87 2.02 
682.08 54.46 2.50 
681.69 54.85 2.97 
682.04 54.44 3.48 
682.82 55.04 0.15 
682.78 55.02 1.11 
682.70 54.40 1.36 
682.74 55.00 2.07 
682.70 54.98 3.04 
683.05 54.61 3.57 
683.66 54.60 0.47 
683.62 54.58 1.40 
683.09 54.63 2.57 
683.53 54.55 3.27 
684.22 54.85 0.61 
684.18 54.83 1.63 
684.13 54.81 2.64 
684.09 54.79 3.65 
684.64 54.74 0.51 
684.60 54.72 1.45 
684.55 54.71 2.40 
684.51 54.69 3.35 
685.61 54.93 0.54 
685.57 54.92 1.50 
685.52 54.90 2.46 
685.48 54.88 3.43 
674.36 55.26 3.23 
675.14 55.44 -0.12 
675.00 55.28 0.07 
674.97 55.26 0.81 
674.95 55.25 1.54 
674.92 55.23 2.27 
675.13 55.30 2.74 
674.88 55.20 3.74 
675.12 55.23 4.19 
675.63 55.44 0.09 
675.60 55.43 0.83 
675.58 55.41 1.57 
675.55 55.40 2.31 
675.53 55.38 3.05 
676.27 55.61 0.11 
676.24 55.59 0.86 
676.17 55.10 1.85 
676.14 55.08 2.62 
676.17 55.55 3.09 
676.76 55.26 3.44 
676.73 55.24 4.22 
676.88 55.32 0.34 
676.85 55.31 1.11 
676.82 55.29 1.89 
676.79 55.27 2.67 
676.76 55.26 3.44 
676.89 55.12 3.97 
678.28 55.66 0.39 
678.25 55.65 1.18 
678.31 55.13 2.00 
678.20 55.61 2.77 
678.25 55.10 3.64 
679.14 55.34 0.39 
679.10 55.32 1.22 
679.07 55.30 2.05 
679.04 55.29 2.88 
679.01 55.27 3.71 
