# .PCD v0.7 - Point Cloud Data file format
VERSION 0.7
FIELDS x y z
SIZE 4 4 4
TYPE F F F
COUNT 1 1 1
WIDTH 340
HEIGHT 1
VIEWPOINT 0 0 0 1 0 0 0
POINTS 340
DATA ascii
693.63 39.90 0.93 
694.88 39.70 0.96 
696.25 39.49 0.29 
696.24 39.49 0.98 
693.49 40.62 0.10 
693.14 44.74 1.14 
693.14 44.74 1.72 
693.13 44.74 2.30 
693.13 44.74 2.88 
693.12 44.74 3.47 
693.12 44.74 4.05 
693.98 44.70 1.16 
693.97 44.70 1.75 
693.97 44.70 2.35 
693.96 44.70 2.94 
693.96 44.70 3.54 
693.95 44.70 4.15 
694.87 44.67 0.56 
694.86 44.67 1.79 
694.85 44.67 2.40 
694.85 44.67 3.01 
694.84 44.67 3.63 
694.84 44.67 4.25 
695.80 44.63 0.57 
695.79 44.63 1.19 
695.78 44.63 2.45 
695.78 44.63 3.08 
695.77 44.63 3.72 
695.77 44.63 4.35 
696.78 44.59 0.57 
696.78 44.59 1.22 
696.77 44.59 2.51 
696.76 44.59 3.81 
696.75 44.59 4.47 
698.94 44.52 -0.11 
698.93 44.52 0.57 
698.93 44.52 1.26 
700.11 44.48 -0.13 
700.11 44.48 0.58 
700.10 44.48 1.29 
693.12 45.35 0.53 
693.10 45.35 1.67 
693.10 45.35 2.24 
693.09 45.34 2.81 
693.09 45.34 3.39 
693.08 45.34 3.97 
693.99 45.32 1.12 
693.98 45.32 1.71 
693.97 45.32 2.29 
693.97 45.32 2.88 
693.96 45.32 3.47 
693.96 45.32 4.07 
695.11 45.24 1.15 
695.09 45.24 2.36 
695.09 45.24 2.97 
695.08 45.24 3.59 
695.08 45.24 4.20 
696.11 45.21 0.54 
696.11 45.21 1.17 
696.09 45.21 3.05 
696.08 45.21 3.69 
696.07 45.21 4.32 
697.18 45.18 0.55 
697.17 45.18 1.19 
697.14 45.17 4.45 
698.32 45.14 1.22 
698.28 45.14 4.58 
693.03 46.26 1.12 
693.03 46.26 1.69 
693.03 46.25 2.27 
693.03 46.25 2.84 
693.03 46.25 3.42 
693.02 46.25 4.59 
693.77 46.26 1.13 
693.77 46.26 1.72 
693.76 46.26 2.31 
693.41 45.90 2.66 
693.76 46.26 3.49 
693.38 45.89 4.39 
694.54 46.27 1.14 
694.36 45.89 1.55 
694.53 46.27 2.35 
694.53 46.27 2.95 
694.53 46.27 3.55 
695.38 45.87 0.38 
695.38 45.87 0.99 
695.37 45.87 1.59 
695.36 45.86 2.20 
695.35 45.86 2.81 
695.35 45.86 3.42 
695.34 45.85 4.04 
695.54 46.23 0.55 
695.54 46.23 1.78 
695.53 46.23 2.40 
695.53 46.23 3.03 
695.53 46.23 3.65 
696.46 45.85 0.38 
696.45 45.84 1.01 
696.44 45.84 1.64 
696.44 45.84 2.27 
696.43 45.83 2.90 
696.42 45.83 3.53 
696.41 45.83 4.16 
697.50 45.88 0.38 
697.49 45.88 1.03 
697.47 45.87 2.33 
697.46 45.87 2.98 
697.45 45.87 3.63 
697.44 45.86 4.28 
698.73 45.86 0.39 
698.72 45.86 1.06 
698.24 46.24 1.22 
698.24 46.24 2.55 
698.24 46.24 3.22 
699.25 46.25 1.24 
699.24 46.25 2.61 
700.04 45.83 1.09 
700.31 46.25 1.26 
692.67 46.82 1.06 
692.67 46.82 1.62 
692.67 46.82 2.18 
692.66 46.82 2.74 
692.66 46.82 3.30 
693.43 46.83 1.08 
693.43 46.83 1.65 
693.42 46.83 2.22 
693.42 46.83 2.79 
693.41 46.83 3.95 
694.22 46.84 1.09 
694.22 46.84 1.68 
694.22 46.84 2.26 
694.21 46.84 2.85 
694.21 46.84 3.44 
694.21 46.84 4.03 
695.06 46.85 1.11 
695.06 46.85 1.71 
695.05 46.85 2.31 
695.05 46.85 2.91 
695.05 46.85 3.52 
695.04 46.85 4.13 
695.86 46.91 1.13 
695.86 46.91 1.74 
695.85 46.90 2.35 
695.85 46.91 2.97 
695.85 46.90 3.59 
695.84 46.90 4.21 
696.78 46.92 1.14 
696.78 46.92 1.78 
696.78 46.92 2.41 
696.77 46.92 3.04 
696.77 46.91 3.68 
696.76 46.91 4.32 
699.88 46.96 1.21 
699.88 46.95 2.59 
701.05 46.97 1.23 
692.83 48.02 0.69 
692.85 48.03 1.32 
692.66 48.57 1.88 
692.90 48.05 3.23 
692.65 48.58 3.56 
692.64 48.58 4.12 
692.63 48.58 4.69 
694.19 48.14 0.68 
694.21 48.15 1.33 
694.23 48.16 1.98 
694.24 48.17 2.63 
694.28 48.19 3.95 
694.88 48.20 0.01 
694.90 48.21 0.67 
694.92 48.21 1.33 
694.94 48.22 1.99 
694.96 48.23 2.66 
694.98 48.24 3.33 
695.00 48.25 4.00 
695.57 48.30 -0.01 
695.59 48.31 0.66 
695.61 48.32 1.33 
695.63 48.33 2.00 
695.65 48.34 2.68 
695.67 48.35 3.36 
695.69 48.36 4.04 
696.33 48.37 -0.03 
696.35 48.38 0.65 
696.37 48.39 1.33 
696.39 48.40 2.02 
696.41 48.41 2.71 
696.43 48.42 3.39 
696.45 48.43 4.09 
697.12 48.44 -0.05 
697.14 48.45 0.64 
697.16 48.46 1.34 
697.18 48.47 2.04 
697.20 48.48 2.73 
697.22 48.49 3.44 
697.93 48.52 -0.07 
697.95 48.53 0.63 
697.97 48.54 1.34 
697.99 48.55 2.05 
698.02 48.55 2.76 
698.03 48.57 3.48 
692.81 49.09 1.03 
693.30 48.63 1.33 
693.29 48.63 1.90 
692.80 49.09 3.23 
693.27 48.64 3.61 
692.80 49.09 4.34 
693.26 48.65 4.76 
693.47 49.16 0.48 
693.47 49.15 1.60 
693.46 49.15 2.16 
693.46 49.16 2.72 
693.46 49.15 3.85 
694.02 48.67 4.26 
694.01 48.68 4.85 
694.07 48.66 0.19 
694.15 49.22 0.49 
694.05 48.66 1.35 
694.04 48.67 2.51 
694.14 49.22 2.77 
694.14 49.22 3.92 
694.70 48.74 4.33 
694.74 48.72 0.19 
694.86 49.29 0.49 
694.86 49.29 1.65 
694.86 49.29 2.23 
695.42 48.80 2.59 
694.85 49.29 3.40 
695.40 48.81 4.41 
695.45 48.79 0.18 
695.44 48.79 0.78 
695.44 48.79 1.38 
695.43 48.79 1.98 
696.19 48.85 0.17 
696.18 48.86 0.79 
696.17 48.86 1.40 
696.16 48.86 2.01 
696.16 48.86 2.63 
696.14 48.87 3.86 
696.13 48.87 4.48 
698.59 49.07 0.15 
698.58 49.07 0.80 
698.82 48.62 1.35 
698.57 49.08 2.11 
698.56 49.08 2.77 
698.88 48.64 3.53 
698.54 49.09 4.09 
698.54 49.09 4.75 
699.39 49.19 0.14 
699.38 49.20 0.81 
699.37 49.20 1.48 
699.37 49.20 2.14 
699.36 49.20 2.81 
699.35 49.21 3.48 
699.34 49.21 4.16 
699.33 49.21 4.83 
700.30 49.28 0.13 
700.30 49.28 0.82 
699.77 48.66 1.31 
699.80 48.67 2.04 
700.27 49.29 2.87 
699.84 48.69 3.52 
700.25 49.29 4.25 
700.67 48.74 0.57 
700.69 48.75 1.32 
700.71 48.76 2.07 
700.74 48.77 2.82 
700.76 48.78 3.57 
695.60 49.36 0.49 
695.60 49.36 1.67 
695.60 49.36 2.27 
695.60 49.36 2.87 
695.60 49.36 3.47 
695.59 49.36 4.07 
696.37 49.44 0.49 
696.37 49.43 1.70 
696.37 49.43 2.31 
696.37 49.43 2.92 
696.37 49.43 3.53 
696.37 49.43 4.15 
697.18 49.52 0.49 
697.17 49.51 1.73 
697.17 49.51 2.35 
697.17 49.51 2.98 
697.17 49.51 4.23 
699.10 49.66 -0.16 
699.10 49.66 1.15 
699.09 49.66 1.80 
699.09 49.65 2.46 
699.09 49.65 3.12 
700.04 49.75 0.49 
700.04 49.75 1.17 
700.03 49.75 2.51 
700.03 49.75 3.19 
701.03 49.84 0.49 
701.03 49.84 1.18 
701.03 49.84 1.88 
701.03 49.84 2.57 
701.25 49.37 0.82 
701.25 49.37 1.52 
701.23 49.38 2.93 
701.22 49.38 3.63 
701.21 49.38 4.34 
702.09 49.94 0.49 
702.25 49.46 1.55 
702.23 49.47 2.99 
709.21 49.40 0.39 
701.62 50.44 0.13 
708.74 50.19 0.40 
708.19 50.96 0.41 
707.66 51.71 0.41 
707.13 52.44 0.42 
706.62 53.15 0.43 
706.12 53.83 0.43 
704.96 54.57 0.17 
705.63 54.50 0.44 
705.16 55.15 0.45 
705.54 54.95 -0.10 
711.18 55.38 0.67 
704.61 55.80 0.45 
710.57 56.15 0.67 
693.26 56.51 0.83 
705.48 56.39 -0.23 
709.88 56.90 0.67 
711.38 56.60 0.66 
713.32 56.44 0.90 
703.33 57.59 0.47 
709.23 57.63 0.67 
710.69 57.35 0.66 
702.92 58.17 0.47 
708.57 58.32 0.67 
710.08 58.11 0.55 
707.93 59.00 0.67 
709.28 58.80 0.66 
709.46 58.80 0.56 
710.50 59.02 0.60 
708.64 59.47 0.66 
708.83 59.46 0.56 
709.77 59.75 0.60 
692.69 59.95 0.58 
708.05 60.11 0.66 
