# .PCD v0.7 - Point Cloud Data file format
VERSION 0.7
FIELDS x y z
SIZE 4 4 4
TYPE F F F
COUNT 1 1 1
WIDTH 206
HEIGHT 1
VIEWPOINT 0 0 0 1 0 0 0
POINTS 206
DATA ascii
693.61 60.99 0.26 
693.79 60.65 1.04 
693.59 60.97 1.21 
693.56 60.96 2.17 
693.54 60.94 3.13 
699.05 60.84 1.25 
700.70 60.99 1.21 
701.23 60.49 1.22 
702.07 61.08 -0.11 
702.45 60.55 -0.12 
693.13 61.66 0.89 
693.11 61.64 1.81 
693.09 61.62 2.74 
693.07 61.61 3.66 
697.92 61.77 1.22 
698.43 61.33 1.23 
700.13 61.47 1.21 
701.46 61.66 -0.01 
692.85 62.37 0.94 
692.83 62.36 1.83 
692.81 62.34 2.72 
692.79 62.32 3.61 
692.77 62.31 4.51 
697.44 62.20 1.21 
699.20 62.50 1.17 
699.81 62.02 1.18 
701.02 62.15 0.00 
702.36 61.94 -0.06 
704.01 62.39 1.49 
705.90 62.51 0.67 
705.97 62.51 0.59 
707.05 62.39 0.60 
693.29 63.29 4.49 
696.51 63.01 1.19 
696.96 62.61 1.20 
698.02 63.22 1.18 
698.62 62.96 1.16 
698.52 62.80 1.19 
699.68 62.82 0.58 
699.68 62.82 1.18 
700.62 62.64 0.01 
701.38 62.97 -0.03 
703.10 62.99 0.81 
703.09 62.99 1.47 
706.47 62.99 0.60 
693.31 63.31 3.62 
693.40 63.37 0.12 
693.37 63.35 0.99 
693.35 63.34 1.87 
693.33 63.32 2.74 
696.06 63.39 1.19 
697.54 63.62 1.18 
697.54 63.62 1.18 
699.75 63.56 0.03 
700.96 63.47 -0.02 
702.22 63.56 1.44 
703.48 63.66 0.68 
704.85 63.60 0.60 
692.98 64.12 0.96 
692.97 64.11 1.81 
692.95 64.09 2.65 
692.93 64.08 3.49 
692.91 64.07 4.34 
695.26 64.14 0.66 
695.26 64.13 1.17 
695.83 64.36 1.18 
696.58 64.63 1.11 
696.26 63.99 1.19 
697.07 64.24 1.12 
697.08 64.02 1.17 
700.02 64.41 0.00 
701.41 64.10 1.41 
703.00 64.16 0.68 
704.38 64.14 0.67 
705.37 64.13 0.60 
693.43 65.11 -0.03 
693.42 65.10 0.79 
693.41 65.09 1.62 
693.39 65.08 2.44 
693.38 65.06 3.27 
693.36 65.05 4.10 
694.08 65.16 1.15 
695.01 65.06 1.17 
695.68 65.14 1.16 
696.44 65.32 1.12 
698.52 64.85 0.06 
699.57 64.85 0.01 
703.40 65.16 0.67 
693.04 65.87 0.46 
693.03 65.85 1.25 
693.02 65.84 2.05 
693.00 65.83 2.85 
692.99 65.82 3.64 
692.98 65.80 4.44 
693.71 65.48 1.14 
694.56 65.41 1.16 
695.21 65.73 0.09 
695.20 65.73 1.09 
695.53 66.03 1.10 
696.86 65.72 0.11 
701.20 66.05 0.68 
692.82 66.78 1.05 
692.81 66.77 1.82 
692.80 66.76 2.59 
692.79 66.75 3.36 
692.78 66.73 4.13 
693.89 66.73 1.06 
694.13 66.29 0.14 
694.68 66.70 1.09 
695.10 66.37 1.09 
695.67 66.67 -0.22 
695.78 66.09 0.62 
696.17 66.47 0.13 
700.76 66.50 0.68 
702.46 66.12 0.68 
692.83 66.79 0.28 
693.13 67.34 1.05 
693.91 67.34 1.07 
694.31 67.03 1.08 
695.35 67.03 -0.21 
695.53 66.88 0.07 
695.55 66.88 0.59 
696.26 67.09 -0.23 
697.04 67.30 0.06 
699.61 67.39 0.21 
700.10 66.96 0.20 
699.91 67.35 0.69 
700.33 66.93 0.69 
701.42 67.05 0.64 
693.14 67.93 1.06 
693.52 67.64 1.07 
694.30 68.10 -0.18 
696.30 68.03 0.07 
696.23 68.02 1.04 
699.10 68.17 0.69 
692.77 68.22 1.06 
693.67 68.74 -0.16 
693.60 68.40 1.08 
693.61 68.41 1.54 
693.64 68.43 2.48 
695.33 68.31 -0.19 
695.24 68.67 1.02 
695.93 68.38 0.08 
695.72 68.35 1.03 
696.59 68.45 0.04 
698.57 68.24 0.22 
698.66 68.61 0.69 
700.17 68.35 0.68 
693.07 69.35 -0.15 
693.36 69.05 -0.16 
693.88 69.56 0.99 
694.32 69.27 1.00 
695.34 69.03 0.26 
695.34 69.03 0.75 
702.23 69.20 0.80 
692.77 69.64 -0.14 
692.99 70.11 0.98 
693.46 69.84 0.99 
696.42 70.06 0.24 
696.82 69.71 0.24 
697.18 70.13 0.69 
697.55 69.76 0.69 
698.89 70.05 0.61 
699.32 69.66 0.61 
695.68 70.72 0.25 
696.16 70.72 0.23 
698.11 70.80 0.61 
698.51 70.43 0.61 
699.33 70.71 0.61 
700.06 70.82 0.78 
700.58 70.44 0.79 
694.58 71.65 0.26 
695.30 71.04 0.25 
697.33 71.51 0.61 
697.72 71.16 0.61 
698.90 71.08 0.61 
699.16 71.59 0.77 
693.72 72.37 0.26 
694.55 71.95 0.25 
696.57 72.20 0.61 
696.84 72.03 0.22 
696.95 71.86 0.61 
698.03 71.86 0.61 
698.71 71.95 0.77 
695.83 72.86 0.61 
696.20 72.53 0.61 
697.42 72.98 0.76 
697.83 72.64 0.76 
695.44 73.19 0.61 
696.46 73.26 0.61 
697.34 73.29 0.31 
697.01 73.31 0.76 
695.77 74.26 0.75 
696.23 73.94 0.75 
694.67 75.15 0.74 
695.03 74.86 0.74 
693.97 75.71 0.73 
694.32 75.43 0.73 
696.01 75.65 0.53 
696.43 75.35 0.53 
693.31 76.28 0.73 
692.84 76.30 1.22 
693.62 75.99 0.73 
694.80 76.52 0.53 
695.32 77.09 0.49 
694.68 77.29 0.33 
