# .PCD v0.7 - Point Cloud Data file format
VERSION 0.7
FIELDS x y z
SIZE 4 4 4
TYPE F F F
COUNT 1 1 1
WIDTH 665
HEIGHT 1
VIEWPOINT 0 0 0 1 0 0 0
POINTS 665
DATA ascii
-88.75 111.12 -15.67 
-88.74 111.10 -14.68 
-88.72 111.09 -13.70 
-87.96 110.86 -15.71 
-87.95 110.86 -14.69 
-87.95 110.86 -13.67 
-87.71 111.44 -12.63 
-87.16 111.31 -15.90 
-87.15 111.30 -14.95 
-87.51 110.87 -13.69 
-87.14 111.26 -13.04 
-100.82 122.78 -16.98 
-84.28 124.13 -12.17 
-82.81 123.86 -13.69 
-83.15 124.05 -13.57 
-82.73 123.76 -12.41 
-87.04 124.63 -11.72 
-84.14 124.66 -12.37 
-84.36 124.23 -11.97 
-83.42 124.17 -13.40 
-83.65 124.41 -12.87 
-83.73 124.60 -11.59 
-84.00 124.44 -10.94 
-83.11 124.47 -15.72 
-83.12 124.66 -13.57 
-82.67 124.34 -12.50 
-82.51 124.67 -12.51 
-82.49 124.74 -11.90 
-88.73 125.48 -11.07 
-88.35 125.43 -10.82 
-87.67 124.98 -10.98 
-86.98 125.27 -10.98 
-86.49 125.37 -14.37 
-86.58 125.36 -13.16 
-86.64 125.42 -12.56 
-86.22 125.50 -10.97 
-85.90 125.20 -13.44 
-86.01 125.33 -12.45 
-85.63 124.91 -11.61 
-86.12 125.54 -11.13 
-84.96 125.55 -16.29 
-85.03 125.45 -15.51 
-84.90 125.52 -14.14 
-85.07 125.36 -13.50 
-84.77 125.00 -12.58 
-84.95 125.52 -11.81 
-84.60 124.90 -14.25 
-84.12 125.51 -13.57 
-83.89 125.19 -12.50 
-84.28 125.50 -11.90 
-84.68 125.45 -10.59 
-83.40 125.50 -16.49 
-83.51 125.37 -16.11 
-83.71 125.11 -14.93 
-83.66 125.48 -14.20 
-83.55 125.17 -13.35 
-83.91 124.93 -12.87 
-83.96 125.45 -11.83 
-83.96 125.19 -11.24 
-82.92 125.15 -13.88 
-83.09 125.43 -13.59 
-82.91 125.39 -12.78 
-82.60 125.08 -14.91 
-82.59 124.87 -12.41 
-89.44 126.08 -11.21 
-88.66 126.15 -11.32 
-87.86 126.17 -12.50 
-87.61 125.71 -11.89 
-87.86 125.68 -11.08 
-87.08 125.63 -17.04 
-87.42 125.70 -11.20 
-86.39 125.83 -17.04 
-86.25 125.75 -14.14 
-86.69 126.18 -12.45 
-86.19 126.06 -11.84 
-86.50 126.16 -10.05 
-85.69 126.04 -17.04 
-85.66 126.17 -15.65 
-86.00 125.57 -13.88 
-85.82 125.92 -13.31 
-85.76 125.83 -12.47 
-85.60 126.00 -11.93 
-85.61 126.19 -11.39 
-84.98 126.19 -17.05 
-84.97 125.85 -14.07 
-85.40 126.21 -13.10 
-84.92 125.96 -11.88 
-84.29 125.94 -16.33 
-84.61 125.72 -14.22 
-84.61 126.10 -12.66 
-84.46 125.79 -11.87 
-83.90 125.92 -16.10 
-83.91 125.86 -14.90 
-83.91 126.08 -14.35 
-83.93 125.99 -12.86 
-83.97 125.71 -11.96 
-83.03 125.65 -16.12 
-82.73 126.00 -14.87 
-82.82 125.93 -13.91 
-83.04 125.79 -13.64 
-83.29 125.80 -12.77 
-82.95 125.69 -11.73 
-82.40 125.93 -12.92 
-90.50 126.72 -11.79 
-89.81 126.35 -10.96 
-88.99 126.83 -11.35 
-89.16 126.34 -10.44 
-88.58 126.51 -12.54 
-88.27 126.42 -11.87 
-88.05 126.79 -12.70 
-87.74 126.60 -11.89 
-87.92 126.51 -11.32 
-88.02 126.92 -10.20 
-87.20 126.42 -13.38 
-87.46 126.72 -12.60 
-86.83 126.68 -11.99 
-86.94 126.85 -11.21 
-86.69 126.74 -15.92 
-86.34 126.29 -15.51 
-86.30 126.88 -14.84 
-86.45 126.63 -12.70 
-86.26 126.94 -11.72 
-86.28 126.61 -11.16 
-86.40 126.62 -10.86 
-86.21 126.85 -10.05 
-85.93 126.28 -15.43 
-85.83 126.81 -14.84 
-86.00 126.54 -13.97 
-85.76 126.90 -13.50 
-86.12 126.31 -12.92 
-85.10 126.85 -15.28 
-84.75 126.51 -14.98 
-84.80 126.88 -14.30 
-84.76 126.63 -13.61 
-85.07 126.33 -11.95 
-85.14 126.91 -11.17 
-85.07 126.71 -9.25 
-84.21 126.58 -16.35 
-84.24 126.92 -14.93 
-84.32 126.77 -14.30 
-84.17 126.85 -12.81 
-84.55 126.38 -11.86 
-84.46 126.70 -11.12 
-84.18 126.58 -10.81 
-84.46 126.90 -10.12 
-83.49 126.40 -17.06 
-83.95 126.33 -16.18 
-83.38 126.79 -15.66 
-83.88 126.53 -14.94 
-83.97 126.73 -14.19 
-83.79 126.80 -13.46 
-83.91 126.42 -12.28 
-83.57 126.73 -11.67 
-83.46 126.35 -11.56 
-83.66 126.77 -10.83 
-83.13 126.33 -16.52 
-83.03 126.81 -16.39 
-83.17 126.52 -15.62 
-82.66 126.43 -14.54 
-83.24 126.87 -13.78 
-83.17 126.54 -13.26 
-82.88 126.30 -12.89 
-83.07 126.65 -12.13 
-82.44 126.76 -15.53 
-82.44 126.61 -14.89 
-82.60 126.57 -13.31 
-82.48 126.49 -12.19 
-90.16 127.51 -12.11 
-89.07 127.26 -13.44 
-89.28 127.20 -12.02 
-88.49 127.64 -14.92 
-88.71 127.57 -13.07 
-88.82 127.05 -11.94 
-88.11 127.23 -15.50 
-88.17 127.27 -12.81 
-87.27 127.22 -12.04 
-87.06 127.59 -15.65 
-87.43 127.04 -14.90 
-87.45 127.08 -13.36 
-86.98 127.37 -12.70 
-87.30 127.52 -12.12 
-86.66 127.28 -15.56 
-86.48 127.25 -14.91 
-86.68 127.47 -14.20 
-86.17 127.09 -13.29 
-86.80 126.96 -11.72 
-86.39 127.06 -10.48 
-85.91 127.18 -15.31 
-86.05 127.39 -14.98 
-85.52 127.12 -14.20 
-85.75 127.40 -13.13 
-85.57 127.39 -12.72 
-85.97 127.13 -11.89 
-85.79 127.21 -11.33 
-84.74 127.36 -16.37 
-84.96 126.96 -15.17 
-84.93 127.50 -14.42 
-84.96 127.43 -13.84 
-85.24 127.49 -13.13 
-85.10 127.03 -12.61 
-84.81 127.13 -12.01 
-85.14 127.38 -11.31 
-84.80 127.56 -9.16 
-84.12 127.27 -16.38 
-84.22 127.59 -15.58 
-84.22 127.30 -14.89 
-84.37 127.05 -14.28 
-84.32 127.08 -13.43 
-84.23 127.16 -12.59 
-84.34 127.21 -11.40 
-84.43 127.39 -9.17 
-83.53 127.59 -15.60 
-83.56 127.19 -15.02 
-83.77 127.29 -14.30 
-83.62 127.54 -13.22 
-83.74 127.18 -12.61 
-83.83 127.24 -11.40 
-83.68 127.54 -10.05 
-83.26 127.51 -16.52 
-83.04 127.55 -16.36 
-82.96 127.43 -15.61 
-82.77 126.98 -14.88 
-83.03 127.63 -14.30 
-82.72 127.44 -13.24 
-82.98 127.48 -12.53 
-82.94 127.64 -11.50 
-83.03 127.51 -9.65 
-82.56 127.46 -16.96 
-82.40 127.37 -15.10 
-82.62 127.02 -14.98 
-82.48 127.28 -12.25 
-82.40 127.21 -12.10 
-91.28 128.09 -12.70 
-90.74 127.80 -12.14 
-90.19 127.72 -15.62 
-89.99 127.70 -14.66 
-90.29 128.19 -12.53 
-89.63 127.85 -12.14 
-89.41 128.03 -15.61 
-89.28 127.81 -14.46 
-88.97 127.86 -14.04 
-88.85 128.23 -15.90 
-88.47 127.94 -15.45 
-88.86 128.15 -14.91 
-88.84 127.99 -14.21 
-88.82 127.90 -13.50 
-88.79 127.72 -12.78 
-87.94 127.73 -16.32 
-87.82 128.04 -15.27 
-87.68 127.91 -14.91 
-87.64 127.71 -14.19 
-87.63 127.67 -13.48 
-87.70 128.04 -11.98 
-88.15 127.87 -11.33 
-87.61 127.87 -10.33 
-87.48 128.34 -16.55 
-87.14 127.78 -15.62 
-87.20 127.95 -14.97 
-87.07 127.99 -14.13 
-87.10 128.17 -13.06 
-87.03 128.27 -12.65 
-87.11 127.74 -12.13 
-87.52 128.14 -11.34 
-87.35 127.69 -10.66 
-86.14 128.10 -16.89 
-86.47 127.97 -15.94 
-86.56 127.77 -15.62 
-86.33 128.33 -15.07 
-86.22 128.09 -13.80 
-86.34 127.73 -13.51 
-86.57 127.87 -12.84 
-86.31 127.71 -11.04 
-85.82 128.15 -15.72 
-85.82 127.94 -15.42 
-85.73 128.08 -14.38 
-85.95 127.90 -13.82 
-85.69 128.29 -13.27 
-85.90 127.81 -12.82 
-85.44 127.91 -12.15 
-85.65 127.84 -11.36 
-85.06 128.35 -16.95 
-84.97 128.10 -15.94 
-84.90 128.04 -15.65 
-84.92 128.15 -14.95 
-85.07 128.18 -14.24 
-85.11 128.30 -13.37 
-85.36 127.67 -12.66 
-85.27 128.33 -11.83 
-84.91 128.28 -11.15 
-84.92 128.22 -10.73 
-85.01 127.98 -9.12 
-85.03 128.20 -8.24 
-84.26 127.86 -16.71 
-84.46 128.04 -15.95 
-84.51 128.09 -15.69 
-84.17 128.31 -14.93 
-84.50 128.30 -13.87 
-84.35 128.17 -13.30 
-84.70 127.91 -12.69 
-84.18 128.00 -12.03 
-84.57 127.82 -10.69 
-83.81 127.76 -16.71 
-83.84 128.15 -16.35 
-83.93 127.84 -15.40 
-83.76 128.13 -14.95 
-83.55 128.07 -14.01 
-83.57 128.23 -13.38 
-83.95 128.17 -12.37 
-83.48 128.04 -12.19 
-83.50 127.84 -11.56 
-83.57 128.35 -9.96 
-83.24 127.81 -16.64 
-83.01 127.91 -16.00 
-83.01 127.91 -15.44 
-83.00 128.08 -14.88 
-83.08 128.03 -14.01 
-83.02 127.71 -13.17 
-83.12 128.01 -12.80 
-83.07 127.75 -11.72 
-82.46 127.77 -16.38 
-82.51 127.74 -15.24 
-82.57 128.09 -12.80 
-82.53 127.90 -10.85 
-91.99 128.88 -12.76 
-91.34 128.52 -15.61 
-91.36 129.04 -14.94 
-91.41 128.49 -12.80 
-91.41 128.92 -12.03 
-90.81 128.77 -15.61 
-90.81 128.74 -14.94 
-90.59 128.69 -12.19 
-90.21 128.62 -15.66 
-90.22 128.69 -14.93 
-89.75 128.94 -14.27 
-90.03 128.61 -12.87 
-90.23 128.67 -12.14 
-89.22 129.01 -16.28 
-89.20 128.86 -15.62 
-89.41 129.03 -14.10 
-89.33 128.77 -12.77 
-88.39 128.63 -16.98 
-88.45 128.98 -16.29 
-88.46 128.84 -15.66 
-88.66 128.63 -12.46 
-87.98 128.95 -16.52 
-87.87 128.87 -16.40 
-88.18 129.01 -13.13 
-87.98 128.43 -12.68 
-88.13 128.71 -11.91 
-86.86 128.73 -16.54 
-87.37 128.89 -15.91 
-87.00 128.99 -15.32 
-87.40 128.99 -14.93 
-86.99 128.80 -14.10 
-86.91 128.64 -13.26 
-86.84 128.72 -12.55 
-86.91 128.37 -12.16 
-86.95 128.36 -11.28 
-86.51 128.67 -16.54 
-86.23 128.70 -16.20 
-86.38 128.47 -15.63 
-86.64 128.93 -14.99 
-86.45 128.53 -13.84 
-86.51 128.63 -13.27 
-86.34 128.45 -12.83 
-86.66 128.98 -11.96 
-85.84 128.61 -16.55 
-85.58 128.52 -16.20 
-85.60 128.56 -15.65 
-85.62 128.66 -15.01 
-85.87 128.61 -14.03 
-85.83 128.95 -13.36 
-85.84 128.77 -12.78 
-86.00 128.68 -11.62 
-85.17 128.52 -16.96 
-84.76 128.89 -16.16 
-85.40 128.65 -15.54 
-85.02 128.94 -14.90 
-85.21 128.96 -14.03 
-85.37 129.04 -13.43 
-85.16 128.82 -12.15 
-85.16 128.82 -12.15 
-85.18 128.57 -9.19 
-84.40 128.50 -16.85 
-84.52 128.72 -16.19 
-84.43 128.50 -15.58 
-84.57 128.63 -15.01 
-84.04 128.36 -13.88 
-84.05 129.01 -13.05 
-84.54 128.80 -12.67 
-84.53 128.89 -11.34 
-84.43 128.64 -10.63 
-83.95 128.78 -16.93 
-83.72 128.65 -16.11 
-83.52 128.36 -15.59 
-83.45 129.00 -14.96 
-83.31 129.12 -13.96 
-83.57 128.23 -13.38 
-83.67 128.57 -11.75 
-83.99 128.99 -10.72 
-82.83 129.01 -16.81 
-82.65 128.44 -16.21 
-83.11 128.98 -15.16 
-82.74 128.73 -14.72 
-82.90 128.47 -13.98 
-82.65 129.04 -12.35 
-82.82 128.87 -11.82 
-83.11 129.00 -10.89 
-82.75 128.73 -10.17 
-82.56 128.41 -16.67 
-82.45 128.59 -14.99 
-82.42 128.69 -13.47 
-91.20 129.46 -13.61 
-91.38 129.50 -12.32 
-90.68 129.74 -14.08 
-90.86 129.61 -12.99 
-90.67 129.46 -12.94 
-89.81 129.68 -14.07 
-89.84 129.74 -13.54 
-89.90 129.32 -12.59 
-89.86 129.29 -11.69 
-89.46 129.05 -14.00 
-89.33 129.55 -13.46 
-88.70 129.15 -16.95 
-88.46 129.08 -15.61 
-88.48 129.19 -14.93 
-88.43 129.69 -14.14 
-88.62 129.36 -13.14 
-88.83 129.54 -11.62 
-87.61 129.12 -16.29 
-87.97 129.15 -15.32 
-87.97 129.31 -14.72 
-87.88 129.41 -14.07 
-88.21 129.49 -13.63 
-87.67 129.39 -12.78 
-87.69 129.23 -11.26 
-87.84 129.15 -10.62 
-87.09 129.27 -16.29 
-87.45 129.60 -15.67 
-87.01 129.19 -14.72 
-86.97 129.42 -14.15 
-87.12 129.18 -13.27 
-86.96 129.34 -12.73 
-87.06 129.65 -11.13 
-86.24 129.56 -16.57 
-86.55 129.29 -16.30 
-86.38 129.05 -14.67 
-86.80 129.59 -14.10 
-86.61 129.14 -13.30 
-86.18 129.65 -12.30 
-86.35 129.36 -12.19 
-86.16 129.37 -11.24 
-85.86 129.27 -16.52 
-85.73 129.15 -16.31 
-85.90 128.89 -14.94 
-85.81 129.50 -14.06 
-85.62 129.60 -13.58 
-85.56 129.22 -12.91 
-85.57 129.43 -11.72 
-84.99 129.27 -16.52 
-85.39 129.05 -15.24 
-85.06 129.30 -14.79 
-85.25 129.42 -13.88 
-84.93 129.40 -13.41 
-85.35 129.61 -12.79 
-85.38 129.12 -12.18 
-85.06 129.27 -11.39 
-85.08 129.56 -10.39 
-85.40 129.08 -10.14 
-84.43 129.41 -16.59 
-84.70 129.31 -14.51 
-84.72 129.16 -14.27 
-84.49 129.37 -12.98 
-84.46 129.07 -11.20 
-84.49 129.37 -10.67 
-84.36 129.31 -9.47 
-83.57 129.06 -15.88 
-83.53 129.33 -15.08 
-83.73 129.36 -15.04 
-83.72 129.35 -14.26 
-83.68 129.28 -13.47 
-83.87 129.31 -11.81 
-83.03 129.26 -16.63 
-83.29 129.73 -16.18 
-83.31 129.12 -13.96 
-83.18 129.56 -13.43 
-82.86 129.06 -12.88 
-83.08 129.08 -11.80 
-83.01 129.66 -11.36 
-82.78 129.05 -10.22 
-82.41 129.44 -16.63 
-82.48 129.59 -14.93 
-82.52 129.14 -13.19 
-82.49 129.72 -11.89 
-91.93 130.18 -13.68 
-91.93 130.34 -13.05 
-91.92 129.93 -12.37 
-91.42 130.20 -13.04 
-90.41 130.30 -16.25 
-90.92 130.42 -13.70 
-90.71 129.80 -13.63 
-89.73 130.28 -16.25 
-90.19 129.88 -14.09 
-90.31 129.77 -13.53 
-90.14 130.05 -12.40 
-89.34 130.29 -16.46 
-89.33 129.90 -14.96 
-89.36 130.18 -14.32 
-89.36 129.92 -12.97 
-88.87 130.43 -16.46 
-88.23 130.22 -15.59 
-88.85 130.08 -14.78 
-88.42 130.15 -13.00 
-88.41 130.41 -12.44 
-87.79 130.25 -16.83 
-88.18 130.19 -13.54 
-87.89 130.01 -12.90 
-87.78 130.43 -12.05 
-87.57 129.87 -10.92 
-87.25 130.15 -16.06 
-86.93 130.40 -15.60 
-87.03 130.05 -14.82 
-87.29 130.44 -14.30 
-87.20 129.87 -13.64 
-87.08 130.06 -12.28 
-87.20 130.24 -11.31 
-86.51 130.19 -16.65 
-86.62 130.31 -16.06 
-86.50 129.80 -15.51 
-86.20 129.84 -14.25 
-86.54 130.02 -13.53 
-86.39 130.16 -12.35 
-86.29 129.81 -12.03 
-86.19 130.16 -11.00 
-85.99 130.20 -16.64 
-85.61 129.80 -16.16 
-85.71 130.17 -14.76 
-85.78 129.99 -12.77 
-85.22 129.86 -15.46 
-85.24 130.05 -14.89 
-84.85 130.41 -14.01 
-84.77 129.87 -13.22 
-85.02 129.93 -12.43 
-85.41 130.33 -11.96 
-84.88 129.82 -10.65 
-84.18 129.92 -15.58 
-84.31 129.94 -15.04 
-84.63 130.00 -14.33 
-84.53 130.35 -12.99 
-84.52 130.38 -12.48 
-84.34 130.20 -10.85 
-83.73 130.40 -16.28 
-83.78 130.01 -15.53 
-83.63 130.34 -14.68 
-83.95 130.34 -14.04 
-83.54 130.32 -13.23 
-83.64 130.28 -11.98 
-82.76 130.16 -16.29 
-83.17 129.93 -15.63 
-82.69 130.05 -15.02 
-83.08 130.45 -13.79 
-83.22 130.21 -11.63 
-83.17 130.06 -10.93 
-82.50 129.88 -16.14 
-82.53 129.77 -13.48 
-90.43 130.64 -13.08 
-90.34 131.14 -12.45 
-90.41 130.53 -11.79 
-89.94 130.77 -16.24 
-89.81 130.95 -13.06 
-89.74 131.09 -12.51 
-89.34 130.58 -16.46 
-89.31 130.59 -12.36 
-88.71 130.52 -16.38 
-88.72 130.58 -14.31 
-88.85 130.87 -12.98 
-88.14 130.58 -16.21 
-87.89 130.73 -14.98 
-87.84 130.48 -13.04 
-88.06 130.81 -12.60 
-87.35 131.10 -14.48 
-87.08 130.47 -12.83 
-86.48 131.00 -16.40 
-86.48 131.09 -16.13 
-86.19 130.65 -15.50 
-86.16 130.79 -14.77 
-86.14 130.65 -14.30 
-86.17 130.65 -12.90 
-85.82 131.08 -14.81 
-85.79 131.04 -14.00 
-85.67 130.95 -13.62 
-85.07 130.93 -16.42 
-84.80 130.77 -15.45 
-84.99 130.77 -14.80 
-85.21 130.47 -14.11 
-84.91 130.65 -11.52 
-85.25 130.66 -10.47 
-84.44 131.10 -16.43 
-84.42 130.71 -15.53 
-84.49 130.59 -15.03 
-84.66 130.77 -14.14 
-84.32 130.91 -12.45 
-83.77 130.85 -16.40 
-83.82 130.51 -14.02 
-83.94 130.71 -13.45 
-83.66 130.88 -12.60 
-83.98 130.79 -11.43 
-83.02 130.87 -14.45 
-82.79 130.48 -14.15 
-83.10 131.15 -11.28 
-89.83 131.25 -12.49 
-88.65 131.59 -13.27 
-87.97 131.56 -14.74 
-87.52 131.52 -14.99 
-86.96 131.43 -12.17 
-87.49 131.39 -11.22 
-86.21 131.19 -16.48 
-86.29 131.20 -15.49 
-86.55 131.72 -14.37 
-85.87 131.22 -15.60 
-85.75 131.33 -14.79 
-85.66 131.56 -14.28 
-85.09 131.22 -16.10 
-84.82 131.83 -15.11 
-85.26 131.29 -14.89 
-84.87 131.45 -14.24 
-84.73 131.41 -13.06 
-85.14 131.18 -12.39 
-85.16 131.74 -11.58 
-85.27 131.71 -10.98 
-84.97 131.36 -10.57 
-84.23 131.81 -16.24 
-84.69 131.33 -15.12 
-84.13 131.54 -14.42 
-84.53 131.51 -14.16 
-84.28 131.44 -13.64 
-84.56 131.47 -11.59 
-84.36 131.82 -9.60 
-83.94 131.66 -16.44 
-83.46 131.23 -14.43 
-84.04 131.45 -14.02 
-83.63 131.20 -13.18 
-83.72 131.78 -10.39 
-89.59 132.14 -13.20 
-88.40 131.94 -14.80 
-88.82 131.88 -13.71 
-88.78 132.01 -12.54 
-88.09 131.87 -11.74 
-87.00 132.10 -14.49 
-87.01 132.00 -11.85 
-86.17 132.25 -14.39 
-86.59 132.36 -11.25 
-85.94 131.99 -14.47 
-85.10 132.32 -15.03 
-85.27 132.12 -14.30 
-85.18 132.09 -11.49 
-84.43 132.01 -14.36 
-84.70 131.87 -13.64 
-84.34 131.98 -9.65 
-83.80 131.92 -11.22 
-82.91 132.22 -10.65 
-87.29 132.87 -11.43 
-86.62 132.78 -11.67 
-85.28 133.02 -14.84 
-84.52 132.57 -13.66 
