# .PCD v0.7 - Point Cloud Data file format
VERSION 0.7
FIELDS x y z
SIZE 4 4 4
TYPE F F F
COUNT 1 1 1
WIDTH 677
HEIGHT 1
VIEWPOINT 0 0 0 1 0 0 0
POINTS 677
DATA ascii
-104.63 148.21 -12.47 
-104.12 148.39 -15.64 
-104.20 148.36 -15.12 
-104.29 148.33 -14.60 
-104.19 148.37 -13.53 
-104.27 148.35 -12.97 
-104.34 148.32 -12.41 
-99.23 148.20 -16.18 
-99.22 148.15 -12.99 
-104.83 148.68 -12.29 
-104.15 148.61 -15.67 
-104.21 148.59 -15.11 
-104.26 148.57 -14.54 
-104.32 148.55 -13.96 
-101.80 149.21 -12.74 
-101.09 149.20 -13.38 
-101.44 149.30 -12.90 
-101.08 149.21 -15.69 
-100.98 148.92 -14.92 
-100.98 148.92 -14.35 
-100.98 148.91 -13.38 
-100.98 148.91 -12.99 
-101.02 148.59 -12.36 
-99.39 148.60 -15.65 
-99.54 149.01 -15.10 
-99.54 149.00 -14.57 
-99.38 148.57 -13.51 
-99.38 148.56 -12.97 
-99.25 148.99 -12.45 
-102.03 149.79 -15.65 
-102.03 149.78 -15.14 
-101.98 149.83 -14.47 
-102.02 149.75 -13.59 
-102.02 149.74 -13.07 
-102.02 149.73 -12.54 
-101.46 149.36 -16.08 
-101.45 149.34 -15.17 
-101.57 149.67 -14.26 
-101.19 149.49 -13.76 
-101.57 149.66 -13.34 
-101.50 149.28 -12.43 
-101.03 149.33 -12.37 
-99.84 149.86 -16.16 
-99.84 149.84 -15.08 
-99.84 149.83 -14.54 
-99.84 149.82 -13.46 
-99.84 149.81 -12.91 
-99.69 149.44 -16.17 
-99.68 149.42 -15.09 
-99.68 149.41 -14.56 
-99.68 149.41 -14.02 
-99.68 149.39 -12.93 
-99.24 149.42 -12.45 
-103.95 150.44 -14.53 
-104.01 150.42 -13.55 
-103.88 150.46 -15.51 
-103.64 150.57 -14.62 
-103.64 150.55 -13.70 
-103.63 150.52 -12.79 
-102.80 150.48 -15.80 
-102.74 150.28 -15.15 
-102.74 150.28 -14.50 
-102.70 150.28 -13.74 
-102.79 150.47 -13.19 
-102.64 150.41 -12.50 
-102.18 150.44 -15.77 
-102.04 150.40 -15.17 
-102.14 150.32 -14.62 
-102.04 150.37 -13.70 
-102.04 150.36 -13.21 
-102.23 150.33 -12.51 
-101.39 150.08 -15.68 
-101.45 150.22 -15.30 
-101.39 150.07 -14.53 
-101.45 150.22 -13.95 
-101.45 150.21 -12.98 
-101.13 150.45 -12.35 
-100.98 150.10 -12.38 
-100.00 150.27 -15.62 
-100.00 150.27 -15.07 
-100.00 150.26 -14.53 
-100.00 150.25 -13.99 
-100.00 150.23 -12.89 
-99.86 150.37 -12.16 
-99.57 150.14 -12.19 
-103.66 150.80 -15.68 
-103.30 151.24 -15.39 
-103.32 151.23 -14.34 
-103.66 150.83 -13.86 
-103.34 151.23 -13.29 
-102.96 150.98 -15.79 
-102.96 150.98 -15.31 
-102.95 150.97 -14.50 
-102.95 150.97 -13.69 
-102.95 150.97 -13.20 
-102.85 151.09 -12.20 
-102.35 150.99 -15.76 
-102.34 150.89 -15.18 
-102.34 150.98 -14.50 
-102.34 150.98 -13.79 
-102.17 150.74 -13.19 
-102.03 151.00 -12.35 
-101.31 151.27 -15.56 
-101.65 150.80 -14.91 
-101.31 151.25 -14.71 
-101.65 150.80 -13.94 
-101.29 151.21 -13.00 
-101.16 151.23 -12.58 
-100.83 151.00 -15.74 
-100.83 150.99 -15.13 
-100.83 150.97 -14.52 
-100.82 150.96 -13.91 
-100.82 150.95 -13.30 
-100.81 150.94 -12.68 
-100.33 151.15 -16.15 
-100.33 151.13 -15.05 
-100.33 151.12 -14.50 
-100.33 151.11 -13.95 
-100.32 151.09 -12.85 
-99.24 151.20 -12.90 
-99.39 150.77 -12.49 
-105.03 151.69 -15.78 
-105.03 151.69 -15.18 
-105.03 151.69 -14.42 
-105.02 151.68 -13.66 
-105.02 151.68 -13.36 
-103.92 151.68 -15.67 
-103.92 151.69 -14.99 
-104.07 151.90 -14.43 
-104.06 151.89 -13.69 
-104.06 151.88 -12.94 
-103.68 151.53 -15.86 
-103.64 151.70 -14.96 
-103.75 151.78 -14.47 
-103.67 151.50 -13.78 
-103.40 151.72 -13.03 
-102.66 151.76 -15.74 
-102.73 151.81 -15.09 
-102.73 151.80 -14.56 
-102.68 151.80 -13.66 
-102.72 151.77 -12.97 
-102.72 151.76 -12.43 
-102.02 151.84 -15.67 
-102.17 151.41 -15.12 
-102.02 151.83 -14.50 
-102.29 151.74 -13.72 
-102.28 151.73 -13.25 
-102.19 151.72 -12.32 
-101.37 151.95 -15.66 
-101.10 151.97 -15.11 
-101.36 151.82 -14.39 
-101.50 151.93 -13.82 
-101.35 151.88 -13.32 
-101.39 151.80 -12.37 
-100.49 151.58 -15.60 
-100.49 151.57 -15.04 
-100.49 151.56 -14.49 
-100.49 151.55 -13.94 
-100.66 151.98 -12.79 
-100.95 151.43 -12.66 
-100.08 151.84 -15.46 
-99.40 151.53 -12.41 
-105.45 152.35 -15.65 
-105.47 152.41 -15.18 
-105.54 152.65 -14.55 
-105.47 152.40 -13.59 
-105.54 152.65 -13.27 
-105.18 152.17 -15.62 
-105.18 152.17 -15.18 
-105.27 152.52 -14.44 
-104.87 152.33 -13.74 
-104.16 152.46 -15.83 
-104.16 152.48 -15.01 
-104.18 152.33 -14.43 
-104.18 152.32 -13.68 
-104.17 152.31 -12.93 
-103.72 152.57 -15.82 
-103.47 152.57 -15.14 
-103.85 152.17 -14.33 
-103.79 152.23 -13.59 
-103.68 152.46 -13.15 
-102.85 152.31 -15.72 
-102.70 152.33 -15.12 
-102.85 152.52 -14.53 
-102.85 152.52 -13.71 
-102.69 152.29 -13.12 
-102.69 152.28 -12.61 
-102.18 152.29 -15.67 
-102.18 152.29 -15.28 
-102.18 152.28 -14.50 
-102.23 152.42 -13.70 
-102.13 152.12 -12.92 
-102.12 152.47 -12.33 
-101.56 152.60 -15.64 
-101.24 152.47 -15.10 
-101.61 152.67 -14.37 
-101.55 152.55 -14.07 
-101.54 152.52 -13.29 
-101.53 152.50 -12.50 
-100.84 152.44 -15.58 
-100.84 152.43 -15.02 
-100.46 152.11 -14.63 
-100.84 152.42 -13.89 
-100.56 152.65 -13.12 
-100.12 152.08 -14.68 
-100.17 152.31 -13.91 
-100.21 152.55 -13.15 
-105.44 153.11 -15.62 
-105.44 153.11 -14.89 
-105.44 153.11 -14.45 
-105.43 153.10 -13.71 
-105.60 152.90 -13.28 
-104.74 153.17 -15.95 
-104.74 153.16 -15.25 
-105.05 152.95 -14.62 
-104.74 153.13 -13.67 
-104.62 152.81 -13.35 
-104.39 153.10 -15.82 
-104.39 153.11 -15.03 
-104.07 152.98 -14.46 
-104.37 153.04 -13.67 
-104.07 152.96 -13.07 
-104.37 152.83 -12.66 
-103.75 153.42 -15.62 
-103.91 153.13 -15.01 
-103.74 153.41 -14.50 
-103.92 153.16 -13.81 
-103.74 153.41 -13.21 
-103.05 153.16 -15.74 
-102.98 153.13 -15.10 
-103.05 153.15 -14.54 
-103.05 153.15 -13.73 
-102.97 153.09 -13.07 
-102.96 153.08 -12.56 
-102.39 152.88 -15.67 
-102.39 152.87 -15.27 
-102.39 153.36 -14.49 
-102.39 153.34 -13.54 
-102.39 152.86 -12.89 
-102.05 153.20 -12.33 
-101.40 152.97 -15.72 
-101.39 152.96 -15.09 
-101.18 153.35 -14.42 
-101.39 152.94 -13.84 
-101.52 153.44 -13.19 
-101.73 153.15 -12.46 
-101.01 152.90 -15.57 
-101.01 152.89 -15.01 
-101.01 152.88 -14.44 
-100.63 152.86 -13.79 
-101.01 152.87 -13.30 
-100.61 152.91 -12.37 
-100.25 152.77 -12.39 
-105.65 153.85 -15.61 
-105.65 153.85 -15.18 
-105.64 153.85 -14.45 
-105.64 153.85 -13.72 
-105.86 153.84 -13.30 
-105.00 153.91 -15.65 
-104.85 153.46 -15.11 
-105.00 153.89 -14.43 
-104.59 153.78 -13.85 
-104.59 153.89 -12.90 
-104.63 153.63 -12.61 
-104.53 153.64 -15.89 
-104.31 153.70 -15.15 
-104.32 153.72 -14.43 
-104.32 153.74 -13.72 
-104.21 153.49 -13.06 
-103.30 153.94 -15.73 
-103.26 153.95 -15.08 
-103.41 153.93 -14.46 
-103.40 153.92 -13.71 
-103.82 153.65 -13.21 
-103.25 153.90 -12.51 
-102.92 153.64 -16.02 
-102.92 153.62 -15.07 
-102.91 153.61 -14.59 
-102.91 153.59 -13.64 
-102.91 153.59 -13.16 
-102.90 153.58 -12.67 
-101.95 153.91 -15.60 
-101.94 153.88 -14.81 
-101.93 153.60 -14.35 
-101.94 153.86 -14.01 
-101.93 153.83 -13.22 
-102.00 153.75 -12.33 
-101.36 153.84 -15.56 
-101.36 153.83 -14.98 
-101.36 153.82 -14.41 
-101.36 153.81 -13.83 
-101.36 153.80 -13.25 
-101.36 153.79 -12.67 
-106.00 154.33 -15.64 
-106.00 154.33 -14.87 
-106.09 154.68 -14.09 
-105.99 154.33 -13.62 
-105.99 154.32 -13.31 
-105.50 154.55 -15.72 
-105.50 154.55 -15.32 
-105.50 154.55 -14.39 
-105.49 154.54 -13.72 
-104.77 154.36 -15.79 
-104.77 154.37 -15.07 
-104.91 154.49 -14.47 
-104.77 154.39 -13.77 
-104.74 154.47 -13.26 
-104.89 154.43 -12.56 
-104.36 154.48 -15.78 
-104.36 154.50 -15.06 
-104.37 154.52 -14.21 
-104.37 154.54 -13.48 
-104.17 154.75 -13.18 
-103.63 154.59 -15.67 
-103.40 154.37 -15.07 
-103.63 154.57 -14.48 
-103.53 154.64 -13.75 
-103.55 154.73 -12.97 
-103.55 154.72 -12.44 
-102.89 154.27 -15.66 
-102.89 154.26 -15.26 
-102.89 154.26 -14.45 
-102.89 154.25 -13.64 
-102.89 154.25 -13.23 
-102.62 154.29 -12.40 
-102.15 154.58 -15.58 
-101.83 154.52 -15.05 
-102.19 154.48 -14.33 
-101.82 154.50 -13.77 
-102.13 154.51 -13.18 
-102.12 154.48 -12.37 
-101.83 154.54 -15.69 
-101.83 154.52 -15.05 
-101.82 154.51 -14.41 
-101.82 154.50 -13.77 
-101.82 154.48 -13.13 
-101.54 154.27 -12.64 
-100.67 154.63 -16.15 
-106.06 155.30 -15.61 
-106.06 155.30 -14.89 
-106.06 155.29 -14.46 
-106.05 155.29 -13.74 
-106.22 155.16 -13.31 
-105.71 155.30 -15.71 
-105.96 154.97 -15.18 
-105.71 155.29 -14.40 
-105.96 154.96 -13.74 
-104.91 155.09 -15.88 
-104.64 155.29 -15.09 
-104.91 155.07 -14.38 
-104.65 155.32 -13.83 
-104.76 155.50 -12.99 
-105.16 155.26 -12.52 
-104.30 155.13 -15.61 
-104.30 155.13 -15.13 
-104.30 155.13 -14.48 
-104.29 155.12 -13.67 
-104.29 155.12 -13.17 
-103.73 155.24 -15.72 
-103.71 155.20 -15.05 
-103.71 155.19 -14.52 
-103.65 155.25 -13.93 
-103.44 155.15 -13.06 
-103.44 155.14 -12.56 
-103.13 154.92 -16.07 
-103.13 154.91 -15.25 
-102.89 155.00 -14.43 
-103.12 154.90 -13.61 
-103.12 154.90 -13.20 
-102.85 155.16 -12.34 
-101.98 155.07 -15.68 
-101.97 155.06 -15.03 
-101.97 155.04 -14.39 
-101.97 155.03 -13.75 
-101.96 155.02 -13.10 
-101.96 155.00 -12.46 
-101.09 155.20 -16.08 
-101.65 155.19 -12.17 
-106.39 155.76 -15.63 
-106.39 155.76 -15.17 
-106.18 155.73 -14.46 
-106.39 155.75 -13.62 
-106.39 155.75 -13.31 
-105.89 155.91 -15.70 
-105.68 155.80 -15.25 
-105.68 155.79 -14.40 
-105.68 155.78 -13.66 
-105.38 156.09 -12.47 
-104.92 156.09 -15.79 
-104.90 155.97 -15.07 
-104.92 156.07 -14.39 
-104.91 156.06 -13.68 
-104.91 156.05 -12.97 
-103.92 155.84 -15.72 
-104.14 155.79 -14.98 
-104.14 155.78 -14.42 
-104.14 156.01 -13.85 
-104.53 155.87 -13.15 
-103.60 155.61 -16.00 
-103.59 155.59 -15.01 
-103.59 155.58 -14.52 
-103.58 155.56 -13.53 
-103.58 155.55 -13.03 
-103.71 155.89 -12.50 
-102.72 156.12 -15.61 
-103.15 155.87 -15.37 
-102.58 155.65 -14.55 
-102.57 155.63 -13.66 
-102.56 155.61 -12.76 
-103.13 155.80 -12.44 
-102.29 156.17 -15.66 
-102.13 155.60 -15.02 
-102.28 156.14 -14.35 
-102.11 155.79 -13.73 
-102.11 155.78 -13.13 
-102.11 155.77 -12.53 
-101.71 156.18 -12.22 
-106.44 156.62 -16.03 
-106.43 156.61 -15.17 
-106.43 156.61 -14.46 
-106.43 156.61 -13.74 
-106.43 156.61 -13.44 
-105.48 156.78 -15.74 
-105.48 156.79 -15.03 
-105.48 156.79 -14.19 
-105.34 156.67 -13.95 
-105.33 156.66 -13.17 
-105.07 156.64 -15.79 
-104.82 156.78 -15.11 
-105.07 156.62 -14.37 
-105.06 156.61 -13.66 
-105.06 156.60 -12.94 
-104.35 156.63 -15.74 
-104.17 156.54 -15.01 
-104.17 156.53 -14.47 
-104.17 156.52 -13.93 
-104.16 156.50 -12.85 
-104.47 156.71 -12.66 
-103.88 156.38 -15.99 
-103.72 156.61 -15.23 
-103.72 156.60 -14.38 
-103.72 156.59 -13.53 
-103.86 156.32 -12.97 
-103.71 156.59 -12.67 
-102.73 156.66 -15.52 
-102.76 156.45 -15.42 
-102.76 156.42 -14.52 
-102.75 156.40 -13.62 
-102.71 156.58 -13.06 
-102.44 156.73 -15.64 
-102.44 156.72 -14.99 
-102.44 156.70 -14.33 
-102.43 156.69 -13.67 
-102.43 156.67 -13.01 
-102.27 156.28 -12.49 
-100.57 156.88 -12.40 
-106.65 157.36 -16.03 
-106.85 157.40 -14.85 
-106.78 157.16 -14.54 
-106.64 157.36 -13.72 
-106.78 157.16 -13.29 
-106.27 157.26 -15.68 
-106.24 157.44 -15.25 
-106.27 157.25 -14.42 
-106.27 157.25 -13.66 
-105.60 157.16 -15.62 
-105.51 157.31 -15.09 
-105.60 157.17 -14.58 
-105.52 157.37 -13.72 
-105.29 157.46 -12.89 
-105.23 157.21 -15.78 
-104.95 157.17 -15.10 
-104.95 157.17 -14.44 
-105.03 157.43 -13.76 
-104.95 157.16 -13.09 
-104.65 157.20 -12.62 
-104.52 157.14 -15.83 
-104.52 157.13 -15.19 
-104.36 157.19 -14.53 
-104.35 157.19 -13.72 
-104.16 157.18 -12.91 
-104.15 157.17 -12.39 
-103.84 156.97 -15.65 
-103.84 156.96 -14.79 
-103.84 156.96 -14.37 
-103.84 156.95 -13.94 
-103.84 156.95 -13.08 
-103.46 157.48 -12.35 
-102.57 157.29 -15.63 
-102.57 157.28 -14.97 
-102.98 157.21 -14.49 
-102.93 157.32 -13.84 
-102.93 157.30 -13.01 
-102.97 157.16 -12.67 
-101.20 157.17 -16.06 
-106.99 157.89 -15.62 
-106.98 157.89 -15.16 
-106.98 157.89 -14.53 
-106.83 158.03 -13.71 
-106.98 157.88 -13.27 
-106.44 158.00 -15.79 
-106.44 157.99 -15.14 
-106.44 157.99 -14.49 
-106.44 157.98 -13.94 
-105.46 158.04 -15.77 
-105.46 158.03 -15.23 
-105.46 158.02 -14.68 
-105.58 157.98 -13.92 
-105.45 158.00 -12.85 
-105.75 158.24 -12.68 
-105.12 157.71 -15.60 
-104.62 158.02 -14.91 
-105.21 157.95 -14.41 
-104.81 157.94 -13.92 
-104.83 157.72 -13.17 
-104.63 158.02 -15.72 
-104.52 157.71 -15.32 
-104.52 157.70 -14.11 
-104.31 157.63 -13.40 
-104.25 158.03 -13.00 
-104.35 158.04 -12.33 
-103.49 157.67 -12.34 
-102.72 157.85 -14.28 
-102.72 157.83 -13.61 
-103.10 157.91 -13.10 
-103.19 158.33 -12.52 
-101.68 158.16 -15.98 
-101.38 158.24 -12.15 
-100.94 157.70 -15.68 
-100.97 157.82 -15.00 
-100.99 157.93 -14.33 
-101.01 158.05 -13.66 
-101.04 158.16 -12.99 
-100.82 158.17 -12.48 
-107.06 158.83 -15.59 
-107.06 158.83 -15.16 
-107.06 158.83 -14.42 
-107.05 158.83 -13.68 
-107.01 158.82 -13.28 
-107.05 158.81 -12.60 
-106.66 158.61 -15.68 
-106.28 158.99 -15.29 
-106.53 158.52 -14.70 
-106.65 158.60 -14.04 
-106.11 158.85 -13.33 
-106.43 158.95 -12.59 
-105.63 158.63 -15.77 
-105.71 158.93 -15.21 
-105.79 158.68 -14.39 
-105.48 158.79 -13.69 
-105.64 158.74 -13.03 
-105.83 159.08 -12.58 
-104.79 158.55 -15.72 
-104.82 158.65 -15.31 
-104.79 158.54 -14.36 
-104.82 158.65 -13.67 
-104.79 158.41 -13.27 
-104.71 158.70 -12.62 
-104.27 158.51 -15.29 
-104.32 158.77 -14.68 
-104.36 159.01 -14.07 
-103.37 158.77 -12.92 
-102.88 158.41 -12.90 
-101.36 158.58 -12.15 
-100.86 158.64 -12.16 
-106.92 159.24 -15.71 
-107.19 159.30 -15.15 
-107.19 159.29 -14.41 
-107.19 159.29 -13.67 
-107.32 159.19 -13.01 
-107.09 159.21 -12.21 
-107.06 159.68 -11.90 
-106.46 159.34 -15.69 
-106.06 159.43 -15.05 
-106.27 159.27 -14.29 
-106.30 159.26 -13.67 
-106.33 159.25 -13.04 
-106.38 159.38 -12.38 
-105.67 159.37 -15.60 
-105.79 159.24 -15.20 
-105.76 159.37 -14.27 
-105.66 159.37 -13.66 
-105.66 159.36 -12.94 
-105.84 159.35 -12.41 
-105.09 159.64 -15.62 
-105.02 159.29 -15.22 
-104.77 159.45 -14.27 
-104.80 159.44 -13.65 
-104.83 159.43 -13.03 
-104.86 159.42 -12.40 
-104.40 159.43 -15.84 
-104.44 159.42 -15.19 
-104.26 159.56 -14.25 
-104.29 159.55 -13.63 
-104.32 159.54 -13.01 
-104.35 159.53 -12.39 
-103.83 159.55 -15.80 
-103.69 159.68 -15.46 
-103.35 159.66 -14.48 
-103.39 159.65 -13.83 
-103.43 159.64 -13.19 
-103.37 159.46 -12.59 
-102.61 159.64 -15.38 
-102.64 159.63 -14.68 
-102.66 159.63 -13.99 
-102.69 159.62 -13.29 
-102.71 159.62 -12.59 
-102.10 159.65 -15.35 
-102.44 159.62 -12.97 
-101.87 159.24 -12.23 
-101.27 159.18 -15.65 
-101.29 159.29 -15.01 
-101.31 159.39 -14.36 
-101.33 159.50 -13.72 
-101.35 159.60 -13.09 
-101.37 159.70 -12.46 
-101.06 159.15 -13.93 
-107.06 160.03 -15.67 
-107.09 159.95 -15.11 
-107.06 160.02 -14.40 
-107.11 160.21 -13.62 
-107.01 159.97 -13.22 
-107.06 159.96 -12.27 
-106.25 160.14 -15.86 
-106.24 160.13 -15.03 
-106.24 160.12 -14.21 
-106.19 159.94 -13.80 
-106.19 159.93 -12.97 
-106.06 159.94 -12.16 
-106.32 159.85 -11.91 
-105.87 159.97 -15.87 
-105.90 159.96 -15.34 
-105.95 159.96 -14.28 
-105.98 159.95 -13.75 
-105.39 160.11 -13.20 
-105.45 160.42 -12.20 
-105.74 160.30 -11.89 
-104.64 160.30 -15.80 
-104.67 160.29 -15.27 
-104.72 160.29 -14.22 
-104.75 160.28 -13.70 
-104.78 160.28 -13.17 
-104.83 160.27 -12.11 
-105.24 160.39 -11.89 
-104.23 160.41 -15.78 
-104.26 160.40 -15.25 
-104.32 160.39 -14.20 
-104.34 160.39 -13.68 
-104.29 159.81 -13.28 
-104.39 160.24 -12.17 
-104.26 160.30 -11.95 
-103.74 159.93 -15.55 
-103.31 159.67 -15.12 
-103.35 159.66 -14.48 
-103.78 159.77 -13.59 
-103.81 159.76 -12.98 
-103.34 159.75 -12.37 
-102.66 159.90 -16.01 
-102.76 159.79 -15.09 
-102.80 159.78 -14.45 
-102.78 159.87 -13.58 
-102.81 159.86 -12.97 
-102.84 159.85 -12.36 
-102.17 160.11 -15.92 
-102.20 159.99 -15.38 
-102.26 159.90 -14.42 
-102.29 159.97 -13.56 
-102.32 159.96 -12.96 
-102.35 159.96 -12.35 
-101.69 159.76 -15.97 
-101.72 159.89 -15.36 
-101.72 160.02 -14.39 
-101.76 160.01 -13.76 
-101.42 159.92 -13.27 
-101.45 159.91 -12.59 
-106.33 160.47 -13.78 
-106.33 160.46 -12.94 
