# .PCD v0.7 - Point Cloud Data file format
VERSION 0.7
FIELDS x y z
SIZE 4 4 4
TYPE F F F
COUNT 1 1 1
WIDTH 2177
HEIGHT 1
VIEWPOINT 0 0 0 1 0 0 0
POINTS 2177
DATA ascii
-70.88 119.48 -12.71 
-70.79 119.04 -12.44 
-70.62 119.40 -11.65 
-70.82 119.09 -9.91 
-70.43 118.99 -11.59 
-69.79 119.18 -10.61 
-69.83 119.52 -8.50 
-69.41 119.43 -13.36 
-69.69 119.13 -12.49 
-69.74 119.23 -9.27 
-68.95 119.02 -13.99 
-68.42 119.45 -13.86 
-68.63 119.13 -12.57 
-68.87 119.12 -11.53 
-69.06 119.48 -10.65 
-67.93 118.92 -13.35 
-67.38 118.86 -16.17 
-67.65 119.38 -13.39 
-67.36 119.17 -11.89 
-66.52 119.28 -13.97 
-66.59 119.21 -13.73 
-66.63 119.46 -11.88 
-66.87 119.50 -11.47 
-66.64 119.24 -10.66 
-65.68 119.28 -14.65 
-66.05 119.42 -13.68 
-65.78 119.02 -12.60 
-65.60 119.51 -12.19 
-65.92 119.17 -11.42 
-65.15 119.43 -14.66 
-65.53 119.13 -14.01 
-65.25 119.29 -13.83 
-65.19 119.29 -13.07 
-65.02 119.04 -12.06 
-64.50 119.46 -15.88 
-64.36 118.84 -14.90 
-64.66 119.02 -13.99 
-64.47 119.01 -11.76 
-63.77 119.14 -15.72 
-63.58 119.27 -15.03 
-63.63 118.94 -13.62 
-63.83 119.00 -13.06 
-63.94 119.02 -11.92 
-63.21 119.40 -14.87 
-63.19 119.49 -13.82 
-63.00 119.07 -12.36 
-63.17 118.89 -11.11 
-62.22 118.97 -14.65 
-62.31 119.39 -14.19 
-62.21 119.15 -13.93 
-62.70 119.26 -12.86 
-62.42 119.35 -11.34 
-62.23 119.45 -10.91 
-62.36 119.39 -10.16 
-62.16 119.01 -9.27 
-61.53 119.41 -14.91 
-61.89 119.11 -14.25 
-61.99 119.07 -13.32 
-61.69 119.09 -12.31 
-61.89 119.51 -10.28 
-61.14 119.23 -14.94 
-61.33 119.28 -14.22 
-60.54 118.84 -15.17 
-60.65 119.21 -11.22 
-60.62 119.39 -11.08 
-59.79 119.06 -15.17 
-59.30 119.29 -11.34 
-58.83 119.39 -15.32 
-58.85 119.53 -13.85 
-59.00 119.21 -11.40 
-58.30 119.13 -13.07 
-57.41 119.44 -15.33 
-77.70 120.20 -8.81 
-77.45 119.94 -11.91 
-77.37 120.09 -11.82 
-77.17 120.18 -9.08 
-76.69 120.19 -11.81 
-76.17 120.22 -10.45 
-75.59 119.81 -13.18 
-75.52 119.99 -12.52 
-75.76 119.61 -11.73 
-75.43 120.04 -10.01 
-75.77 119.81 -9.68 
-75.08 120.06 -13.56 
-74.99 119.75 -12.42 
-74.15 119.57 -14.01 
-74.62 120.13 -13.87 
-74.34 119.87 -12.55 
-74.48 119.76 -10.01 
-74.20 119.54 -9.41 
-73.37 119.97 -12.59 
-73.83 119.77 -12.48 
-73.51 119.75 -11.47 
-73.54 120.05 -11.12 
-73.54 119.81 -10.33 
-73.14 119.62 -14.00 
-73.19 119.83 -11.77 
-72.05 119.98 -13.74 
-72.42 119.92 -12.18 
-72.36 120.04 -11.09 
-72.52 119.91 -10.12 
-71.25 120.07 -13.69 
-71.24 120.05 -12.64 
-71.86 119.98 -10.91 
-70.98 120.19 -14.36 
-71.04 119.99 -13.69 
-71.04 120.08 -11.96 
-71.11 119.81 -11.77 
-70.07 119.92 -14.69 
-70.05 119.63 -13.70 
-70.18 119.93 -12.60 
-70.29 120.06 -11.72 
-69.38 120.12 -14.34 
-69.15 119.69 -13.68 
-69.20 119.78 -12.67 
-69.25 119.57 -11.86 
-69.40 120.14 -9.83 
-69.55 119.71 -9.64 
-68.93 120.11 -14.30 
-68.49 120.13 -13.43 
-68.57 119.79 -12.77 
-69.02 120.14 -12.26 
-68.64 119.58 -10.52 
-68.69 119.67 -9.58 
-68.10 119.68 -14.03 
-68.07 119.79 -13.41 
-67.96 119.75 -12.72 
-67.75 119.79 -12.42 
-68.34 120.23 -9.52 
-67.39 119.57 -14.88 
-67.45 119.88 -14.20 
-67.49 120.06 -13.41 
-67.48 119.59 -12.71 
-67.68 119.99 -9.70 
-66.33 119.83 -14.73 
-66.36 119.85 -14.18 
-66.78 119.70 -13.84 
-66.97 119.83 -11.83 
-65.60 119.76 -14.69 
-65.71 120.18 -14.54 
-66.21 119.72 -13.72 
-66.00 119.92 -12.86 
-65.73 120.18 -11.81 
-66.21 120.04 -10.42 
-64.93 119.69 -15.79 
-65.29 120.16 -14.93 
-65.54 119.91 -14.63 
-65.31 119.61 -13.88 
-65.46 119.74 -13.06 
-65.52 120.14 -11.60 
-65.14 119.59 -10.48 
-65.24 119.82 -10.11 
-64.59 119.83 -15.89 
-64.31 119.86 -14.89 
-64.54 120.23 -14.02 
-64.50 119.66 -12.00 
-63.68 119.87 -16.25 
-63.97 119.67 -15.92 
-63.76 119.73 -14.65 
-63.53 120.04 -14.45 
-63.98 119.73 -11.78 
-63.30 119.97 -15.72 
-63.10 120.15 -14.24 
-63.34 119.78 -13.80 
-63.01 120.10 -12.84 
-62.96 119.83 -12.00 
-62.64 119.83 -14.67 
-62.21 120.13 -14.15 
-62.09 120.06 -13.91 
-62.29 119.98 -12.67 
-62.54 119.59 -10.44 
-61.93 120.01 -13.96 
-61.40 120.23 -13.80 
-61.65 119.91 -12.64 
-61.91 120.00 -11.21 
-61.09 119.55 -14.78 
-61.24 120.02 -13.74 
-61.35 120.15 -12.93 
-60.74 119.90 -11.32 
-61.11 119.58 -10.67 
-61.08 119.90 -10.12 
-60.08 119.60 -15.16 
-60.16 119.71 -13.98 
-60.00 119.82 -10.74 
-59.33 119.84 -15.17 
-59.40 120.22 -11.50 
-59.25 119.66 -13.36 
-58.43 120.14 -15.33 
-58.51 119.66 -13.80 
-78.11 120.50 -11.98 
-77.92 120.24 -9.22 
-77.07 120.41 -12.35 
-77.18 120.85 -11.07 
-77.08 120.72 -9.85 
-77.03 120.62 -8.83 
-76.66 120.67 -11.19 
-76.60 120.91 -11.06 
-75.84 120.71 -12.57 
-76.08 120.93 -11.61 
-76.00 120.77 -11.03 
-74.72 120.32 -14.06 
-74.99 120.24 -12.59 
-75.03 120.86 -12.28 
-75.03 120.77 -11.60 
-74.72 120.57 -11.11 
-74.83 120.92 -10.37 
-74.03 120.64 -14.27 
-74.03 120.39 -13.59 
-74.02 120.68 -12.56 
-74.04 120.26 -12.22 
-74.19 120.64 -11.71 
-73.60 120.71 -13.93 
-73.70 120.80 -12.66 
-73.93 120.81 -11.90 
-73.48 120.84 -11.37 
-73.14 120.64 -13.97 
-72.75 120.62 -13.42 
-73.15 120.40 -12.02 
-72.76 120.65 -11.35 
-73.23 120.85 -9.68 
-72.19 120.24 -12.78 
-72.39 120.82 -12.08 
-72.32 120.64 -10.67 
-71.72 120.28 -15.66 
-71.64 120.84 -14.73 
-71.70 120.27 -12.01 
-71.02 120.26 -15.24 
-70.42 120.31 -13.69 
-70.52 120.37 -12.68 
-70.89 120.61 -12.04 
-71.09 120.44 -11.30 
-70.75 120.86 -9.83 
-70.01 120.67 -16.14 
-70.00 120.62 -15.45 
-70.02 120.73 -14.77 
-70.42 120.31 -13.69 
-70.28 120.87 -9.52 
-69.68 120.89 -15.76 
-69.42 120.49 -14.76 
-69.46 120.71 -14.07 
-69.43 120.24 -13.78 
-69.73 120.77 -11.96 
-69.52 120.57 -11.67 
-69.61 120.71 -9.66 
-68.42 120.34 -13.65 
-68.93 120.82 -12.69 
-68.91 120.73 -11.99 
-68.91 120.70 -11.28 
-68.88 120.79 -9.70 
-68.02 120.63 -14.33 
-68.23 120.65 -13.90 
-68.38 120.88 -12.69 
-68.36 120.78 -11.27 
-67.98 120.86 -9.96 
-67.50 120.59 -14.29 
-67.20 120.45 -12.97 
-67.38 120.67 -12.30 
-66.78 120.91 -14.67 
-66.82 120.68 -14.08 
-66.42 120.27 -12.86 
-66.42 120.58 -11.95 
-66.65 120.94 -11.03 
-66.34 120.47 -10.00 
-65.96 120.60 -14.90 
-66.17 120.32 -13.36 
-65.63 120.29 -12.66 
-65.88 120.31 -12.21 
-65.05 120.85 -14.66 
-65.37 120.44 -14.28 
-65.33 120.75 -12.95 
-65.33 120.75 -12.95 
-65.22 120.73 -12.33 
-64.49 120.31 -15.90 
-64.44 120.29 -14.67 
-64.79 120.46 -14.18 
-64.76 120.33 -13.48 
-64.57 120.28 -12.93 
-64.19 120.25 -16.10 
-64.16 120.30 -15.53 
-63.77 120.74 -14.70 
-64.08 120.48 -14.38 
-63.81 120.87 -12.84 
-63.98 120.64 -12.27 
-63.77 120.26 -11.40 
-63.38 120.81 -14.32 
-63.19 120.40 -12.95 
-62.45 120.87 -13.99 
-62.25 120.59 -12.81 
-61.51 120.80 -14.97 
-61.45 120.67 -14.38 
-61.63 120.70 -12.96 
-61.57 120.33 -12.41 
-61.41 120.30 -11.31 
-61.03 120.94 -14.97 
-61.25 120.26 -14.30 
-61.16 120.30 -13.56 
-60.96 120.85 -12.94 
-60.08 120.51 -14.29 
-60.64 120.32 -13.73 
-60.58 120.65 -13.01 
-60.45 120.71 -11.43 
-59.92 120.65 -15.93 
-59.61 120.31 -15.16 
-58.88 120.60 -15.17 
-58.64 120.71 -13.46 
-59.07 120.73 -13.10 
-58.05 120.83 -14.75 
-58.35 120.68 -13.07 
-81.18 121.59 -11.24 
-80.52 121.60 -11.34 
-79.76 121.22 -11.16 
-79.87 121.63 -10.39 
-79.16 121.18 -12.06 
-79.28 121.49 -11.19 
-78.48 121.42 -13.87 
-78.46 121.12 -12.85 
-78.28 121.15 -12.09 
-78.47 121.17 -11.24 
-78.40 121.49 -10.32 
-77.88 121.41 -16.07 
-77.71 121.43 -15.67 
-77.87 121.40 -15.27 
-77.70 121.12 -13.59 
-78.06 121.01 -11.88 
-78.05 121.07 -11.23 
-78.04 120.96 -9.92 
-77.14 121.51 -16.07 
-77.14 121.51 -15.25 
-77.22 121.46 -14.46 
-77.19 121.35 -13.65 
-77.00 121.63 -12.03 
-77.09 121.64 -11.39 
-76.42 121.46 -13.59 
-76.39 121.40 -12.75 
-76.53 121.43 -12.02 
-76.54 121.57 -11.37 
-76.38 121.53 -10.31 
-75.41 121.59 -16.43 
-75.42 121.56 -15.79 
-75.60 121.49 -13.53 
-75.63 121.20 -12.31 
-75.62 121.17 -11.45 
-75.64 121.56 -10.50 
-74.99 121.40 -15.73 
-75.00 121.44 -14.88 
-75.35 121.46 -11.91 
-75.39 121.03 -11.29 
-74.21 121.64 -16.42 
-74.01 121.06 -15.61 
-74.01 121.09 -14.95 
-74.30 121.55 -14.02 
-74.62 121.32 -13.32 
-74.11 121.18 -12.97 
-74.29 121.24 -12.00 
-74.27 121.06 -11.27 
-74.29 121.07 -11.03 
-73.43 121.50 -16.35 
-73.45 121.50 -15.60 
-73.54 121.45 -15.27 
-73.72 121.52 -14.48 
-73.42 121.07 -13.86 
-73.70 120.80 -12.66 
-73.73 121.36 -10.24 
-73.20 121.51 -16.19 
-73.11 121.17 -15.40 
-73.13 121.24 -14.67 
-72.87 121.12 -14.07 
-72.65 121.54 -13.40 
-73.27 121.06 -12.10 
-72.97 121.06 -11.65 
-72.74 121.47 -10.48 
-73.08 121.54 -10.23 
-72.21 121.01 -15.79 
-72.22 121.04 -15.00 
-71.97 121.48 -14.03 
-72.38 121.44 -13.45 
-72.47 121.03 -13.19 
-72.31 121.19 -11.90 
-72.02 121.21 -11.23 
-72.00 121.44 -11.00 
-72.55 120.96 -9.98 
-71.69 121.18 -13.97 
-71.56 121.04 -13.41 
-71.72 121.20 -11.15 
-71.29 121.15 -10.92 
-70.65 120.98 -16.03 
-70.79 120.92 -14.75 
-70.77 121.63 -12.35 
-70.87 120.99 -11.79 
-70.86 121.12 -10.92 
-70.17 121.40 -14.73 
-70.07 120.98 -14.09 
-70.10 121.15 -13.42 
-70.13 121.34 -12.76 
-70.15 121.13 -12.23 
-70.15 121.37 -10.83 
-70.17 121.40 -9.85 
-69.97 121.14 -8.91 
-69.16 121.48 -14.75 
-69.10 121.12 -14.36 
-69.64 121.61 -11.42 
-69.68 121.43 -10.96 
-68.87 121.21 -10.89 
-68.21 121.37 -14.71 
-68.20 121.48 -13.69 
-67.94 121.41 -12.04 
-67.90 121.14 -10.43 
-67.08 121.48 -14.70 
-67.25 121.46 -14.36 
-67.40 121.46 -11.33 
-66.97 121.01 -14.82 
-66.31 121.32 -14.27 
-66.65 121.22 -12.36 
-66.81 121.39 -11.30 
-66.12 121.34 -14.67 
-65.79 121.17 -14.38 
-66.05 121.16 -12.20 
-65.39 121.15 -14.68 
-65.18 121.47 -14.17 
-65.28 121.62 -13.88 
-65.13 121.02 -12.68 
-65.31 121.18 -12.33 
-65.11 120.99 -11.64 
-64.28 121.21 -14.83 
-64.24 121.34 -14.48 
-64.81 121.59 -13.56 
-64.58 121.24 -12.82 
-63.95 120.98 -14.70 
-63.72 121.50 -14.26 
-64.03 121.01 -13.01 
-63.11 121.46 -14.68 
-63.44 120.99 -14.10 
-63.48 121.45 -13.87 
-62.92 121.20 -12.49 
-63.17 120.95 -11.21 
-62.56 121.18 -14.70 
-62.51 121.07 -14.50 
-62.79 121.45 -12.26 
-62.07 121.12 -14.72 
-61.43 121.61 -14.58 
-62.08 121.08 -13.40 
-61.73 121.05 -13.08 
-61.13 121.34 -14.47 
-60.36 121.37 -14.46 
-59.52 121.42 -15.92 
-59.47 121.28 -14.40 
-59.17 121.04 -15.16 
-58.53 121.34 -14.69 
-58.41 121.31 -13.11 
-57.69 121.50 -14.78 
-57.69 121.48 -14.20 
-81.80 122.31 -11.16 
-81.22 121.93 -11.39 
-81.04 122.25 -10.45 
-80.64 122.18 -10.63 
-80.01 122.19 -11.75 
-79.30 121.88 -13.92 
-79.36 122.03 -13.06 
-79.42 121.87 -10.34 
-78.44 121.87 -13.86 
-78.33 122.26 -11.60 
-78.52 122.00 -10.45 
-78.82 122.29 -10.02 
-77.79 122.26 -15.75 
-77.81 121.66 -14.77 
-77.88 122.10 -12.15 
-77.97 121.77 -11.58 
-78.12 122.21 -10.81 
-77.19 121.66 -14.43 
-77.25 121.86 -13.62 
-77.30 122.01 -12.81 
-77.33 122.14 -10.37 
-76.50 121.92 -12.01 
-76.63 121.87 -11.72 
-76.31 121.77 -10.56 
-75.80 121.94 -16.42 
-75.75 121.98 -14.52 
-75.44 122.20 -13.71 
-75.95 121.73 -12.84 
-75.98 121.79 -12.04 
-74.83 121.82 -16.31 
-74.87 121.90 -14.13 
-75.30 122.26 -13.46 
-75.00 121.93 -12.94 
-74.96 122.06 -12.11 
-74.05 121.99 -15.82 
-74.00 122.02 -15.12 
-74.07 121.78 -14.15 
-74.58 122.22 -12.76 
-74.54 122.12 -11.92 
-74.38 121.75 -11.03 
-74.63 121.69 -9.84 
-74.47 121.86 -9.33 
-74.28 122.14 -8.86 
-73.85 122.09 -15.94 
-73.97 121.78 -15.27 
-73.82 121.98 -14.11 
-73.87 122.07 -13.40 
-73.60 122.32 -13.06 
-73.36 122.32 -12.10 
-73.98 121.95 -11.76 
-73.29 121.82 -11.09 
-73.14 121.70 -14.12 
-72.88 122.08 -13.52 
-72.94 121.74 -12.90 
-72.95 121.65 -12.13 
-72.82 122.31 -11.59 
-73.14 122.00 -10.19 
-72.35 122.23 -13.88 
-72.19 121.95 -12.94 
-71.95 122.07 -11.98 
-72.22 121.98 -11.39 
-72.38 122.30 -11.11 
-71.80 121.75 -13.49 
-71.48 122.19 -12.93 
-71.35 121.97 -11.97 
-71.43 121.73 -11.73 
-70.73 122.08 -16.20 
-70.64 122.09 -12.66 
-71.07 121.97 -12.36 
-70.83 121.67 -11.72 
-70.64 121.98 -10.43 
-69.80 121.73 -12.60 
-70.31 121.94 -12.46 
-70.33 121.99 -11.73 
-70.21 121.65 -10.94 
-69.53 121.82 -14.73 
-69.23 122.01 -12.60 
-69.30 122.14 -11.82 
-69.33 121.90 -10.88 
-68.63 122.12 -14.71 
-68.91 122.30 -13.76 
-68.59 122.14 -12.58 
-68.37 121.81 -14.75 
-67.79 122.30 -14.50 
-68.37 121.81 -13.70 
-68.00 121.65 -12.75 
-67.15 121.90 -14.75 
-67.15 121.91 -14.18 
-67.51 121.90 -12.76 
-66.86 121.73 -14.69 
-66.71 121.79 -14.18 
-66.70 122.11 -12.49 
-66.72 121.66 -12.44 
-66.01 122.02 -14.88 
-65.72 122.16 -14.43 
-66.23 121.87 -13.63 
-65.87 122.04 -12.72 
-65.23 122.03 -14.73 
-65.46 122.17 -14.34 
-65.43 122.18 -12.66 
-64.62 122.11 -14.71 
-64.33 121.92 -14.16 
-64.32 121.94 -13.59 
-64.53 122.32 -13.13 
-64.41 121.91 -11.98 
-64.35 121.93 -11.71 
-64.08 122.13 -13.93 
-64.08 122.13 -13.93 
-63.28 121.94 -14.79 
-63.45 121.66 -13.00 
-63.43 122.00 -12.46 
-62.66 121.77 -14.68 
-62.20 121.75 -14.00 
-61.49 121.71 -13.08 
-61.18 121.94 -15.72 
-58.73 121.76 -15.16 
-58.71 121.72 -13.17 
-57.99 122.10 -15.17 
-81.90 122.66 -10.53 
-81.67 122.49 -11.43 
-81.34 122.55 -10.69 
-81.26 122.95 -10.29 
-80.31 122.51 -12.06 
-80.44 122.84 -11.17 
-80.22 122.98 -12.15 
-78.93 122.62 -12.50 
-78.77 122.44 -14.80 
-78.86 122.66 -13.95 
-78.83 122.51 -13.73 
-77.95 122.61 -13.88 
-78.17 122.58 -13.14 
-77.81 122.39 -12.23 
-78.12 122.42 -11.24 
-78.12 122.42 -11.24 
-77.15 122.73 -13.53 
-77.49 122.96 -12.21 
-76.64 122.89 -13.54 
-76.25 122.56 -12.90 
-76.53 122.49 -11.93 
-76.20 122.95 -11.05 
-75.87 122.46 -13.48 
-75.49 122.34 -12.87 
-75.84 122.75 -12.06 
-75.79 122.60 -11.23 
-75.57 122.55 -10.49 
-75.23 122.39 -13.57 
-74.89 122.71 -13.06 
-74.83 122.39 -12.05 
-75.12 122.59 -10.97 
-74.22 122.38 -16.17 
-74.48 122.36 -15.11 
-74.38 122.43 -14.42 
-74.35 122.45 -13.72 
-74.28 122.62 -12.76 
-74.48 122.95 -12.00 
-74.11 122.45 -11.20 
-73.35 122.67 -13.96 
-73.52 122.34 -13.53 
-73.46 122.44 -12.83 
-73.76 122.43 -12.19 
-73.42 122.68 -11.47 
-72.62 122.97 -14.10 
-73.20 122.38 -12.73 
-72.97 122.91 -12.52 
-72.01 123.06 -12.95 
-72.53 122.57 -12.06 
-72.00 122.80 -11.62 
-71.22 122.75 -14.12 
-71.46 122.38 -13.09 
-71.77 122.39 -12.26 
-71.15 122.74 -12.90 
-70.23 122.88 -12.96 
-69.53 122.69 -12.72 
-68.81 122.78 -12.22 
-66.86 122.34 -14.87 
-65.66 122.69 -14.25 
-65.70 122.34 -13.12 
-65.43 122.41 -14.77 
-64.36 122.77 -12.89 
-63.95 122.51 -14.70 
-64.19 122.99 -13.36 
-63.77 122.77 -12.68 
-60.75 122.77 -15.71 
-59.59 122.99 -12.58 
-58.79 122.84 -15.92 
-58.70 122.92 -12.29 
-58.82 122.86 -9.51 
-59.14 122.93 -9.02 
-58.30 122.48 -15.16 
-57.55 122.83 -15.17 
-57.85 122.68 -13.49 
-82.15 123.32 -10.37 
-80.32 123.58 -12.33 
-80.14 123.53 -13.03 
-79.74 123.05 -12.08 
-79.51 123.25 -11.84 
-78.81 123.69 -13.62 
-78.33 123.21 -11.39 
-77.88 123.06 -12.95 
-77.62 123.64 -12.06 
-77.87 123.59 -10.47 
-77.76 123.16 -10.10 
-77.46 123.11 -12.97 
-77.08 123.17 -12.12 
-77.41 123.24 -11.09 
-76.23 123.52 -13.08 
-76.50 123.08 -11.99 
-75.70 123.04 -13.92 
-75.70 123.16 -12.92 
-75.57 123.58 -10.47 
-74.92 123.31 -12.90 
-74.90 123.28 -11.95 
-75.35 123.18 -11.49 
-74.78 123.44 -10.97 
-74.03 123.28 -12.88 
-74.07 123.27 -11.57 
-72.67 123.33 -11.97 
-72.60 123.57 -11.29 
-72.57 123.30 -13.00 
-71.57 123.63 -13.09 
-71.84 123.36 -11.30 
-70.77 123.31 -12.68 
-70.63 123.22 -12.51 
-63.71 123.06 -12.86 
-60.43 123.73 -13.21 
-60.43 123.57 -12.29 
-60.07 123.56 -9.22 
-60.13 123.64 -9.04 
-58.78 123.58 -13.35 
-59.03 123.20 -13.22 
-59.14 123.49 -12.19 
-59.18 123.62 -9.48 
-58.45 123.49 -15.91 
-58.55 123.58 -12.76 
-58.52 123.43 -9.56 
-57.50 123.30 -15.81 
-57.87 123.18 -15.16 
-57.63 123.15 -12.89 
-57.57 123.19 -11.82 
-82.05 124.49 -12.98 
-82.07 124.23 -12.42 
-82.15 124.44 -11.75 
-81.18 123.85 -12.96 
-81.69 123.75 -12.30 
-80.89 124.29 -15.44 
-80.21 124.30 -16.07 
-80.12 124.33 -14.73 
-78.69 124.29 -13.08 
-77.58 123.77 -12.04 
-77.78 124.17 -11.84 
-77.32 124.44 -13.20 
-76.93 123.93 -11.61 
-76.37 123.83 -13.96 
-76.20 124.33 -13.25 
-76.66 123.82 -12.11 
-76.75 123.99 -10.56 
-75.52 124.30 -13.47 
-75.97 124.33 -10.64 
-75.21 124.08 -12.97 
-75.10 124.43 -10.53 
-74.10 124.27 -12.93 
-74.29 123.84 -11.01 
-74.53 123.74 -10.01 
-73.97 124.10 -13.12 
-73.39 124.17 -12.19 
-73.72 124.10 -10.51 
-73.11 124.42 -12.07 
-72.22 123.94 -11.98 
-71.20 123.83 -12.96 
-71.26 123.94 -11.95 
-70.30 123.96 -12.94 
-63.29 123.93 -14.77 
-63.38 123.95 -14.29 
-62.70 124.29 -14.93 
-61.61 124.29 -13.91 
-62.01 124.41 -13.09 
-60.74 124.43 -14.75 
-61.29 124.07 -13.26 
-61.07 123.74 -13.02 
-60.87 124.30 -12.42 
-60.69 124.15 -13.05 
-60.03 124.39 -12.32 
-59.52 123.89 -16.12 
-59.86 124.34 -15.71 
-59.77 124.02 -13.34 
-58.73 124.40 -13.95 
-58.73 124.06 -13.42 
-58.76 124.14 -13.09 
-59.16 124.32 -12.06 
-59.02 123.99 -9.51 
-58.28 124.24 -13.97 
-58.21 124.15 -13.76 
-58.25 124.08 -12.82 
-58.33 123.95 -12.21 
-58.08 124.27 -11.55 
-57.45 123.88 -15.16 
-57.44 123.87 -14.18 
-57.66 123.74 -13.48 
-57.55 123.78 -12.29 
-57.52 123.80 -11.76 
-57.59 123.98 -10.97 
-57.82 124.35 -9.57 
-81.91 125.01 -15.44 
-82.27 125.04 -13.00 
-82.14 125.12 -12.03 
-81.33 125.04 -15.44 
-81.64 124.57 -12.97 
-81.38 125.01 -11.99 
-81.63 124.53 -11.78 
-80.98 125.09 -15.45 
-80.88 125.01 -14.47 
-80.87 124.88 -13.15 
-80.64 124.93 -12.44 
-80.33 124.81 -11.80 
-80.26 125.14 -16.22 
-80.00 124.68 -15.99 
-79.77 124.94 -13.11 
-79.81 124.90 -12.47 
-79.26 125.10 -13.19 
-79.00 124.93 -12.20 
-78.91 124.60 -11.71 
-79.11 125.00 -10.76 
-78.22 124.53 -11.88 
-78.55 125.13 -11.52 
-77.94 124.60 -13.02 
-78.13 124.45 -11.60 
-77.71 125.06 -10.92 
-77.25 124.59 -11.21 
-77.03 125.00 -10.73 
-76.51 125.03 -10.65 
-75.82 124.71 -12.85 
-75.63 124.65 -11.79 
-75.78 124.87 -10.80 
-75.17 124.55 -13.15 
-75.17 124.56 -12.30 
-74.92 124.66 -10.58 
-74.30 124.81 -13.03 
-74.10 125.04 -12.20 
-74.56 124.87 -11.45 
-73.32 124.66 -12.41 
-73.50 124.57 -10.88 
-72.90 124.48 -11.48 
-72.50 124.99 -10.81 
-62.95 124.90 -14.86 
-63.16 124.88 -14.41 
-62.61 124.98 -14.80 
-61.56 124.90 -12.59 
-61.10 124.87 -14.89 
-61.34 124.89 -13.85 
-60.63 124.67 -15.72 
-60.43 124.90 -14.76 
-60.12 125.01 -13.99 
-60.38 124.60 -13.19 
-59.40 124.89 -16.11 
-59.42 125.11 -15.71 
-59.55 124.65 -11.61 
-58.88 125.09 -16.12 
-59.27 125.09 -13.15 
-59.06 125.10 -12.18 
-58.72 124.75 -11.23 
-58.55 124.94 -14.66 
-58.51 124.79 -14.43 
-58.19 125.08 -13.66 
-58.10 124.96 -12.67 
-57.93 125.02 -12.13 
-58.31 125.14 -11.24 
-58.37 124.93 -10.00 
-57.82 124.70 -15.91 
-57.72 125.10 -14.65 
-57.42 124.92 -14.54 
-57.64 125.07 -13.84 
-57.66 125.09 -12.36 
-57.54 125.14 -11.62 
-57.80 124.74 -10.87 
-57.87 124.56 -10.00 
-81.94 125.49 -14.99 
-82.08 125.44 -12.92 
-82.14 125.12 -12.03 
-81.78 125.58 -11.76 
-82.30 125.30 -11.00 
-81.43 125.61 -15.18 
-81.57 125.25 -13.09 
-81.21 125.76 -12.39 
-81.46 125.37 -11.23 
-80.71 125.25 -12.33 
-79.94 125.50 -13.27 
-78.97 125.54 -12.34 
-78.56 125.78 -15.48 
-78.56 125.64 -12.60 
-78.56 125.63 -12.02 
-78.87 125.57 -11.19 
-78.15 125.26 -12.57 
-77.95 125.80 -11.74 
-78.03 125.57 -10.70 
-77.72 125.53 -10.43 
-76.85 125.45 -11.56 
-75.70 125.24 -13.13 
-75.46 125.78 -11.89 
-75.01 125.56 -12.18 
-75.17 125.62 -11.16 
-75.27 125.49 -10.29 
-74.10 125.30 -13.02 
-74.20 125.68 -11.21 
-73.64 125.18 -12.61 
-73.64 125.30 -11.56 
-73.99 125.25 -10.60 
-72.88 125.55 -11.57 
-73.01 125.21 -11.11 
-64.03 125.75 -14.76 
-63.17 125.20 -14.92 
-62.23 125.33 -14.80 
-62.53 125.18 -14.33 
-62.17 125.19 -11.18 
-61.45 125.33 -13.97 
-61.67 125.68 -13.45 
-61.56 125.19 -12.80 
-61.92 125.75 -12.46 
-61.87 125.78 -11.22 
-61.00 125.26 -14.63 
-61.06 125.56 -13.36 
-61.31 125.83 -12.23 
-60.92 125.49 -10.73 
-60.20 125.42 -15.71 
-60.24 125.72 -14.71 
-60.10 125.83 -14.31 
-60.55 125.37 -13.70 
-60.34 125.17 -11.68 
-59.71 125.66 -14.68 
-59.49 125.49 -14.33 
-59.78 125.43 -13.71 
-59.81 125.59 -12.90 
-59.48 125.34 -12.06 
-58.94 125.49 -16.11 
-59.05 125.54 -14.43 
-58.95 125.74 -13.61 
-58.95 125.42 -12.79 
-58.98 125.59 -12.21 
-58.43 125.74 -16.12 
-58.12 125.70 -14.66 
-58.23 125.53 -14.22 
-58.30 125.52 -13.49 
-58.58 125.54 -12.84 
-58.47 125.57 -12.46 
-58.17 125.67 -11.80 
-58.41 125.66 -11.02 
-58.44 125.33 -9.93 
-57.52 125.26 -15.91 
-57.52 125.73 -14.70 
-57.72 125.68 -14.54 
-57.57 125.43 -13.53 
-57.41 125.64 -12.85 
-57.50 125.68 -12.35 
-82.06 126.13 -14.99 
-82.22 126.19 -14.55 
-82.24 126.13 -13.30 
-82.05 126.16 -12.21 
-82.17 125.92 -11.75 
-81.21 126.49 -15.44 
-81.50 125.93 -14.92 
-81.58 125.91 -12.68 
-81.68 126.14 -12.43 
-81.62 126.53 -11.61 
-80.51 125.89 -16.24 
-80.42 125.87 -15.73 
-80.06 126.43 -11.35 
-78.98 126.01 -15.48 
-78.93 126.28 -12.10 
-78.81 126.16 -13.15 
-78.78 126.11 -12.29 
-78.28 126.12 -11.60 
-78.80 126.09 -10.89 
-77.61 126.38 -12.23 
-77.13 126.03 -11.56 
-76.33 125.93 -11.29 
-76.60 125.89 -10.76 
-75.48 125.85 -11.13 
-74.15 125.99 -11.65 
-65.00 126.35 -10.86 
-64.80 125.86 -11.01 
-63.61 126.53 -13.53 
-64.19 125.93 -10.84 
-63.14 125.97 -16.08 
-63.01 126.12 -14.50 
-63.15 125.95 -11.76 
-63.37 126.04 -10.79 
-62.60 126.24 -16.11 
-62.57 126.21 -15.22 
-62.66 126.45 -14.36 
-62.57 126.50 -13.21 
-62.23 126.35 -11.84 
-62.18 126.46 -11.00 
-61.86 126.07 -14.35 
-61.89 125.87 -13.84 
-62.02 126.40 -13.18 
-61.64 126.50 -11.65 
-61.08 125.94 -14.35 
-60.76 126.45 -13.65 
-61.35 125.89 -12.63 
-61.26 126.42 -11.35 
-61.21 126.14 -10.59 
-60.37 126.25 -14.04 
-60.10 125.84 -13.71 
-60.29 126.19 -13.16 
-60.40 126.29 -12.49 
-60.16 126.49 -10.77 
-60.56 126.45 -10.36 
-59.63 126.00 -16.15 
-59.69 126.11 -15.53 
-59.61 125.84 -14.97 
-59.77 126.42 -14.22 
-59.52 125.98 -13.62 
-59.65 125.98 -12.91 
-59.82 126.20 -12.34 
-59.65 125.95 -11.77 
-59.84 126.41 -10.74 
-58.99 125.87 -15.71 
-58.83 126.19 -15.04 
-58.63 126.42 -14.25 
-59.00 126.20 -13.64 
-59.10 126.22 -13.08 
-58.86 126.08 -12.25 
-58.62 126.15 -11.74 
-58.53 126.14 -16.10 
-58.34 126.24 -14.90 
-58.32 126.16 -14.41 
-58.26 126.32 -13.55 
-58.52 126.26 -12.90 
-58.12 126.25 -12.21 
-58.37 126.45 -11.27 
-58.31 126.07 -10.93 
-57.99 126.29 -10.33 
-57.63 126.46 -15.69 
-57.61 126.47 -15.19 
-57.63 126.24 -14.40 
-57.71 126.18 -13.53 
-57.44 126.19 -12.86 
-57.71 126.53 -12.00 
-57.62 125.95 -11.18 
-57.72 125.86 -11.11 
-57.59 126.23 -10.13 
-81.82 127.21 -16.08 
-81.98 126.81 -15.53 
-81.92 127.02 -15.11 
-81.98 127.12 -12.49 
-81.92 126.97 -12.29 
-82.08 126.82 -11.58 
-81.55 126.89 -15.67 
-81.64 127.18 -13.95 
-81.55 126.54 -12.30 
-81.48 127.10 -11.51 
-80.64 126.94 -16.58 
-80.80 126.86 -15.60 
-80.75 127.23 -11.97 
-80.91 127.00 -11.00 
-80.16 127.06 -16.57 
-80.14 127.17 -16.02 
-80.13 126.86 -12.04 
-79.57 126.62 -15.77 
-79.03 126.61 -11.75 
-78.82 127.19 -16.56 
-78.45 126.67 -16.03 
-78.41 126.92 -14.94 
-77.56 126.71 -16.03 
-77.66 127.06 -15.33 
-77.13 126.59 -16.04 
-67.14 127.20 -14.78 
-66.47 126.67 -14.84 
-65.92 127.14 -12.93 
-65.17 127.05 -11.75 
-64.96 127.05 -11.02 
-64.57 126.79 -11.71 
-63.61 127.18 -14.86 
-63.71 126.67 -14.38 
-64.15 126.63 -12.68 
-63.63 126.88 -11.95 
-63.30 126.78 -15.69 
-63.36 126.85 -14.71 
-63.30 126.97 -14.17 
-62.84 127.08 -13.68 
-63.25 126.92 -12.70 
-62.55 126.72 -14.47 
-62.55 126.72 -14.47 
-62.56 127.07 -13.66 
-62.19 127.20 -13.13 
-62.69 126.65 -11.24 
-62.48 126.78 -10.50 
-62.63 127.18 -10.28 
-62.04 126.92 -14.89 
-61.66 126.88 -14.35 
-61.50 126.78 -13.72 
-61.96 126.75 -10.54 
-61.75 126.96 -10.18 
-61.37 127.05 -14.70 
-60.88 127.15 -14.31 
-60.79 127.10 -13.67 
-61.37 127.13 -13.14 
-61.09 127.12 -10.75 
-60.92 126.78 -9.87 
-60.06 127.15 -15.89 
-60.06 127.22 -15.03 
-60.24 127.01 -14.46 
-60.41 126.88 -13.64 
-60.46 126.77 -12.77 
-60.31 126.80 -12.52 
-60.40 126.88 -10.57 
-60.46 127.09 -10.27 
-59.58 126.76 -15.86 
-59.71 127.16 -15.03 
-59.59 126.81 -14.46 
-59.70 126.98 -13.64 
-59.57 126.71 -13.04 
-59.65 126.87 -12.36 
-59.71 127.04 -11.51 
-59.90 127.01 -10.81 
-59.07 126.89 -16.10 
-59.08 126.92 -15.50 
-58.95 127.00 -15.03 
-58.86 126.98 -14.13 
-58.97 127.02 -13.61 
-59.03 127.15 -12.90 
-58.85 126.74 -12.20 
-59.23 126.87 -11.56 
-58.12 126.78 -16.09 
-58.56 126.64 -15.71 
-58.20 127.04 -14.84 
-58.23 126.94 -14.43 
-58.22 127.15 -13.50 
-58.19 127.00 -12.97 
-58.16 126.84 -12.47 
-58.34 127.08 -11.61 
-58.41 126.85 -11.04 
-58.07 126.85 -9.69 
-57.47 126.95 -16.11 
-57.74 126.85 -15.19 
-57.72 126.86 -14.19 
-57.55 126.98 -13.61 
-57.65 127.02 -13.15 
-57.50 127.14 -12.15 
-57.47 126.72 -11.46 
-57.81 126.97 -10.91 
-57.63 126.74 -9.87 
-82.21 127.72 -16.07 
-81.94 127.59 -15.74 
-82.19 127.85 -14.97 
-82.12 127.87 -14.58 
-81.82 127.57 -13.83 
-82.13 127.28 -13.14 
-82.11 127.73 -12.04 
-82.33 127.60 -11.72 
-81.85 127.68 -10.92 
-81.72 127.38 -10.16 
-81.32 127.68 -16.07 
-81.45 127.57 -15.63 
-81.22 127.33 -14.87 
-81.34 127.42 -12.16 
-81.69 127.28 -11.77 
-81.19 127.47 -10.99 
-80.69 127.44 -16.37 
-80.76 127.37 -16.01 
-80.71 127.53 -15.16 
-80.68 127.57 -14.06 
-80.89 127.72 -13.33 
-80.89 127.45 -12.17 
-79.67 127.31 -14.94 
-80.14 127.68 -11.63 
-79.00 127.46 -16.40 
-77.93 127.40 -16.02 
-69.28 127.75 -13.53 
-69.72 127.85 -12.51 
-68.71 127.75 -13.50 
-68.98 127.55 -13.13 
-68.03 127.93 -14.61 
-67.59 127.74 -14.78 
-67.06 127.55 -14.39 
-66.79 127.40 -14.82 
-66.51 127.92 -14.59 
-66.29 127.73 -12.67 
-65.71 127.39 -14.87 
-65.81 127.73 -14.38 
-66.01 127.48 -12.85 
-65.44 127.50 -10.23 
-64.30 127.71 -14.76 
-64.26 127.35 -14.56 
-64.22 127.61 -13.26 
-64.21 127.43 -12.87 
-64.33 127.47 -11.79 
-64.87 127.81 -10.29 
-64.61 127.64 -9.72 
-64.11 127.31 -15.70 
-63.61 127.42 -14.72 
-63.64 127.52 -14.43 
-63.87 127.58 -13.26 
-63.58 127.72 -12.74 
-63.72 127.72 -11.66 
-63.27 127.39 -15.81 
-63.30 127.42 -14.78 
-62.82 127.80 -14.37 
-62.95 127.45 -13.27 
-62.98 127.65 -12.96 
-63.27 127.88 -12.45 
-63.20 127.68 -11.60 
-62.84 127.84 -10.81 
-63.01 127.73 -9.88 
-62.29 127.58 -14.61 
-62.39 127.81 -13.47 
-62.41 127.65 -12.80 
-62.43 127.30 -12.12 
-62.25 127.75 -11.81 
-62.63 127.61 -11.04 
-62.35 127.54 -10.10 
-61.51 127.46 -15.46 
-61.51 127.46 -15.02 
-61.84 127.42 -14.51 
-61.46 127.83 -13.92 
-61.61 127.70 -12.69 
-61.65 127.76 -12.05 
-61.46 127.57 -10.47 
-61.16 127.32 -16.33 
-61.16 127.50 -15.46 
-61.17 127.57 -15.02 
-61.03 127.49 -14.37 
-61.16 127.41 -13.70 
-61.11 127.73 -12.66 
-60.75 127.57 -12.39 
-61.32 127.91 -11.50 
-61.38 127.69 -10.98 
-60.83 127.77 -10.04 
-60.45 127.62 -14.81 
-60.52 127.61 -14.21 
-60.49 127.65 -13.45 
-60.44 127.53 -12.69 
-60.09 127.40 -12.06 
-60.50 127.69 -11.16 
-60.57 127.40 -10.73 
-60.41 127.93 -9.47 
-59.72 127.69 -15.60 
-59.47 127.57 -15.17 
-59.66 127.71 -14.31 
-59.71 127.53 -13.49 
-59.51 127.79 -12.88 
-59.74 127.54 -12.35 
-59.95 127.85 -11.68 
-59.70 127.75 -11.11 
-59.54 127.52 -10.24 
-58.84 127.38 -16.09 
-58.97 127.54 -15.39 
-59.06 127.49 -14.72 
-59.10 127.53 -14.07 
-59.00 127.67 -13.93 
-58.91 127.55 -12.75 
-58.74 127.70 -12.28 
-58.96 127.33 -11.44 
-58.83 127.29 -11.12 
-58.57 127.29 -15.71 
-58.12 127.93 -14.94 
-58.23 127.84 -14.22 
-58.28 127.56 -13.54 
-57.97 127.60 -12.94 
-58.21 127.46 -12.12 
-58.35 127.65 -11.96 
-58.23 127.60 -10.93 
-58.35 127.46 -10.28 
-58.52 127.65 -9.09 
-57.59 127.89 -15.40 
-57.60 127.59 -14.69 
-57.55 127.35 -14.21 
-57.71 127.65 -13.51 
-57.97 127.60 -12.94 
-57.69 127.73 -12.22 
-57.88 127.78 -11.83 
-57.53 127.67 -10.05 
-82.13 128.32 -16.67 
-81.70 128.52 -15.80 
-81.96 128.34 -14.91 
-82.10 128.13 -13.78 
-81.79 128.51 -12.87 
-82.30 128.06 -12.19 
-82.09 128.55 -11.39 
-81.00 128.27 -16.07 
-81.27 128.45 -15.86 
-81.17 128.23 -14.05 
-81.66 128.25 -13.23 
-81.65 128.41 -12.13 
-81.31 128.05 -10.56 
-80.56 128.38 -16.07 
-80.77 128.23 -14.08 
-80.57 128.36 -13.31 
-80.72 128.47 -11.81 
-79.61 128.16 -16.44 
-73.65 128.45 -13.27 
-73.52 128.57 -12.43 
-72.95 128.39 -12.50 
-72.11 128.43 -13.82 
-72.07 128.61 -12.56 
-72.15 128.50 -12.36 
-71.47 128.49 -12.33 
-69.99 128.52 -13.42 
-70.31 128.05 -11.60 
-69.36 128.19 -12.55 
-69.17 128.27 -12.19 
-69.19 128.51 -11.81 
-68.66 128.63 -14.60 
-68.72 128.39 -13.70 
-68.72 128.54 -12.85 
-68.64 128.25 -12.29 
-68.53 128.50 -11.79 
-67.82 128.08 -13.65 
-68.09 128.49 -13.00 
-67.97 128.28 -12.29 
-67.74 128.53 -10.62 
-67.62 128.35 -14.82 
-67.56 128.44 -14.00 
-67.53 127.97 -13.92 
-67.06 128.05 -11.71 
-66.51 128.34 -14.86 
-66.99 128.27 -14.41 
-66.41 128.45 -12.88 
-66.92 128.16 -12.19 
-66.99 128.25 -11.79 
-65.75 128.54 -15.55 
-65.80 128.27 -14.39 
-66.06 128.29 -12.82 
-66.14 128.40 -12.02 
-65.42 128.63 -15.55 
-65.46 128.56 -13.61 
-65.40 128.48 -12.86 
-65.53 128.23 -12.12 
-65.56 128.35 -11.76 
-64.61 128.53 -15.08 
-64.83 128.28 -14.18 
-64.29 128.61 -13.85 
-63.84 128.38 -14.79 
-64.14 128.33 -14.20 
-63.69 128.31 -13.79 
-63.91 128.19 -12.57 
-64.19 128.01 -11.98 
-63.13 128.54 -15.47 
-63.23 128.37 -14.74 
-63.14 128.28 -14.21 
-62.89 128.18 -13.75 
-63.17 128.21 -13.12 
-62.84 128.61 -12.04 
-63.12 128.41 -11.66 
-63.16 128.50 -10.98 
-62.97 128.51 -10.01 
-62.51 128.33 -14.89 
-62.32 128.24 -14.22 
-62.35 127.98 -13.78 
-62.68 128.15 -13.02 
-62.57 128.39 -11.90 
-62.68 128.57 -11.58 
-62.40 128.10 -10.81 
-62.73 128.48 -10.13 
-61.66 128.25 -15.47 
-61.71 128.46 -15.13 
-61.59 128.30 -14.18 
-61.52 128.24 -13.26 
-62.07 127.99 -12.71 
-61.77 128.57 -11.78 
-61.81 128.35 -10.12 
-61.29 128.18 -15.50 
-60.96 128.30 -14.93 
-61.00 128.15 -14.06 
-61.04 128.22 -13.33 
-60.75 128.41 -12.69 
-60.83 128.28 -12.46 
-61.32 127.91 -11.50 
-61.26 128.06 -10.65 
-60.65 128.09 -14.85 
-60.33 128.24 -14.01 
-60.34 128.42 -13.41 
-60.15 128.07 -13.12 
-60.42 128.24 -12.29 
-60.27 128.46 -11.38 
-60.61 128.20 -11.13 
-59.63 128.37 -16.11 
-59.45 128.34 -14.91 
-59.81 128.20 -14.40 
-59.81 128.36 -13.80 
-59.61 128.40 -12.90 
-59.43 128.48 -12.49 
-59.51 127.97 -11.40 
-59.30 128.19 -10.97 
-59.02 128.25 -14.15 
-58.90 128.22 -13.57 
-59.19 128.19 -12.73 
-58.86 127.98 -12.53 
-59.02 128.56 -11.10 
-57.98 128.56 -14.08 
-58.22 128.51 -13.56 
-58.21 128.03 -13.19 
-58.56 128.21 -12.34 
-58.57 128.18 -9.85 
-57.43 128.14 -14.01 
-57.73 128.12 -13.73 
-57.81 128.42 -13.23 
-57.60 128.18 -12.25 
-57.57 128.13 -11.75 
-57.42 128.36 -10.65 
-57.87 128.20 -10.04 
-81.73 129.31 -16.11 
-82.37 128.74 -15.80 
-82.28 129.16 -15.04 
-82.37 129.10 -13.46 
-81.78 128.73 -12.35 
-81.07 129.03 -16.29 
-81.42 129.08 -14.97 
-81.23 128.84 -14.06 
-81.43 128.98 -12.39 
-80.60 128.98 -13.96 
-74.15 129.26 -12.54 
-73.38 129.21 -13.30 
-73.46 129.24 -13.17 
-72.64 128.97 -13.23 
-73.19 129.16 -12.47 
-73.17 128.89 -11.59 
-72.48 128.70 -13.90 
-72.49 128.71 -12.50 
-72.50 129.07 -11.37 
-71.33 129.11 -13.65 
-71.88 129.17 -13.13 
-71.57 129.33 -11.81 
-70.68 129.06 -12.19 
-70.67 129.25 -9.94 
-70.97 129.26 -8.98 
-70.30 129.27 -14.77 
-70.47 129.13 -14.55 
-69.82 128.68 -12.36 
-69.86 129.27 -11.56 
-70.27 129.32 -10.85 
-69.38 129.14 -15.40 
-69.76 129.26 -12.69 
-69.56 129.32 -11.67 
-69.55 128.85 -10.77 
-69.14 128.98 -10.31 
-68.84 129.23 -14.52 
-68.44 128.91 -13.72 
-68.70 128.82 -12.96 
-68.44 128.88 -12.54 
-68.67 128.85 -11.38 
-69.04 129.13 -10.72 
-67.83 129.28 -15.39 
-68.04 129.26 -15.00 
-67.73 128.91 -14.40 
-68.26 129.23 -13.79 
-67.90 128.86 -13.10 
-68.10 128.72 -12.30 
-67.31 128.94 -14.84 
-67.08 129.16 -14.60 
-67.54 128.66 -13.67 
-67.30 129.25 -13.01 
-67.69 129.26 -12.23 
-67.12 129.08 -11.77 
-67.28 129.06 -10.95 
-66.66 129.17 -14.90 
-66.56 128.66 -14.37 
-66.53 129.32 -13.50 
-66.45 129.18 -13.05 
-66.70 128.80 -12.26 
-66.60 129.19 -11.58 
-65.85 129.08 -15.59 
-66.02 128.86 -14.96 
-65.64 129.02 -14.33 
-66.23 129.25 -13.47 
-65.83 128.99 -12.96 
-65.55 129.30 -12.19 
-65.72 128.99 -11.43 
-65.75 129.01 -10.54 
-65.85 129.24 -10.44 
-65.49 129.16 -15.56 
-65.19 129.17 -15.00 
-65.27 129.27 -14.30 
-65.27 128.75 -13.83 
-65.55 129.30 -12.19 
-65.30 128.89 -11.08 
-65.58 128.91 -10.29 
-64.47 128.68 -15.55 
-64.48 128.72 -14.70 
-64.70 128.68 -14.12 
-64.26 128.91 -13.51 
-64.89 128.95 -12.73 
-64.57 128.88 -12.29 
-64.82 128.93 -11.73 
-64.47 128.81 -10.17 
-63.93 128.88 -14.80 
-63.94 128.70 -13.61 
-63.51 129.21 -12.86 
-63.51 128.75 -12.31 
-63.80 128.80 -11.19 
-63.55 128.89 -10.81 
-63.56 129.21 -10.05 
-62.97 129.13 -15.44 
-62.86 128.98 -14.91 
-63.13 129.11 -14.48 
-62.84 128.83 -13.43 
-62.83 128.69 -12.76 
-63.07 128.77 -11.87 
-63.26 129.13 -11.75 
-62.84 128.74 -10.17 
-62.40 129.18 -15.13 
-62.21 129.06 -14.47 
-62.61 129.05 -13.51 
-62.24 129.22 -12.91 
-62.20 129.05 -12.13 
-62.24 128.74 -10.95 
-62.31 128.71 -10.02 
-61.63 128.72 -15.46 
-61.99 128.91 -14.69 
-61.70 128.81 -14.41 
-61.69 129.29 -13.36 
-62.03 128.84 -12.76 
-61.85 128.72 -11.90 
-61.66 129.06 -11.58 
-61.65 129.13 -10.92 
-61.83 129.21 -10.03 
-60.85 128.78 -15.37 
-61.36 128.87 -14.73 
-60.85 129.18 -14.44 
-61.19 128.96 -13.35 
-60.88 128.95 -12.69 
-61.01 128.70 -12.31 
-60.88 128.97 -11.39 
-60.91 128.78 -11.10 
-60.59 129.18 -14.92 
-60.12 129.05 -14.18 
-60.39 128.80 -13.68 
-60.66 129.17 -12.89 
-60.63 128.74 -12.16 
-60.34 128.97 -11.78 
-60.36 129.00 -10.69 
-60.21 128.72 -10.19 
-59.72 128.89 -14.04 
-59.50 129.00 -13.84 
-59.66 128.84 -12.85 
-59.31 129.14 -12.41 
-59.55 129.07 -11.37 
-59.46 129.29 -10.98 
-59.32 128.99 -9.85 
-58.94 128.87 -14.45 
-59.01 129.31 -13.47 
-59.18 129.17 -12.95 
-58.85 129.13 -12.30 
-59.21 129.04 -11.77 
-58.64 128.82 -11.11 
-58.44 129.02 -14.79 
-58.53 128.94 -14.15 
-58.31 129.15 -13.32 
-58.53 129.12 -12.95 
-58.15 128.75 -12.20 
-58.56 129.17 -11.62 
-57.91 129.13 -11.07 
-58.05 129.24 -10.00 
-58.57 128.73 -9.72 
-57.45 129.06 -14.00 
-57.57 129.29 -13.61 
-57.44 128.76 -12.55 
-57.50 129.19 -11.88 
-57.63 128.69 -11.71 
-82.36 129.40 -16.47 
-82.36 129.38 -15.11 
-81.09 129.83 -16.30 
-81.67 129.76 -15.30 
-81.64 129.55 -14.40 
-81.62 129.82 -12.99 
-80.88 129.57 -15.49 
-80.75 130.02 -14.03 
-76.04 129.68 -17.12 
-74.01 130.04 -12.38 
-74.54 129.90 -10.29 
-73.64 129.62 -12.55 
-73.17 130.00 -14.07 
-72.86 129.56 -13.25 
-73.04 129.82 -13.18 
-73.03 129.83 -12.54 
-73.13 129.96 -9.76 
-72.04 129.63 -13.14 
-72.05 129.92 -10.46 
-71.36 129.50 -10.55 
-71.57 129.93 -10.05 
-71.60 129.36 -9.28 
-70.52 129.94 -11.79 
-70.82 130.00 -10.81 
-70.98 129.43 -9.73 
-69.91 129.39 -15.40 
-70.48 129.70 -14.59 
-69.97 129.48 -13.21 
-70.10 129.64 -12.20 
-70.04 129.58 -11.17 
-69.84 129.90 -10.63 
-69.25 130.00 -15.61 
-69.37 129.62 -15.28 
-69.56 129.88 -14.55 
-69.21 129.53 -13.45 
-69.37 129.83 -12.69 
-69.46 129.91 -12.14 
-69.54 129.53 -11.29 
-69.73 129.57 -10.99 
-69.50 129.78 -10.32 
-68.56 129.89 -16.24 
-68.79 129.68 -15.41 
-68.84 129.97 -15.01 
-69.02 129.36 -14.60 
-69.05 129.91 -13.70 
-68.77 129.39 -12.79 
-68.67 129.93 -12.25 
-68.89 129.61 -11.11 
-68.94 129.73 -9.89 
-68.69 130.00 -9.36 
-68.24 130.03 -16.30 
-67.85 129.84 -15.47 
-68.28 129.60 -15.01 
-67.73 129.83 -14.04 
-68.08 129.81 -13.69 
-68.08 129.35 -12.79 
-68.15 129.53 -10.39 
-67.34 129.76 -16.24 
-67.59 129.59 -15.43 
-67.02 129.82 -14.78 
-67.59 129.53 -14.12 
-67.23 129.76 -13.82 
-67.44 129.55 -12.95 
-67.05 129.41 -11.99 
-67.63 129.89 -11.82 
-67.37 129.79 -10.61 
-66.41 129.73 -15.42 
-66.70 129.84 -14.99 
-66.68 129.90 -14.20 
-66.72 129.85 -13.49 
-66.30 129.39 -12.57 
-66.32 129.39 -12.02 
-66.72 129.51 -10.63 
-66.11 129.86 -16.08 
-65.77 129.61 -15.51 
-66.08 129.63 -15.18 
-66.04 129.85 -14.45 
-66.00 129.99 -13.42 
-65.96 129.35 -13.11 
-66.10 129.92 -12.32 
-65.55 129.48 -11.54 
-65.51 129.90 -16.20 
-65.24 129.96 -15.73 
-65.52 129.93 -14.67 
-65.05 129.89 -14.31 
-64.92 129.56 -13.49 
-65.47 129.52 -12.92 
-65.55 129.48 -11.54 
-65.52 129.40 -11.09 
-65.26 129.69 -10.40 
-64.83 129.54 -15.56 
-64.66 129.85 -15.12 
-64.32 129.42 -14.46 
-64.83 129.84 -12.82 
-64.25 129.59 -11.97 
-64.21 129.38 -11.62 
-64.23 129.55 -10.86 
-64.81 129.95 -10.01 
-63.72 129.95 -15.45 
-63.59 129.89 -14.65 
-63.71 129.93 -14.36 
-63.72 129.90 -13.26 
-63.72 129.42 -12.85 
-63.85 129.72 -11.85 
-63.96 129.44 -11.33 
-63.77 129.80 -10.79 
-64.04 129.41 -10.19 
-64.11 129.81 -9.20 
-63.38 129.53 -15.45 
-62.99 129.98 -15.33 
-63.24 129.58 -14.36 
-63.05 129.90 -13.63 
-62.90 129.72 -12.82 
-63.02 129.46 -11.78 
-62.83 129.60 -10.95 
-62.87 129.63 -10.00 
-62.51 129.20 -15.00 
-62.22 129.66 -14.18 
-62.54 129.95 -13.54 
-62.65 129.83 -13.12 
-62.58 129.77 -12.16 
-62.21 129.59 -11.15 
-62.22 130.02 -10.54 
-62.03 129.83 -15.93 
-61.99 129.88 -14.70 
-62.05 129.38 -14.22 
-61.81 129.76 -13.60 
-61.76 129.34 -12.78 
-61.64 129.67 -12.27 
-61.92 129.70 -11.34 
-61.49 129.37 -10.83 
-61.26 129.89 -16.09 
-61.05 129.80 -15.39 
-61.16 129.75 -15.01 
-61.00 129.65 -14.38 
-61.12 129.67 -13.84 
-60.86 129.35 -12.60 
-61.34 129.88 -12.43 
-61.12 129.77 -11.71 
-61.10 129.88 -10.65 
-61.01 129.83 -10.39 
-60.81 129.50 -9.64 
-60.46 129.51 -15.40 
-60.42 129.82 -14.16 
-60.11 129.70 -13.85 
-60.31 129.94 -13.18 
-60.45 129.77 -12.18 
-60.38 129.75 -11.53 
-60.13 129.47 -10.77 
-60.45 129.49 -10.39 
-59.58 129.71 -14.44 
-59.93 129.51 -13.46 
-59.54 129.68 -12.85 
-59.58 129.63 -12.29 
-59.59 129.95 -11.46 
-58.79 129.83 -14.15 
-58.77 129.89 -13.80 
-59.31 129.64 -12.74 
-59.14 129.79 -12.36 
-58.66 129.80 -11.19 
-58.91 129.67 -9.87 
-58.08 129.62 -14.26 
-58.43 129.50 -13.56 
-58.26 129.81 -13.06 
-58.30 129.60 -11.94 
-58.07 129.50 -11.60 
-58.48 129.91 -10.94 
-57.51 129.42 -14.31 
-57.60 129.62 -13.88 
-57.89 129.35 -12.28 
-57.70 129.67 -11.77 
-57.59 129.58 -10.75 
-81.78 130.33 -15.31 
-81.71 130.37 -14.54 
-81.68 130.52 -16.19 
-81.23 130.55 -14.45 
-81.09 130.50 -13.93 
-81.53 130.12 -12.53 
-80.64 130.39 -15.15 
-80.69 130.44 -13.14 
-80.21 130.17 -14.10 
-74.05 130.47 -13.38 
-74.11 130.19 -10.71 
-73.94 130.61 -17.16 
-73.32 130.22 -14.05 
-73.52 130.52 -10.71 
-73.20 130.06 -10.10 
-72.43 130.14 -14.03 
-71.27 130.27 -15.37 
-71.44 130.19 -13.94 
-71.82 130.49 -13.17 
-71.51 130.47 -10.86 
-71.30 130.35 -9.34 
-70.92 130.44 -14.88 
-71.10 130.07 -13.15 
-70.89 130.09 -12.45 
-70.72 130.16 -11.70 
-70.94 130.48 -10.51 
-70.85 130.54 -10.29 
-71.05 130.62 -9.65 
-70.42 130.55 -14.92 
-69.85 130.09 -14.56 
-70.16 130.51 -13.34 
-70.10 130.36 -12.81 
-69.92 130.37 -12.39 
-70.42 130.62 -11.57 
-70.28 130.35 -10.73 
-70.21 130.42 -9.25 
-69.20 130.35 -15.50 
-69.74 130.15 -15.34 
-69.41 130.73 -14.11 
-69.37 130.35 -13.29 
-69.37 130.35 -13.29 
-69.33 130.33 -12.32 
-69.20 130.37 -11.61 
-69.56 130.60 -10.67 
-69.64 130.73 -10.44 
-69.24 130.45 -9.56 
-68.79 130.06 -16.43 
-68.65 130.40 -15.48 
-69.07 130.27 -15.01 
-68.69 130.33 -14.16 
-68.94 130.18 -12.60 
-68.78 130.17 -11.62 
-69.01 130.10 -10.83 
-68.95 130.69 -9.33 
-67.90 130.71 -16.22 
-68.32 130.43 -15.43 
-67.84 130.63 -14.73 
-67.87 130.39 -14.60 
-68.00 130.52 -13.34 
-68.22 130.48 -12.87 
-67.81 130.70 -11.93 
-68.21 130.09 -10.75 
-67.20 130.47 -15.41 
-67.30 130.35 -14.86 
-67.61 130.36 -14.28 
-67.62 130.46 -13.48 
-67.05 130.33 -12.67 
-67.50 130.07 -12.35 
-67.69 130.72 -11.56 
-67.45 130.40 -11.09 
-67.29 130.47 -9.99 
-66.52 130.72 -16.20 
-66.54 130.32 -15.46 
-66.59 130.34 -15.20 
-66.38 130.55 -14.36 
-66.72 130.59 -12.78 
-66.99 130.52 -12.36 
-66.50 130.25 -11.74 
-66.44 130.58 -9.99 
-66.15 130.61 -16.20 
-66.02 130.40 -15.84 
-65.90 130.62 -14.69 
-66.12 130.24 -14.46 
-65.80 130.54 -13.91 
-65.86 130.27 -13.17 
-65.68 130.51 -12.24 
-66.00 130.44 -11.43 
-66.11 130.38 -11.08 
-65.04 130.47 -15.64 
-65.02 130.19 -14.15 
-65.32 130.14 -13.48 
-65.21 130.63 -13.06 
-65.18 130.60 -12.17 
-65.14 130.36 -11.59 
-64.86 130.72 -16.10 
-64.24 130.55 -15.47 
-64.75 130.72 -13.41 
-64.30 130.36 -13.14 
-64.55 130.73 -11.13 
-64.46 130.19 -10.35 
-63.57 130.48 -16.07 
-63.53 130.41 -15.96 
-63.86 130.70 -15.15 
-63.87 130.63 -14.49 
-64.12 130.51 -13.62 
-64.14 130.55 -13.01 
-63.64 130.28 -12.25 
-63.69 130.10 -11.14 
-63.68 130.09 -10.22 
-63.79 130.22 -8.89 
-63.40 130.70 -16.29 
-63.21 130.67 -15.39 
-62.87 130.66 -14.08 
-63.03 130.45 -13.44 
-63.06 130.42 -13.03 
-63.31 130.56 -12.26 
-63.31 130.46 -10.11 
-62.76 130.48 -16.15 
-62.24 130.48 -15.45 
-62.67 130.70 -14.72 
-62.77 130.40 -14.38 
-62.73 130.29 -13.46 
-62.25 130.59 -13.08 
-62.10 130.67 -12.37 
-61.68 130.69 -15.27 
-61.79 130.14 -13.51 
-61.62 130.61 -13.18 
-61.54 130.04 -11.94 
-61.56 130.35 -11.20 
-61.84 130.35 -11.02 
-60.97 130.19 -15.42 
-61.05 130.30 -14.25 
-60.86 130.45 -13.69 
-60.44 130.24 -15.45 
-60.68 130.53 -14.74 
-60.43 130.52 -14.30 
-60.22 130.20 -13.34 
-60.22 130.41 -12.25 
-60.19 130.43 -11.70 
-60.53 130.27 -10.90 
-60.02 130.06 -10.40 
-59.53 130.65 -14.77 
-59.58 130.62 -13.98 
-59.60 130.54 -13.62 
-59.64 130.31 -12.89 
-59.55 130.13 -12.33 
-58.96 130.24 -13.99 
-58.80 130.51 -13.60 
-58.90 130.35 -13.00 
-58.96 130.43 -12.47 
-58.10 130.46 -14.81 
-58.26 130.51 -14.30 
-58.46 130.34 -13.84 
-58.49 130.27 -13.06 
-58.18 130.36 -12.27 
-58.29 130.57 -11.74 
-57.65 130.41 -14.76 
-57.71 130.35 -14.32 
-57.40 130.14 -13.93 
-81.55 130.77 -14.16 
-81.28 130.98 -13.61 
-75.79 130.88 -17.44 
-74.29 131.10 -12.01 
-73.83 131.35 -12.01 
-73.39 131.38 -11.48 
-73.75 130.90 -10.36 
-73.26 130.96 -17.17 
-72.93 131.03 -14.78 
-72.94 130.90 -11.91 
-73.13 131.22 -11.67 
-73.05 130.94 -10.30 
-72.52 131.22 -17.16 
-72.20 131.34 -14.94 
-72.45 131.15 -14.13 
-72.54 131.27 -11.24 
-71.85 131.39 -16.43 
-71.43 131.18 -15.97 
-71.49 131.28 -15.31 
-71.23 131.27 -14.61 
-71.50 131.18 -13.19 
-70.55 131.27 -16.69 
-70.53 131.33 -15.00 
-70.96 131.29 -14.06 
-70.75 131.29 -12.30 
-70.50 131.00 -11.40 
-70.80 131.02 -10.92 
-70.17 130.84 -15.72 
-69.95 131.22 -14.98 
-69.89 130.77 -14.40 
-70.21 131.08 -13.79 
-69.80 131.19 -12.03 
-69.80 130.90 -11.55 
-69.84 130.94 -9.90 
-70.44 130.92 -9.62 
-69.65 131.32 -15.42 
-69.59 131.25 -14.99 
-69.22 131.33 -14.15 
-69.41 131.37 -13.78 
-69.38 131.13 -12.81 
-69.32 131.00 -12.03 
-69.52 131.08 -11.59 
-69.25 131.39 -10.99 
-69.17 131.06 -9.20 
-68.45 130.75 -15.50 
-68.47 131.19 -14.91 
-68.78 130.91 -14.17 
-68.44 131.19 -13.82 
-68.89 131.38 -11.86 
-68.70 131.30 -11.33 
-68.56 130.86 -11.03 
-68.66 131.33 -10.29 
-68.76 131.42 -9.20 
-67.96 130.84 -16.06 
-67.98 130.89 -15.61 
-68.07 131.05 -15.00 
-68.09 131.00 -14.61 
-67.95 131.36 -13.57 
-68.16 131.25 -13.19 
-67.89 131.22 -12.53 
-67.97 130.97 -9.09 
-67.53 131.15 -16.57 
-67.41 131.00 -15.80 
-67.35 131.09 -15.09 
-67.57 130.87 -14.41 
-67.61 130.83 -13.53 
-67.61 130.84 -12.99 
-67.29 131.03 -11.92 
-67.06 130.76 -11.10 
-67.18 131.13 -9.83 
-66.66 131.13 -16.34 
-66.69 131.16 -15.69 
-66.70 131.39 -14.72 
-66.70 131.13 -14.29 
-66.49 130.97 -13.74 
-66.80 130.94 -12.81 
-66.67 131.35 -12.10 
-66.65 130.98 -11.36 
-66.24 131.43 -16.34 
-65.62 131.31 -15.82 
-66.14 131.09 -14.74 
-66.22 131.37 -14.19 
-66.18 131.43 -13.77 
-65.72 131.17 -13.16 
-66.00 130.85 -12.37 
-65.76 130.97 -11.15 
-65.76 130.97 -11.15 
-65.10 131.19 -16.11 
-65.25 131.18 -15.64 
-65.04 130.74 -14.78 
-65.05 131.21 -13.98 
-65.13 131.38 -13.50 
-65.02 131.05 -13.19 
-65.32 130.62 -12.10 
-65.26 131.00 -11.65 
-65.08 131.17 -11.11 
-64.61 130.75 -15.72 
-64.86 131.27 -14.83 
-64.60 131.08 -14.33 
-64.48 130.89 -13.92 
-64.63 131.23 -12.63 
-64.62 131.06 -11.60 
-64.74 131.20 -10.94 
-64.67 130.94 -10.08 
-63.94 131.23 -15.39 
-63.86 130.70 -15.15 
-63.76 130.97 -14.24 
-63.54 131.39 -13.79 
-63.62 130.95 -12.69 
-63.75 130.85 -9.05 
-63.12 130.97 -15.49 
-63.35 130.93 -14.80 
-63.50 130.92 -14.42 
-63.12 131.09 -13.37 
-62.83 131.40 -12.85 
-62.81 131.36 -12.00 
-62.70 131.08 -16.18 
-62.44 131.28 -13.83 
-62.23 130.93 -12.90 
-62.07 130.79 -14.81 
-61.63 131.01 -13.51 
-61.69 130.89 -13.04 
-61.58 130.81 -12.44 
-61.42 130.86 -11.25 
-60.92 130.82 -14.80 
-60.72 131.31 -14.11 
-60.92 130.91 -13.70 
-61.18 131.32 -13.10 
-60.92 131.38 -11.95 
-60.72 131.42 -11.67 
-60.87 130.77 -10.70 
-60.48 130.94 -13.96 
-60.22 130.90 -13.77 
-60.51 130.80 -12.74 
-60.04 130.98 -12.35 
-59.55 130.78 -14.04 
-59.37 130.94 -13.65 
-59.48 130.79 -12.42 
-58.90 131.25 -14.58 
-59.00 131.05 -13.50 
-58.86 130.79 -13.12 
-58.84 131.19 -11.78 
-58.29 130.78 -14.75 
-58.37 130.93 -14.59 
-58.00 131.08 -13.86 
-58.33 130.97 -12.83 
-58.42 130.96 -12.29 
-57.49 130.82 -14.70 
-57.64 131.21 -14.06 
-57.89 130.81 -13.31 
-77.32 132.08 -17.42 
-74.10 131.61 -12.19 
-74.32 131.65 -11.15 
-73.68 131.80 -11.88 
-73.15 131.98 -12.80 
-72.67 131.48 -11.95 
-72.39 132.08 -16.41 
-71.95 131.52 -15.65 
-72.37 132.06 -13.35 
-72.21 132.08 -12.43 
-71.57 132.00 -15.66 
-71.79 132.10 -15.31 
-71.50 131.92 -14.13 
-71.52 131.94 -13.37 
-71.80 131.98 -12.89 
-71.85 132.05 -11.95 
-71.48 131.61 -11.29 
-70.50 131.64 -15.66 
-70.88 131.96 -15.01 
-70.76 132.06 -14.00 
-70.50 131.98 -13.86 
-70.50 131.67 -12.61 
-70.87 131.80 -11.50 
-70.04 131.63 -16.88 
-70.06 131.53 -15.75 
-70.26 131.69 -14.76 
-70.34 131.92 -14.61 
-70.30 131.86 -13.92 
-70.14 132.09 -12.65 
-70.16 131.67 -12.30 
-69.88 131.80 -10.70 
-69.83 131.92 -10.01 
-69.73 131.90 -16.94 
-69.26 131.82 -16.37 
-69.59 131.45 -15.81 
-69.42 131.85 -14.98 
-69.43 131.77 -14.28 
-69.30 131.86 -13.94 
-69.29 131.87 -12.69 
-69.65 131.56 -12.24 
-69.09 131.69 -11.65 
-69.42 131.59 -10.51 
-68.41 131.76 -16.16 
-68.68 131.86 -15.01 
-68.73 131.74 -14.22 
-68.63 131.96 -13.54 
-68.79 131.86 -12.65 
-68.62 131.86 -11.84 
-68.79 132.09 -10.81 
-67.70 132.08 -16.90 
-67.80 131.74 -16.36 
-67.88 131.60 -15.64 
-67.99 131.69 -14.98 
-68.18 131.74 -14.27 
-68.13 131.85 -13.68 
-68.11 131.47 -13.15 
-67.92 132.13 -12.06 
-68.37 131.51 -9.48 
-67.38 131.81 -16.77 
-67.35 131.50 -16.24 
-67.38 131.82 -15.71 
-67.29 131.92 -14.77 
-67.40 131.62 -14.29 
-67.40 131.61 -13.53 
-67.35 131.89 -13.28 
-67.49 131.85 -12.30 
-67.19 131.84 -11.22 
-67.22 131.87 -10.46 
-67.15 131.69 -9.94 
-67.36 131.52 -9.39 
-66.94 131.48 -16.54 
-66.91 131.54 -15.71 
-66.69 131.63 -14.68 
-66.77 131.63 -14.18 
-66.51 131.70 -13.58 
-66.62 131.92 -13.07 
-66.95 131.65 -11.94 
-66.60 131.67 -11.50 
-66.54 131.85 -11.14 
-66.02 131.76 -15.64 
-66.26 131.94 -15.02 
-65.96 132.03 -13.98 
-66.17 132.13 -13.76 
-66.08 131.87 -13.20 
-66.01 131.64 -11.72 
-66.24 131.68 -11.12 
-64.93 131.75 -15.48 
-65.06 132.05 -15.11 
-65.10 131.94 -14.30 
-65.55 132.10 -13.77 
-64.96 131.48 -13.01 
-65.37 131.80 -12.04 
-65.38 131.76 -11.49 
-65.42 131.80 -10.64 
-64.62 132.09 -15.75 
-64.75 131.62 -14.65 
-64.66 131.74 -14.10 
-64.66 131.84 -13.63 
-64.21 131.95 -13.01 
-63.75 131.97 -15.41 
-63.66 131.77 -14.05 
-63.87 131.83 -13.89 
-63.66 131.59 -13.09 
-63.98 131.90 -11.54 
-63.43 131.53 -14.73 
-63.39 131.56 -14.09 
-63.30 131.70 -13.46 
-63.06 131.57 -13.19 
-63.24 131.60 -12.47 
-62.59 132.06 -15.44 
-62.46 131.99 -14.31 
-62.47 131.85 -13.52 
-61.92 131.94 -15.35 
-62.08 131.80 -14.41 
-61.40 131.97 -13.34 
-61.89 131.70 -12.44 
-60.96 131.80 -14.89 
-61.21 132.01 -14.39 
-60.81 131.87 -13.82 
-61.02 131.70 -13.10 
-60.57 131.53 -14.05 
-60.38 131.60 -13.80 
-59.46 131.45 -14.00 
-59.39 131.48 -13.90 
-59.70 131.90 -12.92 
-58.73 131.70 -14.78 
-59.13 131.66 -13.53 
-57.78 131.66 -13.86 
-76.70 132.40 -17.43 
-74.04 132.37 -12.03 
-73.44 132.51 -13.47 
-73.35 132.49 -11.71 
-73.25 132.22 -12.64 
-72.09 132.59 -14.77 
-72.37 132.27 -14.10 
-71.50 132.19 -16.58 
-71.89 132.33 -12.70 
-70.94 132.78 -15.40 
-70.91 132.20 -15.07 
-70.98 132.30 -13.31 
-70.77 132.35 -12.64 
-70.52 132.62 -12.16 
-70.94 132.20 -11.82 
-70.99 132.25 -11.05 
-69.87 132.31 -16.94 
-70.09 132.51 -15.98 
-69.98 132.68 -14.98 
-70.31 132.78 -13.95 
-70.15 132.52 -13.10 
-70.42 132.22 -12.15 
-69.96 132.59 -11.58 
-69.99 132.51 -10.62 
-70.13 132.42 -9.89 
-69.58 132.18 -16.17 
-69.48 132.35 -15.43 
-69.44 132.43 -15.07 
-69.34 132.59 -14.35 
-69.40 132.42 -13.31 
-69.38 132.44 -12.34 
-69.16 132.14 -11.61 
-69.25 132.58 -9.90 
-68.65 132.79 -15.81 
-68.89 132.29 -15.06 
-68.84 132.58 -14.46 
-68.85 132.12 -13.85 
-68.50 132.37 -12.96 
-68.45 132.33 -12.41 
-68.57 132.32 -11.48 
-68.46 132.33 -9.92 
-68.64 132.54 -9.28 
-67.84 132.40 -16.90 
-67.84 132.23 -16.73 
-67.75 132.46 -15.63 
-68.01 132.39 -15.05 
-67.87 132.46 -14.12 
-68.39 132.33 -13.55 
-68.30 132.28 -12.97 
-68.36 132.42 -12.43 
-68.17 132.16 -11.14 
-68.36 132.28 -10.33 
-67.66 132.32 -16.47 
-67.25 132.20 -15.70 
-67.31 132.29 -14.67 
-67.20 132.32 -14.33 
-67.39 132.50 -13.75 
-67.35 132.29 -13.08 
-67.03 132.23 -12.26 
