# .PCD v0.7 - Point Cloud Data file format
VERSION 0.7
FIELDS x y z
SIZE 4 4 4
TYPE F F F
COUNT 1 1 1
WIDTH 317
HEIGHT 1
VIEWPOINT 0 0 0 1 0 0 0
POINTS 317
DATA ascii
-76.10 180.97 -11.78 
-74.74 180.84 -12.07 
-75.19 180.81 -11.62 
-74.74 180.84 -12.07 
-79.67 181.60 -12.54 
-80.23 181.59 -12.34 
-76.01 181.35 -12.14 
-76.33 181.04 -11.58 
-76.33 181.65 -11.05 
-75.56 181.31 -12.22 
-75.98 181.38 -11.05 
-75.12 181.63 -12.15 
-74.57 181.61 -12.46 
-81.84 182.27 -13.20 
-81.76 182.16 -12.23 
-81.15 182.10 -12.95 
-81.52 182.27 -12.50 
-81.00 182.06 -10.58 
-80.71 182.16 -12.30 
-80.86 182.37 -11.80 
-79.98 182.21 -12.12 
-79.25 182.14 -12.55 
-79.25 182.14 -12.55 
-79.06 182.14 -11.79 
-78.72 182.32 -12.54 
-78.76 182.10 -12.47 
-77.56 182.33 -13.27 
-77.81 182.11 -12.69 
-77.85 182.12 -12.37 
-77.54 182.41 -11.46 
-76.97 182.16 -12.82 
-76.90 182.06 -12.39 
-76.94 181.74 -11.81 
-76.53 182.49 -12.83 
-76.37 182.25 -12.49 
-76.28 181.77 -11.44 
-75.68 182.20 -12.85 
-75.74 182.05 -12.55 
-75.68 182.42 -11.76 
-74.97 182.22 -12.70 
-75.11 182.00 -12.48 
-74.31 182.15 -12.66 
-81.87 182.78 -13.18 
-82.18 182.72 -12.44 
-81.76 183.05 -11.30 
-81.22 182.74 -12.34 
-81.32 182.89 -11.31 
-81.57 182.97 -10.42 
-80.94 183.12 -12.20 
-80.61 183.04 -10.93 
-80.22 182.75 -11.96 
-80.15 182.72 -11.48 
-80.13 182.98 -10.92 
-79.16 182.63 -11.99 
-79.46 183.23 -11.73 
-78.99 182.84 -10.97 
-78.39 182.59 -12.77 
-78.43 182.75 -12.13 
-78.56 183.04 -11.51 
-78.41 182.51 -10.49 
-78.41 182.93 -10.43 
-77.79 182.72 -12.69 
-77.62 183.06 -12.39 
-78.09 183.05 -11.49 
-77.88 182.95 -10.48 
-77.80 182.59 -10.10 
-77.15 182.90 -14.38 
-76.83 182.75 -13.49 
-76.87 182.82 -12.96 
-77.31 182.65 -12.53 
-77.31 182.50 -11.74 
-76.57 182.90 -14.23 
-76.56 182.92 -13.80 
-76.40 182.60 -12.96 
-76.57 182.94 -12.39 
-76.05 182.99 -13.37 
-75.63 182.80 -13.12 
-75.67 182.81 -12.12 
-75.88 182.59 -11.83 
-74.98 182.90 -13.17 
-75.36 182.78 -12.94 
-75.06 182.63 -12.04 
-74.26 182.63 -12.93 
-74.48 182.88 -12.14 
-73.35 183.03 -12.43 
-69.78 183.09 -11.88 
-70.02 182.78 -11.82 
-69.33 183.00 -12.14 
-82.10 183.54 -12.25 
-82.09 183.27 -11.36 
-81.40 183.75 -12.17 
-81.61 183.57 -11.83 
-81.19 183.54 -10.99 
-80.34 183.57 -12.36 
-80.73 183.15 -11.60 
-80.53 183.52 -11.02 
-80.65 183.61 -10.29 
-80.09 183.60 -12.89 
-80.09 183.59 -12.24 
-80.02 183.74 -11.75 
-79.82 183.74 -11.13 
-79.13 183.66 -12.03 
-79.39 183.33 -11.69 
-78.72 183.69 -13.12 
-78.56 183.40 -11.19 
-78.19 183.74 -10.79 
-77.54 183.30 -11.70 
-77.75 183.21 -10.78 
-77.80 183.38 -10.32 
-76.86 183.09 -13.53 
-77.26 183.30 -12.85 
-77.17 183.45 -12.05 
-77.21 183.44 -11.50 
-77.12 183.35 -10.84 
-77.47 183.58 -10.28 
-76.76 183.23 -14.22 
-76.39 183.25 -12.85 
-76.26 183.25 -12.13 
-76.23 183.74 -11.40 
-76.43 183.39 -10.98 
-75.48 183.15 -13.35 
-75.87 183.56 -13.09 
-75.89 183.18 -12.16 
-75.62 183.49 -11.34 
-75.89 183.73 -10.64 
-75.22 183.19 -13.59 
-75.19 183.77 -13.05 
-74.23 183.74 -13.22 
-73.96 183.37 -13.05 
-73.04 183.58 -12.46 
-72.56 183.74 -12.35 
-70.54 183.82 -12.35 
-70.78 183.80 -11.71 
-69.98 183.49 -11.86 
-70.24 183.65 -11.77 
-69.43 183.41 -12.19 
-68.78 183.48 -12.13 
-81.72 184.21 -13.42 
-82.04 184.33 -12.93 
-81.84 184.11 -12.18 
-82.05 184.58 -11.42 
-82.23 184.10 -10.94 
-81.65 184.20 -13.33 
-81.46 184.09 -11.98 
-81.10 184.16 -11.61 
-81.50 184.36 -10.87 
-81.22 183.84 -10.24 
-80.30 183.99 -12.95 
-80.43 184.46 -12.19 
-80.96 184.03 -11.60 
-80.73 184.03 -10.91 
-79.97 184.32 -12.64 
-79.84 184.00 -12.07 
-79.95 184.23 -11.51 
-80.14 184.19 -10.87 
-80.00 183.93 -10.26 
-79.18 184.52 -13.34 
-79.09 183.83 -13.16 
-79.14 184.10 -12.17 
-79.16 184.04 -11.40 
-79.18 184.11 -10.87 
-79.36 183.88 -10.26 
-78.41 184.47 -13.32 
-78.79 184.27 -13.19 
-78.61 184.09 -11.20 
-78.81 184.14 -10.90 
-78.74 184.46 -10.10 
-78.10 184.01 -13.09 
-77.76 184.06 -12.12 
-77.82 184.08 -11.62 
-77.72 184.38 -10.56 
-77.80 184.42 -10.17 
-77.44 183.90 -13.12 
-77.41 184.40 -12.26 
-76.83 184.14 -11.62 
-77.42 184.00 -10.82 
-76.92 184.53 -10.21 
-76.69 184.00 -13.28 
-76.62 184.31 -12.95 
-76.54 183.99 -12.17 
-76.22 184.25 -11.46 
-76.29 184.35 -10.78 
-75.83 184.02 -13.18 
-75.88 183.99 -11.36 
-75.74 184.51 -10.31 
-74.78 184.08 -13.13 
-74.95 184.51 -10.47 
-75.01 184.25 -10.02 
-74.54 184.06 -13.12 
-72.55 184.21 -12.61 
-72.42 184.20 -12.47 
-71.45 184.27 -12.44 
-71.78 184.27 -11.37 
-71.51 184.30 -10.92 
-71.10 184.28 -12.21 
-70.81 184.53 -11.38 
-71.01 184.31 -10.94 
-70.12 184.37 -12.78 
-70.00 183.94 -12.20 
-69.85 184.37 -11.60 
-69.47 184.23 -12.73 
-69.42 184.04 -12.53 
-69.26 184.03 -11.41 
-68.88 184.43 -12.46 
-64.05 184.43 -10.22 
-82.06 184.60 -13.30 
-81.92 185.22 -12.90 
-81.89 184.81 -11.95 
-82.05 184.58 -11.42 
-81.89 184.94 -10.77 
-81.47 184.57 -13.02 
-81.04 184.90 -11.43 
-80.68 185.04 -12.71 
-80.91 185.10 -12.32 
-80.61 184.88 -11.54 
-80.61 184.76 -11.09 
-79.80 185.18 -12.57 
-79.64 185.03 -12.29 
-80.01 184.72 -11.73 
-79.89 185.06 -11.00 
-79.04 184.77 -13.51 
-79.28 185.11 -12.57 
-79.30 185.11 -12.16 
-78.90 184.61 -11.35 
-79.45 184.78 -10.75 
-78.39 184.74 -13.50 
-78.70 185.21 -12.54 
-78.46 184.63 -12.10 
-78.72 184.57 -11.26 
-78.49 184.64 -10.59 
-77.81 185.14 -11.89 
-77.86 184.93 -11.72 
-77.64 185.01 -10.74 
-76.79 185.03 -12.56 
-77.05 185.05 -11.87 
-76.85 185.04 -11.65 
-77.35 184.96 -10.86 
-77.33 184.67 -10.07 
-77.14 184.94 -9.80 
-76.44 184.83 -13.27 
-76.65 185.02 -13.16 
-76.69 185.03 -12.20 
-76.58 184.72 -11.16 
-76.28 184.78 -10.98 
-75.66 184.72 -12.79 
-75.56 185.08 -12.06 
-75.50 184.89 -10.54 
-75.27 185.17 -12.46 
-75.15 184.71 -10.74 
-74.34 185.16 -10.71 
-72.82 184.73 -11.94 
-72.00 184.69 -12.82 
-72.54 184.98 -11.91 
-72.34 185.12 -11.75 
-71.37 184.85 -12.77 
-71.56 184.97 -12.03 
-71.74 185.10 -11.65 
-71.25 184.72 -11.01 
-70.86 185.19 -14.08 
-70.67 185.39 -13.26 
-70.72 184.92 -12.57 
-70.65 184.70 -12.21 
-70.81 184.53 -11.38 
-71.17 184.99 -10.90 
-70.33 185.04 -13.42 
-70.26 185.22 -12.87 
-70.19 185.11 -12.09 
-69.94 185.02 -11.83 
-69.99 184.98 -10.63 
-69.15 184.92 -12.71 
-69.26 184.87 -12.51 
-69.60 184.70 -11.46 
-69.63 184.91 -11.04 
-68.47 184.73 -12.54 
-66.04 185.01 -12.60 
-66.18 184.60 -12.51 
-64.41 185.13 -11.22 
-64.30 184.64 -10.66 
-63.96 184.72 -10.28 
-81.99 185.42 -12.69 
-80.42 185.31 -11.36 
-79.99 185.37 -12.35 
-79.99 185.34 -11.11 
-78.89 185.43 -12.17 
-78.95 185.36 -11.16 
-78.76 185.32 -12.64 
-78.37 185.28 -12.21 
-78.72 185.36 -11.36 
-77.54 185.38 -12.01 
-77.92 185.33 -11.47 
-77.91 185.45 -10.72 
-77.04 185.42 -12.81 
-77.21 185.27 -12.16 
-76.82 185.15 -10.75 
-76.93 185.46 -9.87 
-76.58 185.42 -12.75 
-76.50 185.35 -11.13 
-75.46 185.40 -10.70 
-75.18 185.45 -10.63 
-75.23 185.45 -10.34 
-72.75 185.38 -12.04 
-72.23 185.30 -11.89 
-71.29 185.30 -11.89 
-71.32 185.38 -11.65 
-71.49 185.34 -10.86 
-70.75 185.31 -14.10 
-70.74 185.34 -13.49 
-70.69 185.44 -13.18 
-71.08 185.29 -12.11 
-71.06 185.26 -11.82 
-70.42 185.39 -14.08 
-70.44 185.37 -13.78 
-70.27 185.28 -12.93 
-70.06 185.39 -12.45 
-69.99 185.25 -11.68 
-69.71 185.41 -11.15 
-69.76 185.25 -11.06 
