# .PCD v0.7 - Point Cloud Data file format
VERSION 0.7
FIELDS x y z
SIZE 4 4 4
TYPE F F F
COUNT 1 1 1
WIDTH 1869
HEIGHT 1
VIEWPOINT 0 0 0 1 0 0 0
POINTS 1869
DATA ascii
-81.60 185.91 -12.42 
-81.39 185.74 -12.65 
-81.10 185.84 -10.92 
-80.66 185.80 -12.25 
-80.85 185.65 -10.30 
-80.77 185.87 -9.54 
-79.92 185.61 -12.16 
-79.73 186.14 -11.43 
-80.03 185.92 -11.39 
-79.61 185.97 -10.27 
-79.07 185.90 -12.13 
-79.05 185.62 -12.02 
-79.16 185.69 -11.16 
-78.57 185.68 -12.12 
-78.76 185.76 -12.07 
-77.72 185.90 -12.84 
-77.47 185.68 -12.52 
-77.48 185.82 -12.11 
-77.52 185.64 -11.22 
-78.09 186.15 -10.59 
-76.94 185.72 -14.12 
-76.92 185.59 -13.17 
-77.23 185.76 -12.33 
-76.78 186.15 -12.08 
-77.28 185.96 -11.11 
-77.03 185.87 -10.67 
-77.13 185.80 -9.45 
-76.72 185.61 -13.16 
-76.36 185.52 -11.80 
-76.62 185.86 -11.14 
-76.33 185.92 -10.61 
-76.17 185.65 -9.95 
-75.76 185.60 -12.48 
-75.79 186.10 -12.02 
-76.12 185.99 -10.99 
-75.76 185.85 -10.59 
-75.21 186.05 -12.02 
-75.32 185.86 -11.29 
-75.24 185.98 -9.55 
-75.21 185.72 -9.18 
-74.11 186.12 -12.87 
-74.62 186.02 -12.66 
-74.43 186.12 -11.66 
-73.82 185.85 -12.85 
-73.34 185.75 -12.38 
-73.65 185.84 -11.90 
-73.40 186.06 -11.11 
-73.45 185.79 -10.50 
-73.11 185.93 -12.83 
-73.00 185.68 -12.60 
-72.73 186.00 -11.90 
-72.99 186.14 -11.18 
-72.65 185.93 -10.51 
-72.28 186.16 -11.98 
-72.10 185.93 -11.38 
-72.52 185.54 -10.15 
-71.73 185.90 -12.18 
-71.55 186.12 -11.87 
-71.85 186.03 -10.88 
-71.34 185.97 -9.84 
-70.66 185.50 -12.92 
-70.65 185.64 -12.37 
-70.48 185.82 -11.71 
-70.40 185.49 -12.23 
-70.32 185.77 -11.43 
-70.38 185.97 -11.08 
-69.66 185.97 -12.63 
-69.68 186.16 -10.36 
-68.87 185.83 -11.60 
-68.13 185.91 -11.49 
-67.49 185.74 -11.19 
-67.15 186.16 -10.22 
-66.53 185.88 -12.30 
-66.39 185.93 -10.22 
-66.92 186.14 -9.73 
-65.95 186.09 -12.27 
-65.74 185.47 -11.65 
-66.18 186.12 -10.68 
-66.27 185.81 -9.74 
-65.25 185.96 -12.75 
-65.28 185.89 -11.49 
-65.54 185.79 -11.25 
-64.70 185.53 -12.73 
-64.68 185.85 -12.07 
-64.45 185.97 -11.35 
-63.70 186.12 -12.36 
-63.85 185.76 -11.96 
-63.22 185.94 -12.21 
-62.86 186.06 -11.58 
-62.48 185.68 -12.35 
-81.76 186.37 -12.43 
-81.20 186.31 -12.30 
-81.26 186.32 -10.27 
-80.93 186.36 -12.23 
-80.65 186.80 -12.05 
-80.62 186.33 -11.34 
-80.57 186.65 -9.88 
-79.98 186.27 -12.27 
-79.82 186.30 -12.04 
-79.75 186.64 -9.36 
-79.11 186.55 -12.78 
-79.32 186.67 -11.04 
-79.00 186.61 -10.65 
-79.09 186.61 -9.53 
-78.58 186.41 -14.12 
-78.64 186.29 -13.45 
-78.52 186.74 -12.79 
-78.70 186.46 -11.49 
-78.76 186.65 -11.02 
-78.47 186.58 -10.82 
-78.78 186.19 -9.87 
-78.86 186.73 -9.15 
-78.00 186.36 -13.90 
-78.12 186.27 -13.21 
-77.75 186.85 -12.66 
-77.82 186.49 -11.81 
-77.90 186.42 -10.97 
-77.93 186.23 -10.33 
-77.68 186.65 -9.40 
-77.93 186.64 -9.20 
-77.28 186.41 -13.89 
-77.29 186.36 -13.20 
-77.17 186.58 -12.75 
-77.00 186.53 -12.01 
-76.95 186.49 -11.06 
-77.03 186.35 -10.69 
-77.31 186.21 -9.86 
-76.60 186.20 -12.40 
-76.50 186.68 -11.95 
-76.71 186.30 -11.09 
-76.55 186.26 -10.28 
-76.05 186.39 -12.38 
-75.79 186.10 -12.02 
-76.01 186.57 -10.31 
-75.75 186.28 -9.78 
-75.10 186.69 -12.83 
-75.08 186.80 -12.62 
-74.85 186.45 -11.89 
-74.96 186.69 -10.13 
-74.91 186.57 -9.77 
-74.08 186.78 -12.38 
-74.53 186.68 -11.57 
-74.03 186.69 -11.02 
-73.78 186.32 -12.90 
-73.37 186.42 -12.39 
-73.73 186.39 -11.60 
-73.37 186.32 -11.12 
-73.31 186.21 -10.37 
-73.01 186.35 -12.38 
-72.89 186.36 -11.83 
-72.61 186.71 -11.38 
-72.93 186.29 -10.36 
-72.53 186.30 -12.14 
-72.25 186.34 -11.38 
-72.29 186.55 -11.42 
-72.43 186.70 -10.12 
-72.45 186.50 -9.66 
-71.71 186.36 -11.79 
-71.44 186.79 -10.91 
-71.41 186.47 -10.45 
-70.80 186.33 -11.16 
-70.63 186.66 -10.44 
-70.40 186.75 -12.60 
-70.24 186.55 -11.80 
-70.41 186.38 -10.72 
-70.14 186.71 -10.30 
-70.02 186.52 -10.00 
-69.23 186.63 -12.60 
-69.61 186.60 -11.98 
-69.44 186.37 -10.01 
-68.75 186.81 -12.61 
-67.75 186.83 -11.78 
-67.43 186.25 -12.16 
-67.04 186.78 -11.60 
-67.11 186.40 -10.98 
-67.02 186.73 -10.24 
-66.59 186.87 -12.33 
-66.82 186.78 -11.88 
-66.36 186.29 -10.10 
-66.96 186.59 -9.67 
-66.08 186.61 -12.30 
-66.06 186.34 -11.89 
-65.67 186.56 -11.31 
-64.92 186.76 -14.06 
-64.98 186.49 -12.51 
-65.06 186.23 -11.85 
-64.82 186.48 -12.85 
-64.29 186.39 -12.52 
-64.59 186.84 -11.59 
-64.77 186.18 -10.75 
-64.77 186.19 -10.34 
-64.00 186.84 -12.94 
-63.94 186.42 -12.47 
-63.73 186.58 -11.65 
-63.23 186.57 -12.84 
-63.47 186.25 -12.36 
-63.21 186.59 -11.87 
-63.25 186.58 -10.84 
-81.79 187.08 -12.16 
-81.15 187.20 -12.15 
-79.87 187.44 -10.70 
-78.92 186.95 -13.44 
-79.36 187.38 -10.74 
-79.32 187.36 -10.55 
-79.10 187.37 -9.65 
-79.32 187.20 -9.21 
-78.87 187.07 -14.11 
-78.40 186.94 -13.44 
-78.51 187.47 -12.74 
-78.25 186.91 -12.10 
-78.43 187.37 -10.75 
-78.49 186.94 -10.50 
-78.32 187.21 -9.38 
-77.88 187.43 -13.39 
-78.15 187.06 -12.75 
-77.50 187.31 -11.98 
-77.61 187.12 -11.16 
-77.66 187.03 -10.52 
-77.66 187.57 -9.77 
-77.10 186.89 -12.70 
-76.91 187.24 -11.96 
-77.30 187.27 -11.33 
-77.04 187.05 -10.28 
-76.18 187.54 -12.63 
-76.32 187.13 -11.94 
-76.35 187.05 -10.26 
-75.72 187.04 -12.55 
-75.83 187.25 -11.83 
-75.45 187.32 -9.65 
-75.32 187.23 -11.75 
-74.85 187.26 -11.21 
-75.00 187.21 -9.60 
-75.05 186.94 -9.16 
-74.52 187.17 -12.58 
-74.46 186.88 -11.16 
-73.76 186.97 -12.24 
-73.40 186.87 -11.61 
-73.82 187.35 -10.82 
-73.63 187.43 -9.41 
-73.09 187.52 -11.68 
-72.66 187.34 -11.13 
-72.71 187.49 -10.33 
-73.09 187.47 -9.50 
-72.13 187.37 -12.19 
-72.09 187.40 -11.15 
-72.45 187.20 -9.83 
-72.52 186.96 -9.13 
-71.48 187.35 -12.94 
-71.53 187.23 -12.18 
-71.34 186.88 -11.99 
-71.53 186.98 -10.98 
-71.31 187.04 -10.22 
-71.48 187.37 -9.93 
-71.47 187.04 -8.03 
-70.79 187.27 -13.51 
-70.84 187.21 -12.63 
-71.00 187.22 -11.58 
-71.14 187.44 -11.12 
-71.04 187.50 -10.27 
-70.70 187.28 -9.99 
-70.56 187.01 -8.55 
-70.25 187.31 -12.89 
-70.27 187.33 -11.73 
-69.90 187.56 -11.01 
-70.42 187.04 -10.05 
-70.31 187.26 -9.99 
-70.21 187.18 -9.31 
-69.72 187.03 -12.61 
-69.55 187.33 -11.71 
-69.50 187.31 -11.21 
-69.31 187.30 -10.61 
-69.77 186.94 -9.97 
-68.65 187.53 -11.85 
-68.93 187.49 -10.52 
-68.78 187.49 -9.14 
-68.27 187.47 -10.64 
-67.19 186.96 -11.86 
-67.53 187.43 -10.25 
-66.45 186.99 -12.56 
-66.45 187.06 -11.87 
-66.62 186.95 -10.99 
-66.44 187.52 -10.30 
-66.62 187.03 -9.77 
-65.72 186.87 -12.49 
-65.72 187.08 -11.75 
-65.79 186.98 -10.83 
-66.03 187.27 -10.12 
-65.08 186.98 -13.75 
-65.08 187.00 -13.15 
-65.13 187.22 -12.38 
-65.21 187.29 -11.68 
-65.32 187.49 -11.20 
-65.00 187.34 -8.37 
-64.58 186.92 -13.37 
-64.52 186.93 -12.37 
-64.65 187.07 -11.73 
-64.49 186.98 -11.20 
-64.48 187.04 -9.88 
-64.02 186.92 -12.62 
-63.95 187.14 -11.23 
-63.55 187.17 -10.49 
-63.72 186.98 -9.34 
-64.14 187.54 -8.49 
-63.11 186.90 -12.79 
-62.93 187.57 -11.79 
-63.22 187.13 -10.45 
-62.53 187.37 -12.18 
-62.63 187.37 -11.91 
-62.46 187.48 -10.05 
-61.93 187.57 -12.98 
-61.78 187.24 -12.49 
-82.06 187.77 -12.12 
-81.66 187.58 -11.53 
-80.43 187.65 -10.78 
-80.38 187.61 -10.67 
-79.58 188.20 -10.72 
-79.38 188.18 -12.82 
-78.94 188.06 -11.59 
-78.43 187.60 -13.40 
-78.38 187.92 -11.93 
-78.57 187.62 -11.13 
-77.93 187.83 -11.69 
-78.04 188.10 -11.28 
-77.78 187.87 -8.89 
-76.98 187.96 -12.76 
-77.06 187.59 -11.58 
-77.34 187.98 -11.06 
-77.25 188.24 -10.11 
-77.07 187.87 -9.44 
-77.00 187.96 -8.92 
-76.31 187.65 -11.92 
-76.56 187.74 -10.05 
-76.43 187.68 -9.48 
-76.65 188.06 -9.22 
-75.81 187.67 -11.84 
-75.89 187.98 -10.15 
-75.33 187.81 -10.92 
-75.22 188.20 -10.14 
-75.35 188.09 -8.82 
-74.42 187.88 -12.78 
-74.25 187.96 -10.95 
-74.16 187.91 -10.33 
-74.61 187.99 -9.03 
-73.34 188.24 -13.95 
-73.47 188.05 -13.19 
-73.86 187.62 -11.66 
-73.71 187.89 -11.06 
-73.53 187.87 -9.53 
-72.94 187.73 -12.42 
-73.05 188.13 -11.88 
-72.80 187.71 -10.91 
-72.66 187.71 -10.63 
-72.98 187.64 -9.39 
-73.06 187.98 -9.09 
-72.55 188.10 -13.64 
-72.09 187.89 -13.17 
-72.12 187.82 -12.40 
-72.21 187.84 -11.84 
-72.14 188.21 -10.82 
-72.07 188.08 -9.47 
-71.62 187.81 -13.74 
-71.80 187.67 -13.34 
-71.51 187.88 -11.60 
-71.47 187.96 -10.83 
-71.50 187.57 -10.35 
-71.67 187.58 -9.87 
-71.54 188.18 -9.24 
-71.41 187.58 -8.42 
-70.62 187.79 -12.99 
-70.96 187.97 -12.34 
-71.08 187.90 -11.75 
-70.85 187.97 -10.84 
-71.07 188.13 -10.46 
-70.56 188.01 -9.67 
-70.87 187.59 -9.26 
-70.54 188.16 -8.08 
-70.33 187.61 -12.95 
-70.41 188.09 -12.81 
-70.26 188.03 -11.98 
-70.17 187.81 -10.84 
-69.94 187.75 -10.69 
-70.30 188.20 -9.60 
-70.34 188.12 -9.29 
-69.88 187.64 -8.47 
-69.56 187.93 -12.85 
-69.37 188.18 -12.63 
-69.54 187.70 -12.02 
-69.60 188.18 -11.17 
-69.55 187.69 -10.31 
-69.58 188.16 -9.55 
-68.47 187.86 -12.97 
-69.06 188.25 -12.80 
-68.71 188.20 -10.99 
-68.74 187.81 -10.15 
-68.86 187.60 -9.19 
-68.20 187.99 -12.85 
-68.23 187.63 -11.66 
-68.25 188.26 -10.99 
-67.78 188.08 -10.27 
-68.29 187.97 -9.53 
-67.56 188.16 -11.04 
-67.43 188.16 -10.31 
-67.55 187.87 -9.13 
-66.71 187.89 -12.14 
-66.37 187.82 -11.64 
-66.59 187.74 -11.29 
-66.85 187.91 -10.30 
-66.61 187.74 -9.79 
-66.36 187.89 -9.05 
-65.92 188.19 -12.78 
-65.99 187.87 -11.36 
-66.00 188.13 -10.41 
-65.78 188.09 -9.27 
-65.26 187.92 -12.87 
-65.17 187.99 -11.88 
-65.20 187.86 -11.29 
-65.34 188.21 -9.32 
-65.09 187.78 -8.43 
-64.47 188.03 -12.82 
-64.57 187.81 -12.75 
-64.18 187.99 -11.83 
-64.19 187.81 -10.04 
-64.67 187.93 -9.50 
-64.79 188.16 -9.26 
-63.74 188.26 -11.78 
-64.11 187.60 -10.16 
-64.07 187.72 -9.23 
-62.93 187.78 -12.26 
-62.88 187.82 -12.02 
-63.19 188.24 -11.25 
-62.44 187.85 -12.34 
-62.34 187.75 -11.65 
-62.67 188.22 -11.32 
-62.42 188.03 -10.04 
-62.28 187.94 -9.88 
-61.98 188.24 -13.70 
-61.48 188.10 -13.46 
-61.94 187.93 -12.61 
-61.95 188.05 -11.70 
-61.65 187.86 -8.93 
-61.16 188.44 -13.21 
-61.18 188.10 -12.32 
-61.31 187.78 -12.00 
-61.16 188.06 -9.94 
-58.08 188.21 -11.17 
-57.83 187.94 -11.41 
-80.50 188.47 -11.52 
-80.66 188.36 -10.61 
-79.85 188.88 -11.21 
-79.38 188.56 -12.65 
-79.23 188.89 -11.90 
-79.43 188.34 -10.51 
-78.88 188.86 -12.64 
-78.81 188.28 -11.28 
-78.16 188.36 -12.27 
-77.81 188.31 -10.63 
-76.79 188.60 -10.95 
-76.39 188.64 -10.22 
-76.61 188.59 -9.44 
-75.90 188.78 -10.96 
-75.71 188.54 -10.05 
-74.89 188.88 -11.04 
-75.17 188.59 -10.34 
-74.87 188.83 -9.86 
-74.10 188.54 -11.69 
-74.57 188.63 -10.89 
-74.14 188.92 -10.52 
-74.09 188.42 -9.44 
-74.44 188.82 -8.64 
-73.99 188.81 -8.10 
-73.64 188.60 -11.65 
-73.98 188.50 -10.89 
-73.53 188.37 -10.16 
-73.77 188.46 -9.12 
-73.90 188.67 -8.30 
-72.90 188.56 -13.16 
-73.27 188.77 -12.77 
-72.79 188.67 -11.81 
-72.78 188.72 -11.00 
-72.92 188.44 -9.66 
-72.80 188.52 -9.11 
-73.16 188.57 -8.34 
-72.55 188.28 -12.73 
-72.16 188.79 -12.02 
-71.96 188.27 -11.01 
-72.17 188.46 -10.21 
-72.24 188.68 -9.92 
-72.35 188.92 -8.85 
-72.47 188.65 -8.05 
-71.73 188.30 -12.83 
-71.24 188.95 -11.49 
-71.35 188.29 -10.91 
-71.50 188.87 -9.88 
-71.75 188.88 -9.00 
-71.80 188.95 -8.31 
-70.51 188.67 -12.54 
-70.90 188.67 -11.96 
-70.89 188.48 -11.20 
-70.86 188.33 -10.06 
-70.87 188.46 -9.36 
-70.54 188.49 -9.30 
-69.87 188.94 -13.02 
-69.84 188.96 -12.20 
-69.86 188.55 -11.87 
-70.06 188.63 -11.07 
-70.07 188.41 -10.06 
-70.26 188.40 -9.38 
-70.00 188.29 -9.28 
-69.63 188.89 -13.65 
-69.28 188.43 -12.92 
-69.26 188.29 -12.03 
-69.27 188.33 -11.12 
-69.12 188.41 -9.59 
-68.65 188.37 -13.01 
-68.66 188.55 -12.60 
-68.93 188.53 -11.96 
-68.56 188.45 -11.12 
-69.06 188.28 -9.53 
-68.80 188.46 -9.06 
-68.93 188.32 -8.47 
-68.14 188.41 -10.74 
-68.28 188.39 -10.03 
-68.25 188.57 -9.32 
-68.14 188.42 -9.05 
-68.28 188.93 -8.37 
-67.56 188.65 -11.06 
-67.53 188.45 -10.05 
-67.03 188.31 -9.14 
-66.36 188.80 -13.15 
-66.76 188.70 -12.36 
-66.88 188.96 -11.90 
-66.37 188.36 -10.15 
-66.64 188.59 -8.92 
-66.23 188.75 -13.16 
-65.60 188.79 -11.59 
-65.79 188.78 -11.01 
-65.73 188.56 -10.38 
-65.69 188.42 -8.22 
-65.44 188.56 -12.70 
-65.25 188.76 -11.49 
-65.15 188.96 -10.82 
-65.36 188.59 -10.48 
-65.20 188.46 -9.92 
-65.05 188.75 -9.22 
-65.43 188.37 -8.43 
-64.58 188.94 -12.83 
-64.40 188.54 -12.81 
-64.62 188.85 -12.00 
-64.78 188.45 -10.90 
-64.20 188.76 -10.05 
-64.65 188.36 -9.40 
-64.65 188.36 -9.40 
-64.05 188.69 -12.14 
-63.86 188.78 -11.10 
-63.56 188.46 -10.03 
-63.27 188.78 -13.04 
-62.90 188.79 -12.29 
-63.25 188.55 -12.03 
-63.05 188.37 -11.40 
-63.04 188.30 -10.16 
-63.14 188.71 -9.86 
-62.80 188.67 -9.08 
-62.37 188.35 -13.62 
-62.12 188.61 -13.20 
-62.65 188.74 -12.63 
-62.48 188.45 -11.68 
-62.49 189.06 -11.45 
-62.40 188.38 -10.56 
-62.68 188.76 -9.85 
-62.77 188.44 -8.95 
-61.83 188.37 -13.66 
-61.91 188.49 -13.32 
-61.85 188.51 -12.37 
-62.01 188.45 -11.82 
-61.58 188.36 -10.17 
-61.62 188.80 -9.86 
-61.92 188.65 -8.80 
-61.16 188.44 -13.21 
-61.34 188.62 -12.33 
-61.23 188.72 -12.10 
-57.53 188.53 -11.71 
-80.59 189.27 -14.15 
-79.77 189.07 -10.46 
-79.12 189.35 -12.03 
-78.52 189.20 -12.01 
-75.48 189.15 -10.96 
-75.63 189.03 -9.35 
-75.16 189.08 -10.22 
-74.24 189.15 -12.37 
-74.44 189.56 -11.62 
-74.19 189.19 -9.83 
-74.24 189.36 -8.83 
-73.39 189.04 -13.42 
-73.31 189.48 -12.43 
-73.54 189.03 -11.57 
-73.60 189.34 -10.80 
-73.22 189.15 -13.14 
-72.76 188.97 -11.67 
-72.96 189.58 -10.86 
-72.72 189.03 -9.95 
-72.70 189.56 -8.86 
-72.53 189.38 -11.48 
-72.51 189.45 -10.36 
-72.38 189.58 -9.95 
-72.55 189.07 -9.24 
-72.51 189.18 -7.85 
-71.60 189.26 -12.87 
-71.88 189.56 -11.47 
-71.87 189.30 -10.35 
-71.40 189.36 -9.52 
-70.48 189.31 -13.05 
-70.50 189.35 -12.22 
-70.70 189.02 -11.44 
-71.07 189.26 -10.88 
-70.68 189.63 -10.36 
-70.42 188.99 -12.21 
-70.11 189.08 -11.96 
-70.23 189.29 -9.83 
-70.41 189.17 -9.20 
-69.30 189.37 -13.21 
-69.63 189.45 -12.46 
-69.40 189.08 -11.93 
-69.50 189.08 -11.18 
-68.90 189.39 -13.51 
-68.99 188.99 -12.16 
-69.03 189.12 -11.87 
-68.74 189.06 -9.81 
-69.00 189.25 -9.20 
-67.96 189.37 -12.87 
-67.95 189.16 -12.77 
-67.98 189.54 -11.93 
-67.71 189.61 -11.20 
-68.00 189.57 -9.72 
-67.97 189.26 -8.10 
-67.22 189.34 -11.96 
-67.16 189.37 -8.92 
-66.67 189.23 -13.16 
-66.47 189.65 -10.73 
-66.33 189.10 -9.86 
-66.19 189.51 -11.85 
-65.72 189.07 -11.23 
-65.63 189.57 -10.55 
-66.01 189.39 -9.32 
-65.80 189.12 -9.09 
-65.22 189.63 -13.12 
-65.33 189.07 -12.31 
-65.22 189.21 -11.79 
-65.45 189.43 -10.91 
-65.20 189.53 -10.14 
-64.96 189.48 -9.78 
-65.09 189.64 -9.16 
-64.89 189.40 -8.50 
-64.48 188.99 -12.81 
-64.93 189.11 -12.01 
-64.47 189.48 -10.96 
-64.73 189.48 -10.18 
-64.85 189.66 -10.01 
-64.78 189.58 -9.16 
-64.83 189.38 -8.38 
-63.90 189.07 -11.85 
-63.55 189.10 -11.10 
-63.95 189.50 -10.00 
-63.95 188.99 -8.82 
-64.10 188.97 -8.37 
-62.98 189.05 -12.53 
-62.94 189.23 -11.54 
-63.33 189.60 -10.94 
-62.86 189.51 -10.66 
-63.10 189.43 -9.80 
-63.13 189.46 -8.71 
-62.38 189.28 -13.54 
-62.48 189.24 -13.00 
-62.45 189.27 -12.67 
-62.38 189.12 -11.80 
-62.54 189.10 -11.21 
-62.53 189.05 -10.51 
-62.04 189.41 -13.35 
-61.41 189.42 -11.54 
-61.42 188.99 -8.90 
-61.32 189.06 -12.95 
-60.70 189.26 -8.85 
-60.54 189.16 -11.86 
-60.14 189.01 -11.03 
-59.55 189.25 -11.28 
-58.98 189.49 -10.41 
-58.21 189.41 -11.90 
-57.81 189.02 -11.18 
-75.04 189.92 -11.54 
-74.23 189.86 -12.36 
-73.78 190.03 -12.27 
-73.70 190.36 -10.68 
-73.02 189.82 -12.31 
-73.19 190.11 -11.98 
-73.04 190.13 -11.09 
-72.82 190.00 -9.77 
-72.32 189.95 -12.11 
-72.00 190.14 -9.71 
-72.25 189.74 -9.15 
-71.35 189.93 -13.01 
-71.67 189.87 -12.24 
-71.25 190.07 -11.75 
-71.68 189.88 -11.40 
-71.21 189.88 -10.27 
-71.20 189.79 -10.00 
-70.67 190.22 -12.16 
-70.99 189.85 -11.73 
-70.52 190.21 -10.86 
-70.73 190.08 -10.18 
-70.86 189.81 -9.39 
-70.02 189.96 -12.98 
-70.32 190.33 -9.40 
-69.70 190.07 -13.54 
-69.26 190.08 -13.47 
-69.47 190.20 -12.56 
-69.58 189.78 -11.80 
-69.62 190.34 -8.97 
-68.82 189.86 -12.41 
-68.73 189.68 -11.94 
-68.64 190.29 -9.36 
-68.84 189.91 -8.93 
-67.77 189.76 -13.35 
-68.29 190.12 -12.26 
-67.82 189.91 -11.79 
-68.38 190.32 -10.23 
-67.86 189.70 -9.05 
-67.26 189.74 -12.85 
-67.63 190.20 -12.69 
-67.62 189.90 -11.81 
-67.28 189.68 -10.90 
-67.24 190.17 -9.35 
-66.99 190.22 -8.93 
-67.28 189.72 -8.04 
-66.53 189.88 -11.92 
-66.64 190.35 -11.01 
-66.57 190.05 -9.75 
-65.78 189.73 -12.86 
-65.91 189.69 -12.26 
-65.79 189.82 -11.85 
-65.79 190.35 -10.74 
-66.16 190.08 -9.63 
-66.18 190.01 -8.76 
-65.96 189.95 -8.02 
-65.48 190.03 -11.00 
-64.96 189.68 -9.85 
-65.49 189.96 -8.92 
-65.14 190.04 -8.34 
-64.36 190.26 -11.85 
-64.53 189.85 -10.99 
-64.60 189.98 -10.04 
-64.83 190.16 -9.35 
-64.44 189.76 -9.09 
-63.93 190.12 -11.79 
-64.16 189.76 -11.01 
-64.04 190.35 -10.64 
-63.79 189.71 -9.58 
-64.06 189.97 -9.10 
-64.09 189.82 -8.39 
-63.10 190.20 -12.54 
-63.38 189.98 -11.86 
-62.88 189.92 -11.38 
-63.20 189.86 -10.41 
-63.43 189.67 -9.93 
-62.48 189.74 -11.29 
-62.07 190.34 -11.56 
-61.59 189.82 -10.39 
-61.93 190.21 -8.57 
-60.82 189.94 -12.14 
-61.14 190.13 -10.86 
-61.36 189.88 -10.08 
-60.92 190.17 -8.97 
-60.11 189.82 -12.13 
-60.62 190.06 -10.06 
-60.43 189.98 -9.05 
-60.11 189.79 -8.52 
-59.37 189.78 -12.12 
-59.65 190.08 -9.50 
-58.63 189.72 -12.11 
-59.06 190.36 -10.02 
-58.84 190.02 -7.08 
-58.29 190.22 -10.29 
-58.23 190.10 -6.79 
-57.79 189.92 -12.07 
-57.64 190.29 -11.10 
-57.85 190.10 -10.50 
-57.62 190.33 -9.23 
-74.76 190.79 -12.42 
-74.90 190.62 -11.65 
-74.46 190.60 -12.31 
-73.79 190.88 -11.56 
-72.88 190.44 -11.71 
-72.93 190.54 -10.85 
-72.02 190.81 -11.67 
-72.07 190.53 -9.72 
-71.30 190.42 -13.01 
-71.82 190.37 -10.04 
-71.05 190.53 -12.06 
-71.01 190.43 -10.27 
-70.44 190.51 -12.98 
-70.29 190.70 -12.12 
-69.82 190.38 -9.01 
-69.41 190.92 -12.91 
-69.69 190.39 -12.11 
-69.57 190.59 -9.70 
-69.12 190.66 -9.03 
-68.81 190.46 -12.64 
-68.17 190.56 -9.82 
-67.33 190.64 -11.93 
-67.22 190.77 -11.09 
-67.37 190.38 -9.86 
-67.40 190.60 -8.85 
-66.83 190.92 -12.24 
-66.53 190.49 -10.80 
-65.78 190.42 -10.76 
-66.23 190.96 -10.70 
-64.94 190.69 -10.93 
-64.90 190.57 -10.49 
-65.16 190.44 -10.04 
-65.55 190.37 -9.04 
-64.25 190.89 -12.24 
-64.54 190.87 -11.85 
-64.34 190.53 -10.93 
-64.45 190.54 -10.38 
-64.62 190.42 -9.93 
-64.56 190.49 -8.97 
-63.99 190.96 -13.12 
-63.73 190.72 -11.82 
-63.94 190.43 -10.93 
-63.85 190.71 -10.52 
-63.04 190.53 -13.34 
-63.13 190.40 -12.43 
-63.46 190.58 -11.72 
-63.45 190.37 -11.36 
-63.31 190.41 -10.60 
-63.31 190.39 -9.70 
-63.29 190.51 -8.76 
-62.50 190.67 -13.25 
-62.61 190.53 -12.22 
-62.85 190.78 -11.71 
-62.67 190.77 -11.34 
-62.18 191.01 -10.42 
-62.52 190.99 -9.85 
-62.52 190.96 -7.98 
-61.84 190.47 -12.20 
-62.07 190.79 -12.10 
-61.71 190.57 -10.84 
-61.69 190.85 -10.42 
-61.58 191.00 -9.68 
-61.72 190.46 -7.91 
-61.35 190.70 -12.81 
-61.27 190.53 -12.09 
-60.83 191.02 -10.54 
-61.35 190.51 -9.63 
-61.02 190.83 -8.56 
-60.58 191.03 -10.89 
-60.66 190.89 -9.71 
-59.68 190.86 -11.89 
-59.58 190.83 -9.83 
-58.84 190.50 -11.80 
-58.95 190.68 -11.28 
-59.03 190.57 -10.31 
-58.64 190.80 -9.86 
-58.65 190.94 -8.35 
-58.22 190.37 -11.79 
-58.41 191.02 -11.00 
-58.50 191.01 -10.24 
-58.13 190.58 -9.84 
-58.26 190.90 -8.97 
-58.05 190.43 -8.35 
-57.98 190.97 -7.58 
-57.76 190.73 -11.85 
-57.65 190.98 -10.33 
-74.37 191.13 -12.27 
-73.09 191.08 -10.62 
-71.73 191.12 -10.02 
-70.58 191.36 -9.57 
-69.94 191.35 -12.90 
-70.32 191.50 -10.08 
-69.20 191.13 -12.03 
-67.90 191.28 -11.93 
-67.58 191.51 -11.03 
-66.90 191.34 -10.73 
-66.62 191.48 -10.51 
-65.94 191.68 -12.30 
-65.94 191.40 -11.87 
-66.03 191.60 -10.36 
-65.69 191.50 -9.81 
-66.12 191.31 -8.64 
-65.93 191.36 -7.77 
-65.16 191.28 -12.69 
-65.54 191.13 -11.85 
-64.91 191.63 -10.96 
-65.40 191.22 -8.61 
-65.16 191.59 -7.87 
-64.42 191.29 -13.18 
-64.85 191.31 -12.70 
-64.80 191.56 -11.59 
-64.66 191.55 -9.87 
-64.82 191.75 -8.98 
-64.37 191.19 -7.95 
-64.74 191.45 -7.91 
-63.77 191.12 -12.41 
-63.84 191.31 -11.73 
-64.09 191.13 -10.75 
-63.78 191.44 -10.34 
-63.63 191.75 -9.82 
-63.98 191.58 -9.31 
-62.86 191.37 -11.80 
-63.09 191.20 -10.34 
-62.97 191.61 -9.61 
-62.99 191.16 -7.52 
-62.75 191.33 -10.26 
-62.28 191.62 -9.62 
-62.27 191.61 -8.62 
-62.28 191.09 -7.93 
-61.97 191.49 -12.30 
-61.76 191.39 -11.74 
-61.72 191.70 -10.69 
-61.51 191.12 -9.34 
-61.82 191.37 -8.92 
-61.89 191.66 -8.44 
-61.34 191.24 -11.82 
-61.33 191.32 -10.49 
-61.30 191.14 -9.83 
-61.29 191.33 -8.73 
-61.15 191.19 -8.48 
-60.08 191.48 -11.43 
-60.63 191.26 -11.17 
-60.47 191.11 -10.18 
-60.25 191.43 -9.76 
-60.51 191.54 -8.79 
-60.59 191.30 -8.31 
-60.18 191.21 -7.81 
-59.30 191.13 -11.69 
-59.66 191.52 -11.10 
-59.57 191.39 -10.26 
-59.40 191.40 -8.78 
-59.79 191.43 -7.92 
-59.21 191.40 -11.44 
-58.73 191.65 -11.05 
-58.79 191.46 -9.13 
-58.88 191.11 -8.21 
-57.94 191.50 -11.33 
-57.96 191.57 -10.65 
-58.40 191.51 -9.30 
-57.90 191.53 -8.15 
-58.06 191.51 -7.49 
-57.46 191.33 -10.84 
-57.77 191.65 -10.26 
-57.78 191.64 -9.19 
-57.48 191.63 -8.19 
-57.51 191.42 -7.27 
-67.06 191.84 -10.43 
-66.63 192.10 -11.84 
-66.45 191.91 -10.02 
-66.97 192.27 -9.96 
-66.14 192.10 -11.78 
-65.84 191.87 -11.03 
-65.93 191.90 -10.37 
-65.78 192.02 -9.67 
-65.26 192.29 -12.91 
-65.30 192.14 -11.57 
-65.45 191.87 -10.26 
-65.16 192.06 -9.81 
-65.48 191.97 -7.82 
-64.79 191.83 -11.46 
-64.38 191.82 -10.78 
-64.59 192.24 -9.81 
-63.68 192.11 -9.73 
-63.71 192.22 -8.02 
-63.63 192.05 -7.68 
-63.33 191.82 -11.81 
-62.86 192.12 -10.68 
-63.43 192.42 -9.42 
-62.86 192.25 -9.15 
-63.44 192.22 -8.34 
-62.86 191.79 -7.85 
-62.72 191.81 -11.08 
-62.75 192.03 -10.66 
-62.49 192.18 -9.34 
-62.55 192.44 -9.22 
-62.76 191.77 -7.94 
-61.95 192.21 -11.35 
-61.51 192.04 -10.34 
-61.97 191.84 -9.39 
-62.01 192.30 -9.10 
-61.21 191.95 -12.28 
-60.90 191.82 -10.62 
-61.01 192.38 -9.63 
-61.26 192.11 -9.08 
-60.73 192.15 -8.26 
-60.18 191.90 -11.18 
-60.41 192.21 -10.29 
-59.98 192.25 -8.23 
-59.77 191.72 -10.47 
-59.72 191.94 -9.72 
-59.49 192.04 -9.21 
-59.57 192.14 -8.47 
-59.24 192.10 -11.13 
-59.07 192.31 -10.31 
-58.93 192.17 -9.69 
-58.67 191.88 -9.25 
-58.66 191.93 -8.20 
-58.12 192.20 -11.36 
-58.44 192.46 -8.86 
-58.45 192.11 -8.38 
-58.12 192.24 -7.66 
-57.73 192.07 -11.20 
-57.74 192.33 -8.62 
-57.85 191.90 -8.22 
-57.64 191.77 -7.66 
-66.86 192.55 -11.59 
-65.87 192.57 -11.82 
-65.21 192.54 -11.41 
-65.38 192.47 -9.85 
-64.90 192.76 -8.65 
-65.27 193.06 -8.55 
-64.82 192.48 -12.66 
-64.28 192.85 -11.58 
-64.30 192.59 -10.72 
-64.24 192.50 -9.58 
-64.60 192.70 -8.72 
-64.85 193.01 -8.48 
-63.48 193.05 -10.54 
-63.96 192.85 -9.53 
-64.15 192.47 -9.29 
-63.55 193.09 -8.41 
-62.80 192.86 -10.33 
-63.01 192.89 -8.62 
-63.14 192.81 -8.38 
-62.27 192.74 -10.21 
-62.14 192.78 -9.53 
-62.17 192.71 -8.63 
-62.08 192.83 -8.50 
-61.59 193.03 -8.57 
-61.34 193.08 -11.14 
-61.34 192.48 -10.47 
-61.30 192.60 -8.72 
-60.83 192.95 -8.58 
-60.84 192.85 -7.61 
-60.51 192.80 -8.68 
-60.22 192.80 -8.56 
-60.48 192.51 -7.62 
-59.51 193.16 -11.38 
-59.53 192.92 -10.32 
-59.73 192.71 -9.70 
-59.51 192.91 -8.21 
-59.68 192.80 -7.56 
-59.24 192.57 -11.35 
-58.82 193.13 -9.92 
-58.87 192.84 -7.55 
-58.11 192.68 -11.63 
-58.12 192.50 -10.64 
-58.42 192.51 -9.86 
-58.11 192.96 -8.99 
-58.17 192.78 -8.06 
-57.49 192.53 -10.17 
-57.88 192.69 -8.02 
-65.02 193.31 -10.69 
-65.34 193.69 -8.40 
-64.54 193.77 -9.61 
-64.45 193.35 -9.26 
-64.51 193.40 -8.46 
-63.48 193.71 -9.55 
-63.50 193.53 -8.59 
-63.10 193.62 -8.90 
-63.12 193.28 -8.55 
-62.20 193.17 -11.12 
-62.66 193.35 -8.59 
-61.65 193.29 -10.20 
-61.87 193.41 -8.45 
-61.56 193.36 -7.53 
-61.36 193.41 -8.97 
-61.29 193.73 -7.91 
-60.60 193.54 -8.22 
-60.55 193.80 -7.86 
-59.29 193.23 -11.32 
-59.86 193.36 -10.42 
-58.89 193.80 -12.36 
-58.84 193.65 -10.51 
-58.98 193.72 -9.17 
-59.15 193.54 -8.14 
-58.16 193.85 -12.37 
-58.06 193.19 -9.55 
-58.48 193.63 -8.93 
-57.78 193.70 -12.75 
-57.79 193.73 -11.55 
-57.56 193.68 -8.88 
-57.65 193.33 -7.96 
-57.78 193.35 -7.79 
-64.97 194.27 -9.15 
-65.08 193.91 -8.23 
-64.10 194.03 -9.61 
-62.90 194.24 -8.43 
-61.34 194.12 -9.34 
-60.58 193.99 -8.91 
-60.64 194.24 -8.16 
-59.63 194.32 -11.48 
-59.94 194.30 -10.94 
-59.34 194.15 -10.22 
-59.86 194.37 -9.27 
-59.01 194.45 -11.91 
-58.79 193.89 -10.22 
-59.14 194.27 -9.80 
-59.21 194.37 -8.65 
-58.81 193.96 -8.40 
-58.57 193.92 -11.74 
-58.02 194.20 -11.20 
-58.33 194.33 -10.67 
-58.54 193.90 -8.67 
-58.27 194.04 -7.84 
-57.44 194.06 -11.80 
-57.60 193.89 -11.22 
-57.76 194.33 -9.39 
-60.43 195.15 -10.34 
-60.44 194.59 -9.36 
-59.90 194.96 -11.24 
-59.54 194.77 -10.26 
-59.80 194.61 -9.89 
-58.82 194.63 -10.94 
-57.97 194.80 -11.16 
-59.54 195.29 -10.93 
-79.09 198.73 -12.34 
-79.91 198.89 -12.38 
-78.95 199.26 -13.43 
-79.42 199.14 -12.31 
-78.87 198.98 -13.54 
-78.87 198.98 -13.20 
-78.88 198.98 -12.30 
-77.59 199.28 -12.26 
-77.27 199.38 -12.22 
-78.46 199.48 -12.25 
-77.78 199.66 -12.26 
-75.98 199.87 -12.14 
-75.75 200.13 -12.08 
-75.47 200.27 -12.86 
-75.54 200.25 -12.14 
-74.36 200.24 -12.18 
-74.19 200.59 -12.04 
-73.69 200.39 -13.02 
-73.69 200.39 -12.81 
-73.78 200.63 -11.98 
-72.68 200.42 -12.01 
-71.97 200.59 -12.84 
-71.96 200.59 -12.30 
-72.20 200.75 -11.99 
-71.86 200.83 -13.06 
-71.85 200.83 -12.32 
-71.85 200.83 -11.94 
-77.58 201.49 -9.58 
-78.02 201.54 -9.21 
-77.14 200.92 -9.05 
-76.30 201.34 -8.68 
-75.26 201.31 -9.16 
-71.98 200.90 -13.26 
-72.05 200.88 -12.71 
-72.35 201.02 -12.00 
-71.51 200.94 -11.90 
-62.12 201.33 -12.99 
-62.22 201.39 -12.27 
-62.19 201.27 -11.65 
-62.19 201.26 -10.72 
-62.18 201.26 -10.40 
-81.82 201.75 -11.29 
-81.99 201.73 -10.42 
-79.74 202.11 -10.42 
-79.29 201.82 -12.49 
-78.91 202.26 -10.83 
-78.56 201.97 -11.95 
-78.88 202.10 -10.88 
-78.03 202.15 -11.44 
-78.17 202.10 -10.05 
-78.15 202.24 -9.81 
-76.98 202.20 -11.80 
-77.30 202.06 -8.99 
-76.39 201.87 -8.65 
-75.63 202.08 -9.20 
-74.27 202.24 -10.96 
-73.93 201.85 -10.96 
-69.20 201.88 -11.77 
-68.69 202.01 -12.95 
-68.72 202.01 -12.56 
-68.41 202.10 -11.79 
-68.00 201.95 -11.67 
-67.61 201.84 -11.74 
-61.99 202.00 -12.92 
-61.99 201.71 -12.42 
-61.75 201.87 -11.89 
-61.71 201.86 -11.10 
-61.61 201.79 -10.28 
-61.57 201.79 -9.60 
-61.54 201.79 -8.92 
-61.52 201.78 -8.23 
-61.43 201.62 -7.88 
-61.37 201.64 -9.27 
-61.34 201.64 -8.37 
-61.33 201.64 -7.48 
-82.35 202.34 -10.94 
-81.77 202.34 -10.68 
-80.98 202.90 -13.30 
-80.06 202.37 -10.67 
-80.06 202.45 -9.85 
-79.12 202.69 -10.68 
-78.74 202.31 -12.04 
-78.67 202.56 -10.87 
-78.23 202.50 -9.92 
-77.87 202.70 -11.42 
-77.87 202.70 -11.42 
-77.71 202.65 -10.06 
-77.89 202.81 -9.94 
-77.60 202.54 -9.00 
-76.78 202.96 -8.04 
-76.55 202.95 -11.87 
-75.94 202.94 -11.79 
-75.86 202.30 -9.41 
-75.45 202.57 -8.73 
-74.85 202.72 -11.73 
-74.82 202.93 -10.94 
-74.56 202.68 -10.97 
-74.31 202.69 -10.68 
-73.56 202.81 -10.20 
-69.12 202.90 -12.17 
-65.70 202.54 -11.61 
-61.91 202.31 -12.96 
-61.93 202.30 -12.39 
-82.35 203.08 -10.40 
-81.32 203.38 -10.19 
-80.65 203.19 -10.12 
-79.99 203.05 -10.05 
-78.95 203.25 -10.67 
-78.45 203.01 -10.86 
-77.91 203.46 -11.22 
-77.59 203.49 -9.93 
-77.59 203.49 -9.93 
-77.98 203.64 -8.96 
-77.86 203.03 -8.23 
-77.28 203.45 -11.85 
-77.30 203.37 -8.88 
-76.65 203.54 -13.37 
-76.64 203.55 -12.33 
-76.62 203.22 -11.79 
-76.20 203.53 -9.91 
-76.73 203.04 -8.07 
-75.75 203.43 -11.62 
-75.45 203.44 -11.22 
-75.16 203.17 -11.74 
-75.04 203.25 -11.17 
-74.99 203.59 -10.68 
-75.03 203.59 -9.56 
-74.08 203.47 -11.71 
-74.44 203.35 -10.47 
-73.84 203.06 -10.19 
-73.88 203.06 -9.68 
-73.08 203.64 -9.79 
-65.18 203.01 -12.37 
-65.20 203.00 -12.08 
-64.44 203.16 -11.65 
-63.57 203.42 -11.65 
-63.03 203.61 -11.55 
-62.71 203.51 -11.45 
-61.56 203.55 -12.65 
-61.54 203.55 -11.78 
-61.33 203.38 -12.92 
-61.26 203.40 -11.51 
-81.12 204.22 -10.27 
-79.73 203.82 -9.24 
-78.97 204.29 -11.20 
-79.13 204.20 -10.52 
-79.36 204.06 -9.86 
-78.42 204.10 -10.76 
-78.60 204.08 -10.48 
-78.05 204.19 -12.53 
-77.54 204.04 -11.64 
-77.74 204.17 -11.14 
-78.01 203.92 -10.14 
-77.57 203.86 -9.91 
-77.89 203.68 -8.95 
-77.83 203.73 -8.21 
-77.12 204.21 -12.19 
-77.26 204.22 -11.71 
-77.39 203.72 -10.04 
-77.18 204.14 -8.01 
-76.77 204.24 -12.10 
-76.10 204.32 -9.81 
-76.35 204.03 -9.14 
-75.82 203.85 -11.69 
-75.54 204.28 -10.85 
-75.68 204.13 -10.37 
-75.95 203.97 -9.73 
-75.27 204.10 -10.97 
-75.03 204.00 -10.45 
-74.51 203.75 -10.23 
-74.15 203.68 -9.49 
-74.01 203.84 -9.10 
-73.77 203.70 -10.08 
-73.62 203.85 -9.92 
-71.46 204.32 -8.12 
-71.23 204.11 -7.73 
-70.82 204.15 -11.23 
-70.55 204.19 -8.56 
-70.15 204.01 -7.41 
-69.71 204.16 -9.98 
-67.10 204.00 -10.08 
-61.54 203.82 -12.58 
-61.54 203.82 -11.88 
-61.55 203.82 -11.41 
-61.05 203.95 -11.46 
-60.56 204.09 -11.39 
-81.94 204.83 -11.15 
-80.92 205.02 -11.22 
-80.51 204.53 -9.75 
-79.92 204.46 -9.84 
-79.45 205.07 -11.70 
-79.07 204.64 -10.19 
-78.70 204.44 -12.57 
-78.80 204.39 -11.88 
-78.23 204.45 -10.83 
-78.42 204.74 -10.47 
-78.36 204.79 -9.70 
-78.33 204.83 -8.93 
-77.79 204.51 -11.08 
-77.54 204.83 -9.22 
-77.69 204.73 -8.58 
-76.94 204.40 -12.24 
-77.08 204.82 -11.93 
-76.84 204.64 -11.15 
-76.95 204.58 -10.50 
-76.85 205.03 -9.74 
-77.32 205.00 -8.41 
-76.37 204.96 -12.44 
-76.18 204.40 -11.81 
-76.18 204.74 -11.03 
-76.41 204.77 -10.27 
-76.27 204.47 -9.80 
-76.67 204.54 -9.23 
-76.24 204.81 -8.61 
-75.82 204.68 -11.73 
-76.02 204.55 -11.07 
-75.49 204.85 -10.38 
-75.75 204.59 -9.14 
-75.28 204.39 -10.42 
-74.37 205.03 -11.93 
-73.77 204.67 -9.37 
-73.49 204.60 -8.98 
-72.87 204.99 -8.47 
-72.12 204.88 -11.28 
-72.16 204.74 -9.12 
-72.40 204.82 -8.39 
-71.85 204.90 -11.88 
-71.49 204.83 -11.23 
-71.45 204.48 -9.79 
-71.60 204.58 -9.06 
-71.82 204.37 -8.01 
-70.62 204.53 -13.20 
-70.64 204.44 -11.05 
-70.70 204.43 -9.65 
-71.12 204.67 -8.21 
-70.16 204.39 -7.40 
-69.22 204.50 -10.15 
-69.28 205.02 -9.71 
-69.42 204.72 -7.47 
-68.56 204.87 -10.53 
-68.84 205.04 -9.16 
-68.79 204.74 -6.69 
-68.15 204.92 -10.29 
-68.01 205.01 -8.39 
-67.43 204.56 -10.09 
-67.24 204.83 -9.69 
-67.63 204.82 -8.08 
-66.83 204.72 -9.06 
-66.38 204.85 -8.13 
-66.06 205.05 -8.72 
-66.16 204.38 -8.14 
-58.81 205.05 -11.22 
-58.15 205.04 -11.68 
-58.20 205.03 -11.16 
-81.92 205.58 -11.08 
-82.22 205.68 -10.28 
-81.32 205.18 -11.37 
-81.22 205.13 -9.79 
-80.33 205.10 -11.28 
-80.91 205.75 -9.31 
-80.05 205.16 -11.43 
-79.86 205.65 -11.27 
-80.02 205.72 -9.51 
-79.99 205.13 -9.16 
-78.97 205.75 -12.75 
-79.23 205.13 -11.68 
-79.23 205.37 -11.36 
-79.40 205.36 -8.80 
-78.59 205.31 -11.98 
-78.73 205.13 -11.13 
-78.27 205.77 -10.34 
-78.78 205.35 -8.94 
-77.53 205.44 -11.57 
-77.79 205.14 -10.99 
-77.81 205.47 -10.55 
-77.81 205.25 -9.40 
-77.96 205.13 -8.88 
-76.97 205.80 -12.29 
-77.00 205.76 -11.54 
-76.83 205.49 -11.19 
-76.86 205.45 -10.45 
-76.81 205.14 -9.90 
-76.92 205.72 -8.45 
-76.58 205.47 -12.44 
-76.44 205.57 -11.74 
-76.58 205.35 -10.81 
-76.68 205.19 -10.47 
-76.69 205.45 -9.73 
-76.08 205.29 -8.84 
-75.77 205.38 -11.69 
-75.82 205.65 -10.93 
-75.73 205.72 -10.24 
-75.00 205.63 -11.87 
-75.04 205.15 -10.41 
-74.98 205.26 -8.77 
-74.26 205.58 -11.92 
-74.28 205.10 -9.46 
-74.29 205.73 -7.87 
-73.70 205.21 -11.92 
-73.81 205.38 -8.16 
-73.09 205.45 -11.85 
-73.19 205.47 -7.74 
-72.17 205.34 -11.17 
-71.27 205.23 -11.27 
-71.74 205.20 -9.56 
-71.47 205.37 -7.40 
-70.57 205.71 -11.17 
-70.15 205.40 -8.26 
-70.02 205.39 -7.41 
-69.36 205.75 -9.93 
-69.54 205.23 -9.18 
-69.26 205.34 -7.91 
-69.15 205.21 -6.36 
-68.39 205.20 -10.85 
-68.91 205.38 -10.02 
-68.89 205.60 -9.73 
-68.78 205.60 -8.57 
-68.60 205.38 -6.90 
-68.08 205.49 -10.87 
-68.08 205.56 -10.47 
-67.85 205.43 -9.91 
-67.39 205.66 -10.89 
-67.58 205.59 -10.49 
-67.33 205.26 -9.66 
-67.24 205.47 -5.99 
-66.80 205.62 -11.64 
-66.42 205.61 -11.27 
-66.33 205.56 -9.07 
-66.45 205.41 -8.08 
-65.76 205.29 -8.11 
-66.20 205.75 -6.56 
-65.16 205.62 -8.79 
-81.90 206.45 -11.10 
-81.75 205.99 -9.93 
-81.29 206.26 -11.45 
-80.44 206.35 -11.03 
-79.64 206.21 -11.25 
-79.15 206.18 -11.29 
-79.29 206.39 -8.17 
-78.83 205.87 -11.98 
-78.66 206.18 -11.12 
-78.27 205.77 -10.34 
-77.52 206.10 -12.35 
-77.67 206.11 -11.79 
-77.91 205.96 -11.13 
-77.93 205.79 -10.36 
-77.82 205.89 -9.55 
-77.46 206.34 -12.93 
-77.30 206.15 -12.48 
-76.93 205.96 -11.87 
-76.96 206.11 -11.02 
-76.89 206.39 -10.62 
-76.88 206.21 -9.00 
-76.68 206.12 -11.61 
-76.65 206.39 -11.06 
-76.19 206.11 -10.08 
-76.76 206.05 -8.97 
-75.64 205.92 -11.69 
-75.40 206.19 -11.26 
-75.65 205.79 -9.54 
-75.58 205.95 -8.33 
-74.90 206.10 -11.60 
-75.13 206.18 -11.27 
-74.81 206.38 -10.39 
-75.35 206.13 -8.90 
-75.37 205.99 -8.36 
-74.22 205.85 -11.86 
-74.38 206.29 -10.34 
-74.50 205.96 -7.93 
-73.77 206.22 -11.71 
-73.80 206.27 -10.27 
-73.43 206.36 -9.87 
-73.18 206.25 -11.72 
-72.75 206.26 -7.77 
-72.24 205.81 -11.15 
-72.43 205.84 -7.76 
-70.49 205.81 -11.24 
-70.57 206.04 -7.40 
-71.01 205.91 -7.15 
-70.40 206.10 -11.13 
-69.77 206.09 -10.04 
-69.36 205.75 -9.93 
-69.24 205.94 -8.49 
-69.09 206.10 -7.83 
-68.60 206.04 -10.40 
-68.89 206.12 -9.97 
-68.92 206.20 -8.53 
-68.23 206.22 -11.23 
-67.91 206.15 -10.47 
-67.31 206.34 -11.64 
-67.14 206.19 -11.22 
-67.18 205.91 -9.77 
-67.16 206.03 -6.56 
-66.58 206.15 -11.31 
-66.76 206.34 -10.05 
-66.73 205.95 -8.68 
-66.37 205.94 -6.39 
-65.74 206.01 -8.85 
-81.96 207.10 -9.29 
-81.42 206.52 -8.94 
-80.96 207.04 -11.03 
-80.33 207.16 -10.03 
-80.34 206.79 -9.78 
-80.51 206.70 -8.90 
-79.86 206.84 -11.16 
-80.11 206.86 -9.10 
-79.49 206.59 -11.27 
-79.05 207.05 -10.54 
-79.55 206.89 -10.01 
-79.57 206.88 -8.85 
-78.46 206.60 -11.51 
-78.85 206.51 -8.10 
-77.60 206.71 -11.50 
-77.64 206.79 -11.19 
-77.50 206.70 -10.31 
-77.07 206.59 -12.36 
-76.97 206.59 -11.93 
-76.88 206.56 -11.23 
-77.40 206.49 -10.19 
-77.14 206.47 -9.15 
-77.14 206.48 -8.55 
-76.68 206.58 -12.59 
-76.74 207.01 -11.09 
-76.58 206.85 -10.37 
-76.59 206.97 -9.77 
-75.68 206.97 -10.54 
-75.67 207.13 -9.46 
-75.06 206.54 -10.47 
-75.04 206.86 -10.00 
-74.55 206.82 -11.47 
-74.31 207.10 -9.98 
-73.71 206.63 -11.51 
-73.38 206.67 -10.51 
-73.70 206.82 -9.18 
-72.61 206.97 -11.05 
-72.89 206.62 -10.22 
-72.14 207.00 -11.29 
-71.39 207.12 -11.24 
-71.23 206.86 -8.82 
-70.57 206.70 -11.02 
-70.60 206.81 -7.34 
-70.67 206.70 -7.17 
-70.99 206.68 -6.15 
-70.28 206.63 -11.06 
-70.13 206.90 -9.50 
-70.28 206.76 -9.15 
-69.59 206.63 -11.43 
-69.45 206.95 -11.39 
-69.17 206.76 -10.12 
-69.18 207.01 -8.97 
-69.60 206.73 -8.34 
-68.79 206.88 -10.21 
-68.87 207.13 -9.78 
-68.63 207.03 -9.30 
-68.13 207.13 -12.50 
-67.81 207.00 -11.63 
-68.07 206.69 -11.22 
-68.24 206.73 -10.46 
-67.74 207.07 -8.96 
-67.29 206.88 -11.54 
-67.34 206.69 -11.23 
-67.13 207.10 -10.05 
-67.14 206.66 -9.80 
-66.87 206.49 -11.30 
-66.79 206.82 -9.71 
-66.46 207.03 -8.77 
-66.01 206.68 -11.29 
-66.16 206.48 -9.66 
-65.64 206.57 -8.70 
-65.69 206.53 -8.52 
-61.76 206.94 -7.87 
-81.79 207.25 -10.17 
-81.48 207.52 -10.05 
-81.18 207.67 -10.00 
-80.67 207.64 -11.19 
-80.69 207.29 -10.03 
-80.21 207.20 -10.86 
-79.70 207.81 -10.33 
-78.94 207.71 -11.05 
-79.41 207.70 -10.32 
-78.82 207.23 -10.96 
-78.40 207.52 -9.76 
-78.53 207.66 -9.23 
-77.69 207.23 -10.23 
-77.64 207.24 -9.14 
-77.22 207.32 -10.06 
-76.96 207.65 -9.66 
-77.28 207.28 -8.56 
-76.47 207.60 -9.25 
-75.58 207.38 -9.84 
-75.24 207.43 -11.46 
-75.23 207.46 -9.69 
-74.62 207.38 -9.28 
-74.22 207.40 -8.54 
-73.34 207.55 -8.09 
-72.84 207.51 -10.92 
-73.14 207.38 -8.24 
-72.36 207.19 -10.92 
-72.08 207.75 -10.44 
-71.36 207.43 -10.99 
-71.56 207.79 -10.39 
-71.41 207.61 -9.61 
-70.84 207.25 -11.48 
-70.73 207.54 -10.98 
-70.51 207.19 -9.48 
-70.50 207.38 -6.50 
-69.15 207.86 -11.44 
-69.11 207.84 -11.14 
-69.21 207.63 -10.37 
-69.32 207.63 -9.80 
-69.24 207.42 -9.19 
-69.68 207.41 -8.31 
-68.79 207.79 -12.17 
-68.75 207.81 -11.74 
-68.87 207.65 -10.94 
-68.96 207.59 -10.35 
-68.95 207.56 -9.91 
-68.92 207.45 -9.26 
-69.03 207.53 -8.43 
-67.78 207.46 -11.70 
-68.16 207.52 -11.05 
-67.92 207.83 -9.98 
-67.75 207.63 -8.88 
-67.48 207.33 -11.89 
-67.02 207.85 -11.19 
-67.39 207.17 -10.03 
-67.50 207.23 -9.77 
-66.78 207.86 -11.48 
-66.64 207.23 -11.21 
-66.91 207.22 -8.81 
-66.97 207.60 -8.60 
-66.80 207.69 -7.74 
-66.13 207.71 -11.42 
-66.01 207.42 -10.92 
-65.42 207.32 -10.88 
-65.51 207.83 -10.27 
-64.64 207.21 -10.43 
-62.32 207.86 -10.28 
-62.24 207.26 -7.43 
-61.88 207.56 -7.98 
-61.88 207.69 -7.49 
-61.39 207.17 -5.94 
-60.85 207.30 -6.67 
-61.08 207.44 -6.42 
-60.35 207.64 -8.97 
-60.07 207.72 -6.45 
-59.97 207.74 -8.66 
-58.88 207.84 -9.77 
-57.78 207.65 -8.74 
-81.18 208.15 -11.17 
-81.01 208.43 -10.66 
-81.16 208.30 -8.90 
-80.37 208.45 -10.77 
-80.59 208.05 -9.71 
-80.48 208.18 -8.20 
-79.71 208.12 -11.03 
-79.91 208.15 -10.28 
-79.69 208.26 -8.83 
-78.61 208.26 -10.75 
-78.62 208.16 -10.39 
-78.20 208.12 -9.63 
-77.86 208.12 -10.65 
-77.48 208.51 -9.79 
-77.79 207.98 -8.72 
-77.30 208.43 -10.96 
-76.95 208.29 -8.47 
-76.02 208.16 -9.26 
-74.79 208.41 -11.79 
-73.33 207.89 -10.91 
-71.47 208.30 -9.90 
-71.63 208.31 -9.19 
-70.58 208.36 -10.34 
-70.94 208.29 -9.09 
-70.38 208.03 -10.94 
-70.28 208.49 -10.65 
-69.79 207.99 -8.97 
-69.10 208.37 -12.24 
-69.15 208.38 -11.72 
-69.18 208.35 -11.31 
-69.48 208.21 -10.11 
-69.47 208.22 -9.59 
-69.30 207.93 -8.93 
-69.17 208.07 -8.19 
-69.05 208.41 -12.31 
-68.93 208.28 -11.78 
-68.57 208.42 -11.02 
-68.39 208.43 -10.69 
-68.55 208.36 -8.75 
-68.32 208.54 -11.43 
-68.08 208.31 -10.83 
-68.30 208.26 -10.24 
-67.79 208.38 -9.73 
-67.94 208.02 -9.24 
-67.48 208.32 -10.78 
-67.47 207.88 -9.37 
-67.60 208.34 -9.04 
-67.46 208.15 -7.94 
-67.36 208.22 -6.90 
-66.71 208.18 -11.52 
-66.39 208.05 -10.85 
-66.85 208.35 -10.37 
-65.94 208.01 -10.88 
-65.95 208.23 -10.29 
-65.53 208.05 -10.78 
-65.29 208.20 -10.23 
-62.57 208.18 -10.33 
-62.05 208.37 -10.40 
-61.40 207.99 -7.49 
-61.92 208.08 -7.09 
-60.77 208.00 -6.67 
-61.10 208.05 -6.41 
-60.22 208.07 -8.78 
-60.57 208.16 -8.29 
-60.61 207.98 -6.83 
-59.44 208.07 -9.56 
-59.85 208.04 -8.94 
-59.89 208.40 -7.02 
-59.53 208.01 -5.96 
-58.69 208.42 -8.92 
-58.28 208.57 -9.68 
-58.00 208.18 -8.72 
-57.89 208.45 -7.92 
-57.57 208.13 -8.14 
-81.47 208.64 -10.03 
-81.00 209.00 -7.80 
-80.67 209.16 -8.91 
-80.78 208.70 -7.71 
-79.81 209.03 -8.72 
-80.06 208.87 -7.69 
-78.89 208.64 -9.15 
-78.52 208.98 -8.94 
-78.41 209.21 -8.38 
-77.74 208.92 -12.28 
-77.81 209.14 -8.92 
-77.46 208.67 -10.89 
-77.33 208.94 -9.67 
-77.30 208.99 -8.58 
-76.48 208.94 -9.21 
-75.66 208.84 -11.34 
-74.93 208.63 -11.86 
-74.48 208.95 -12.08 
-70.69 208.69 -10.36 
-70.67 209.11 -9.67 
-69.81 208.63 -10.95 
-69.96 208.65 -10.08 
-69.85 209.19 -9.62 
-69.38 208.62 -11.90 
-69.48 208.67 -11.17 
-69.69 208.82 -10.56 
-69.62 209.15 -8.88 
-69.36 208.85 -8.17 
-68.86 208.94 -12.28 
-68.86 209.03 -11.97 
-68.82 209.02 -11.03 
-68.94 209.25 -10.38 
-68.84 209.23 -9.76 
-68.92 209.23 -9.24 
-68.35 208.75 -11.67 
-67.98 208.69 -10.04 
-68.33 209.02 -9.40 
-67.44 209.05 -11.40 
-66.70 209.10 -11.15 
-65.94 208.69 -10.02 
-65.25 208.61 -10.09 
-62.86 209.10 -10.14 
-61.86 208.75 -10.23 
-61.55 208.69 -7.12 
-60.76 208.69 -7.54 
-61.04 208.66 -6.40 
-59.99 208.66 -8.78 
-60.36 208.70 -8.43 
-60.63 208.80 -6.83 
-59.44 209.23 -9.54 
-59.75 209.14 -8.97 
-59.54 208.68 -5.95 
-58.96 208.72 -10.17 
-58.78 208.62 -9.58 
-58.73 209.06 -8.74 
-59.02 208.88 -8.07 
-58.23 208.83 -9.91 
-58.06 209.15 -8.89 
-57.86 209.16 -10.30 
-57.79 208.95 -9.01 
-57.70 208.91 -7.93 
-80.64 209.95 -8.66 
-80.83 209.35 -7.97 
-80.21 209.60 -7.99 
-78.05 209.63 -9.33 
-74.90 209.33 -11.69 
-74.44 209.32 -12.06 
-70.87 209.88 -10.36 
-70.36 209.63 -10.39 
-69.21 209.83 -11.34 
-68.72 209.43 -10.84 
-68.96 209.32 -10.52 
-68.57 209.83 -9.83 
-68.86 209.64 -9.21 
-67.92 209.86 -11.46 
-67.72 209.74 -10.79 
-68.26 209.35 -10.70 
-68.17 209.87 -9.71 
-67.61 209.73 -11.29 
-67.11 209.82 -10.55 
-63.69 209.93 -10.34 
-63.15 209.70 -10.63 
-62.31 209.89 -10.18 
-62.64 209.71 -8.14 
-61.97 209.42 -10.43 
-61.63 209.32 -7.10 
-60.77 209.59 -10.79 
-60.99 209.63 -10.60 
-60.17 209.29 -8.98 
-60.26 209.64 -8.16 
-59.38 209.70 -10.09 
-59.55 209.82 -9.52 
-59.82 209.66 -9.00 
-58.75 209.88 -11.09 
-58.81 209.56 -9.77 
-58.34 209.44 -10.92 
-58.31 209.75 -10.28 
-58.52 209.74 -8.85 
-57.79 209.61 -10.56 
-57.57 209.37 -7.93 
-76.42 210.31 -12.53 
-69.61 210.30 -9.34 
-68.51 210.41 -9.80 
-67.05 210.02 -11.19 
-67.51 210.04 -10.54 
-66.81 210.13 -11.29 
-64.34 210.20 -10.36 
-63.92 210.02 -10.39 
-62.97 210.13 -10.41 
-62.39 210.34 -10.75 
-62.33 210.33 -10.53 
-61.99 210.39 -10.53 
-61.73 210.02 -8.23 
-60.89 209.97 -10.65 
-61.32 210.40 -8.26 
-60.33 210.45 -9.34 
-60.43 210.33 -8.89 
-59.73 210.45 -11.58 
-59.29 210.37 -11.17 
-59.40 210.13 -9.60 
-59.09 210.40 -10.98 
-58.93 210.37 -10.26 
-58.59 210.27 -8.98 
-58.40 210.33 -10.54 
-57.67 210.12 -10.44 
