# .PCD v0.7 - Point Cloud Data file format
VERSION 0.7
FIELDS x y z
SIZE 4 4 4
TYPE F F F
COUNT 1 1 1
WIDTH 827
HEIGHT 1
VIEWPOINT 0 0 0 1 0 0 0
POINTS 827
DATA ascii
-56.94 187.47 -11.93 
-56.21 187.63 -11.60 
-57.22 188.13 -12.38 
-56.76 188.12 -11.82 
-57.22 188.16 -10.82 
-56.45 188.39 -12.23 
-56.24 188.39 -11.82 
-56.05 188.53 -10.46 
-55.77 188.37 -11.80 
-55.02 188.56 -11.14 
-57.18 189.32 -12.27 
-57.36 189.14 -11.68 
-57.24 188.67 -11.43 
-57.19 189.34 -10.49 
-56.61 189.14 -11.77 
-56.52 188.98 -11.16 
-55.77 189.34 -12.04 
-55.47 188.94 -10.52 
-56.59 189.72 -12.50 
-56.81 190.01 -11.77 
-57.00 189.66 -11.27 
-56.34 189.85 -12.24 
-56.42 189.75 -11.77 
-56.28 189.82 -11.30 
-56.30 190.00 -8.23 
-55.35 189.72 -12.01 
-55.82 189.84 -10.92 
-55.48 189.71 -10.15 
-54.94 189.95 -11.97 
-54.53 189.92 -11.96 
-49.56 189.88 -12.04 
-49.45 189.72 -11.47 
-56.87 190.16 -11.54 
-56.85 190.29 -11.08 
-56.90 190.55 -10.60 
-56.83 190.32 -8.24 
-57.17 190.52 -7.88 
-56.43 190.05 -12.90 
-56.59 190.07 -11.90 
-56.07 190.23 -11.05 
-56.66 190.45 -10.61 
-55.69 190.48 -11.15 
-55.97 190.38 -10.21 
-55.94 190.33 -8.05 
-55.26 190.17 -12.22 
-54.75 190.35 -10.26 
-53.50 190.51 -11.57 
-53.45 190.51 -10.92 
-53.50 190.41 -9.96 
-52.62 190.09 -10.71 
-51.69 190.64 -11.09 
-50.69 190.17 -11.54 
-50.90 190.08 -11.37 
-50.23 190.62 -11.71 
-49.99 190.39 -11.52 
-49.14 190.27 -11.73 
-49.36 190.66 -11.46 
-49.16 190.35 -10.40 
-47.91 190.39 -10.64 
-45.41 190.44 -11.20 
-45.23 190.54 -11.19 
-45.42 190.36 -10.61 
-56.80 191.10 -11.15 
-56.88 190.84 -10.22 
-56.72 190.96 -8.95 
-57.04 190.97 -8.07 
-57.20 191.44 -7.78 
-56.42 191.11 -11.61 
-56.16 191.35 -11.08 
-56.50 191.19 -10.67 
-56.27 191.21 -10.06 
-56.25 191.24 -9.00 
-56.37 191.25 -8.01 
-56.18 191.26 -7.95 
-55.67 190.95 -11.62 
-55.36 191.02 -11.36 
-55.61 191.15 -10.19 
-55.69 191.34 -9.68 
-55.47 191.26 -9.09 
-55.60 191.32 -8.00 
-54.75 191.35 -11.34 
-54.99 191.42 -8.99 
-54.29 191.26 -11.21 
-54.14 191.29 -10.61 
-54.23 190.95 -9.69 
-53.61 191.08 -11.80 
-52.57 191.04 -11.49 
-52.26 191.37 -11.62 
-52.31 191.25 -11.19 
-51.45 191.38 -11.08 
-51.50 190.91 -10.79 
-50.62 191.30 -11.75 
-50.82 191.01 -10.99 
-50.16 191.37 -11.35 
-49.38 190.92 -11.33 
-49.38 190.92 -11.33 
-49.27 190.99 -10.41 
-49.16 191.13 -10.02 
-48.87 191.11 -10.97 
-48.70 191.14 -10.43 
-47.80 191.20 -11.22 
-47.30 191.29 -11.29 
-45.04 191.08 -12.24 
-45.08 191.15 -11.90 
-44.88 190.99 -11.22 
-44.92 191.30 -10.14 
-44.77 190.86 -10.81 
-44.24 191.29 -10.31 
-57.37 192.08 -11.68 
-56.80 191.83 -11.33 
-57.04 191.47 -10.35 
-56.86 191.78 -9.97 
-56.89 191.87 -9.08 
-56.87 191.50 -8.28 
-57.20 191.44 -7.78 
-56.42 191.55 -11.29 
-56.46 191.96 -10.39 
-56.23 191.98 -9.27 
-56.36 191.57 -8.07 
-56.60 191.85 -7.81 
-55.56 191.88 -10.14 
-55.77 191.80 -9.01 
-55.57 191.79 -8.16 
-55.39 192.00 -7.67 
-54.74 191.65 -12.04 
-54.78 191.67 -11.07 
-54.81 191.77 -10.57 
-54.84 191.89 -9.89 
-54.84 191.47 -8.87 
-54.61 191.48 -8.33 
-54.59 192.02 -7.66 
-54.18 191.75 -12.24 
-54.18 191.75 -12.24 
-54.10 191.53 -11.36 
-54.13 191.79 -10.34 
-54.24 191.86 -9.76 
-53.95 191.92 -7.57 
-53.51 192.06 -11.40 
-53.81 191.95 -10.32 
-53.50 191.57 -9.78 
-53.63 191.94 -8.78 
-53.58 192.04 -7.75 
-52.55 192.11 -11.66 
-52.61 192.02 -10.71 
-52.58 191.47 -9.86 
-52.79 191.86 -8.74 
-51.99 191.47 -11.62 
-52.01 191.57 -11.10 
-52.41 191.74 -10.51 
-51.49 191.64 -11.63 
-51.34 191.51 -11.17 
-50.84 191.76 -11.56 
-50.57 191.89 -11.25 
-50.49 191.54 -10.47 
-50.88 192.07 -8.59 
-49.81 191.78 -11.70 
-49.72 191.77 -11.48 
-49.30 191.52 -11.13 
-49.37 191.45 -9.61 
-48.89 191.54 -11.56 
-48.74 191.55 -11.24 
-48.02 192.05 -10.35 
-47.59 191.51 -10.09 
-47.97 191.97 -8.90 
-48.03 192.08 -8.39 
-47.51 191.49 -11.43 
-46.39 191.53 -11.81 
-46.60 191.89 -10.68 
-45.85 191.91 -11.77 
-45.59 191.99 -11.29 
-45.44 192.00 -11.75 
-44.86 192.06 -10.67 
-44.84 191.61 -9.80 
-44.61 191.82 -11.94 
-44.69 191.75 -10.66 
-44.69 191.75 -10.66 
-44.16 191.85 -9.83 
-44.35 191.78 -9.20 
-43.43 192.13 -11.17 
-43.52 192.05 -9.89 
-44.08 191.66 -8.81 
-43.22 191.98 -11.16 
-42.11 191.99 -9.25 
-41.58 191.63 -9.25 
-41.23 191.77 -8.84 
-57.22 192.38 -11.37 
-57.33 192.41 -10.03 
-57.30 192.45 -9.03 
-56.93 192.65 -8.15 
-57.00 192.41 -7.60 
-56.26 192.44 -11.28 
-56.26 192.80 -10.20 
-56.50 192.74 -9.67 
-56.42 192.51 -8.84 
-56.45 192.44 -7.83 
-55.48 192.57 -11.85 
-55.39 192.70 -10.81 
-55.40 192.24 -10.68 
-55.41 192.28 -8.96 
-55.27 192.69 -11.95 
-55.21 192.62 -11.04 
-54.75 192.35 -10.71 
-54.90 192.11 -9.70 
-54.60 192.75 -9.17 
-55.05 192.60 -8.57 
-54.94 192.35 -7.69 
-54.22 192.59 -11.74 
-54.24 192.78 -10.99 
-54.57 192.42 -9.64 
-54.39 192.43 -9.00 
-54.58 192.61 -8.48 
-54.16 192.21 -7.69 
-53.04 192.45 -11.67 
-53.75 192.57 -10.64 
-53.56 192.51 -9.69 
-53.25 192.80 -8.60 
-53.04 192.45 -11.67 
-52.82 192.50 -11.03 
-53.12 192.71 -9.67 
-52.32 192.58 -11.44 
-52.46 192.76 -9.47 
-52.47 192.59 -8.61 
-50.48 192.47 -12.89 
-50.57 192.26 -12.19 
-50.44 192.36 -11.42 
-50.47 192.64 -9.19 
-50.38 192.57 -12.48 
-50.10 192.21 -11.85 
-50.13 192.21 -10.96 
-49.89 192.19 -9.55 
-50.38 192.74 -9.13 
-50.00 192.48 -8.55 
-49.08 192.15 -11.14 
-49.65 192.59 -10.25 
-49.52 192.81 -9.72 
-49.04 192.83 -9.07 
-49.12 192.61 -8.50 
-48.58 192.78 -11.09 
-48.44 192.72 -9.72 
-48.78 192.75 -9.17 
-48.63 192.64 -8.23 
-47.70 192.68 -11.51 
-48.18 192.66 -10.16 
-48.29 192.50 -8.49 
-46.26 192.51 -11.14 
-46.74 192.60 -10.40 
-45.64 192.65 -11.60 
-45.90 192.65 -11.33 
-45.79 192.68 -10.72 
-44.87 192.68 -11.06 
-44.96 192.44 -9.16 
-44.51 192.40 -11.51 
-44.63 192.33 -11.06 
-44.26 192.50 -10.40 
-44.52 192.48 -9.59 
-44.50 192.25 -9.30 
-43.84 192.84 -11.88 
-43.90 192.38 -11.38 
-43.71 192.17 -8.61 
-42.96 192.15 -8.65 
-42.62 192.69 -8.82 
-41.63 192.78 -9.30 
-41.46 192.15 -8.64 
-57.09 192.85 -12.15 
-57.24 193.31 -11.18 
-57.26 193.08 -10.16 
-57.08 192.98 -9.64 
-56.88 193.30 -8.85 
-57.22 193.41 -8.48 
-57.08 193.03 -7.85 
-56.09 193.13 -11.82 
-55.91 193.11 -11.29 
-56.31 193.36 -10.18 
-56.26 193.00 -9.68 
-56.64 192.97 -9.16 
-56.46 192.87 -8.56 
-55.91 193.11 -11.29 
-55.43 193.28 -10.15 
-55.71 193.13 -9.74 
-55.67 193.22 -8.71 
-55.96 193.23 -8.53 
-55.80 193.18 -7.95 
-54.96 192.88 -11.74 
-55.21 193.43 -11.39 
-54.84 193.11 -10.62 
-55.15 193.19 -8.54 
-54.01 193.16 -10.60 
-54.20 192.95 -9.11 
-54.04 192.89 -8.60 
-53.31 193.10 -11.27 
-53.76 193.09 -9.13 
-53.70 192.85 -8.41 
-52.96 192.99 -12.29 
-52.95 193.06 -11.24 
-52.83 193.05 -10.38 
-52.99 193.42 -9.44 
-52.84 192.96 -8.36 
-52.26 193.09 -11.02 
-52.08 193.34 -10.46 
-52.24 193.47 -8.40 
-51.89 193.12 -7.86 
-51.16 193.42 -11.57 
-51.09 192.88 -9.64 
-51.20 192.89 -8.79 
-51.21 192.92 -8.50 
-50.44 192.93 -11.59 
-50.83 193.47 -11.29 
-50.41 193.30 -10.16 
-50.83 193.50 -10.10 
-51.05 193.14 -9.29 
-50.82 193.42 -8.62 
-49.77 193.44 -11.55 
-50.08 193.52 -11.28 
-49.77 192.86 -10.28 
-50.29 193.38 -8.41 
-50.28 193.37 -7.35 
-49.34 193.21 -11.53 
-49.54 193.37 -9.08 
-49.51 193.04 -8.44 
-49.02 192.91 -7.40 
-49.33 193.07 -7.15 
-48.31 193.47 -11.08 
-48.62 193.53 -9.29 
-48.74 192.93 -8.07 
-48.76 193.22 -6.97 
-48.20 192.91 -11.57 
-48.22 193.46 -10.39 
-48.20 193.46 -7.12 
-47.16 193.08 -10.91 
-47.40 193.16 -10.38 
-46.31 193.17 -11.51 
-46.51 193.02 -10.90 
-46.04 192.89 -11.02 
-45.47 192.99 -11.53 
-44.46 193.06 -11.91 
-44.39 193.23 -10.48 
-43.60 192.97 -10.03 
-43.59 193.41 -9.18 
-43.13 193.27 -8.47 
-43.12 193.29 -7.87 
-42.12 193.42 -10.90 
-42.24 193.36 -10.42 
-42.60 193.08 -7.99 
-41.92 192.95 -9.39 
-40.81 192.87 -8.87 
-41.11 193.54 -7.97 
-56.95 194.04 -11.52 
-56.76 193.76 -11.38 
-57.23 193.60 -10.22 
-57.34 193.62 -10.10 
-56.15 193.78 -12.58 
-56.39 193.65 -11.60 
-56.68 194.10 -9.32 
-56.69 194.03 -8.32 
-55.55 193.82 -11.96 
-55.44 194.02 -11.13 
-55.42 193.73 -9.03 
-55.41 194.04 -7.90 
-54.69 193.90 -9.42 
-53.75 194.02 -11.15 
-53.65 193.98 -9.66 
-53.68 193.90 -8.35 
-52.77 193.76 -10.48 
-52.88 193.92 -9.02 
-52.77 193.77 -8.56 
-51.95 193.83 -10.50 
-52.09 193.76 -10.06 
-51.40 193.99 -11.16 
-51.65 194.16 -10.76 
-51.74 193.83 -9.58 
-51.50 194.10 -8.92 
-50.54 193.79 -11.62 
-50.99 194.18 -11.01 
-50.87 193.87 -10.12 
-51.04 194.13 -9.73 
-51.04 194.00 -9.39 
-50.78 193.70 -8.31 
-50.78 193.90 -7.07 
-49.72 194.11 -11.78 
-49.98 194.17 -11.10 
-49.91 193.99 -10.19 
-50.20 193.90 -9.40 
-50.17 193.95 -8.14 
-49.65 193.85 -10.46 
-49.20 194.08 -9.84 
-49.43 193.88 -9.44 
-48.42 193.55 -11.33 
-48.72 194.03 -10.42 
-48.83 193.89 -9.14 
-48.73 193.59 -6.71 
-48.88 194.02 -6.56 
-47.68 193.73 -11.51 
-47.72 194.12 -11.26 
-48.12 194.01 -10.13 
-48.18 193.56 -7.22 
-47.27 193.89 -11.18 
-45.08 194.22 -10.06 
-44.24 194.09 -12.09 
-44.32 193.92 -10.75 
-44.11 193.79 -9.07 
-44.12 194.15 -7.05 
-43.74 194.01 -12.07 
-43.45 193.77 -10.81 
-43.87 194.00 -10.74 
-43.68 193.90 -9.28 
-43.00 193.87 -11.20 
-43.21 193.69 -10.70 
-42.73 194.02 -10.07 
-43.09 193.77 -9.04 
-43.03 194.04 -8.54 
-42.84 193.87 -7.00 
-43.09 194.18 -6.53 
-42.44 193.73 -11.09 
-42.27 193.64 -10.43 
-42.17 194.10 -9.86 
-42.17 194.20 -9.03 
-42.37 193.73 -8.22 
-42.05 193.87 -7.01 
-42.20 194.20 -6.06 
-41.40 194.08 -10.74 
-41.67 194.22 -9.91 
-41.37 194.22 -8.89 
-41.53 194.23 -8.61 
-41.61 194.05 -7.57 
-40.68 193.71 -9.49 
-41.20 194.12 -8.95 
-40.49 194.20 -10.01 
-39.99 193.61 -9.06 
-40.35 193.89 -8.57 
-57.31 194.24 -11.88 
-57.08 194.49 -9.80 
-56.62 194.46 -10.29 
-56.60 194.76 -9.85 
-56.08 194.40 -8.31 
-54.35 194.68 -10.40 
-53.50 194.24 -11.55 
-53.79 194.37 -10.41 
-53.77 194.40 -9.35 
-53.15 194.70 -9.43 
-52.93 194.38 -9.34 
-51.85 194.35 -11.49 
-52.34 194.67 -10.74 
-52.22 194.69 -9.51 
-51.84 194.73 -9.31 
-51.30 194.82 -11.77 
-51.13 194.82 -11.40 
-51.46 194.60 -9.54 
-51.15 194.70 -9.32 
-51.28 194.77 -7.41 
-50.77 194.52 -10.02 
-50.77 194.52 -10.02 
-50.97 194.27 -7.20 
-50.25 194.85 -11.39 
-50.05 194.77 -10.36 
-50.26 194.71 -7.14 
-49.68 194.77 -10.94 
-49.48 194.72 -10.69 
-49.37 194.68 -9.51 
-49.36 194.80 -7.09 
-48.51 194.82 -12.48 
-48.42 194.42 -10.89 
-48.32 194.67 -10.35 
-47.74 194.34 -10.36 
-47.92 194.44 -9.74 
-48.27 194.72 -7.05 
-47.41 194.76 -10.32 
-46.75 194.43 -11.10 
-46.80 194.47 -10.32 
-46.45 194.84 -9.74 
-46.21 194.83 -7.93 
-45.76 194.65 -10.84 
-46.12 194.64 -10.77 
-46.13 194.88 -10.03 
-46.16 194.35 -8.96 
-45.52 194.80 -8.13 
-45.10 194.51 -11.54 
-45.28 194.80 -10.36 
-45.03 194.66 -9.81 
-44.97 194.93 -7.83 
-44.66 194.89 -11.89 
-44.77 194.40 -10.67 
-44.20 194.25 -9.81 
-44.46 194.73 -9.16 
-43.61 194.63 -11.53 
-43.71 194.56 -11.05 
-43.59 194.68 -10.39 
-44.04 194.27 -9.99 
-43.95 194.39 -9.11 
-43.63 194.75 -8.72 
-43.94 194.93 -7.77 
-43.81 194.28 -6.96 
-42.95 194.50 -11.42 
-42.96 194.58 -10.70 
-42.90 194.24 -9.78 
-43.32 194.93 -8.07 
-42.90 194.81 -7.83 
-43.11 194.63 -6.01 
-42.57 194.89 -10.42 
-42.31 194.73 -9.93 
-42.36 194.92 -9.09 
-42.63 194.53 -6.43 
-41.68 194.74 -9.92 
-40.80 194.33 -9.81 
-40.47 194.35 -8.97 
-54.04 195.01 -10.65 
-52.79 195.18 -10.30 
-52.60 194.95 -9.28 
-51.33 195.22 -11.15 
-51.14 195.18 -10.17 
-51.14 195.25 -10.02 
-51.38 195.02 -9.05 
-51.06 195.09 -10.29 
-50.84 195.10 -9.99 
-51.01 195.26 -9.18 
-49.99 195.13 -11.40 
-50.15 195.27 -10.31 
-50.34 194.98 -9.82 
-49.46 194.96 -9.89 
-49.46 195.18 -6.78 
-47.15 195.51 -10.37 
-46.69 195.57 -11.29 
-46.62 195.55 -9.51 
-46.40 195.18 -7.13 
-46.03 195.42 -11.07 
-45.84 195.45 -10.42 
-45.78 195.57 -10.06 
-45.64 195.17 -9.12 
-45.85 195.53 -8.01 
-45.62 195.48 -7.82 
-44.91 195.07 -12.10 
-45.35 195.32 -10.96 
-45.44 195.53 -10.72 
-45.11 194.99 -10.05 
-44.87 195.11 -9.02 
-45.12 195.19 -8.66 
-44.71 195.25 -11.51 
-44.77 195.61 -11.04 
-44.41 195.28 -10.45 
-44.14 195.31 -8.83 
-44.52 195.31 -8.52 
-44.19 195.45 -7.44 
-43.51 195.16 -11.52 
-43.79 195.13 -11.25 
-43.63 195.08 -10.58 
-43.72 195.47 -8.92 
-43.61 195.25 -8.65 
-43.88 195.10 -7.45 
-43.88 195.62 -6.58 
-43.21 195.01 -11.83 
-43.08 195.01 -10.59 
-43.37 195.50 -9.43 
-43.05 195.48 -8.92 
-43.39 195.21 -8.57 
-42.71 195.04 -7.91 
-43.23 195.31 -7.08 
-42.45 195.28 -11.72 
-42.10 195.52 -11.44 
-42.08 195.10 -10.48 
-42.31 195.49 -10.10 
-42.36 195.20 -8.95 
-42.29 195.35 -8.33 
-42.51 195.55 -7.56 
-42.23 195.46 -5.69 
-41.93 195.30 -11.52 
-41.99 195.37 -11.48 
-41.42 195.27 -10.46 
-41.93 195.27 -8.95 
-41.96 195.32 -8.64 
-41.66 194.98 -7.59 
-41.53 195.61 -6.97 
-40.82 195.31 -9.51 
-40.76 195.41 -8.70 
-41.27 195.09 -8.57 
-40.44 195.51 -8.06 
-46.95 196.32 -10.55 
-46.40 195.91 -11.15 
-46.60 196.30 -10.44 
-46.38 196.16 -9.54 
-45.89 195.97 -10.57 
-45.91 196.13 -9.75 
-45.22 196.06 -11.55 
-44.82 196.18 -11.28 
-45.08 196.09 -10.69 
-45.23 195.69 -9.88 
-44.89 195.86 -8.20 
-45.17 195.76 -7.82 
-44.31 195.94 -11.50 
-44.31 195.94 -11.50 
-44.59 196.06 -10.45 
-44.42 196.07 -9.96 
-44.54 195.86 -9.14 
-44.32 196.01 -8.69 
-44.20 195.87 -8.00 
-43.96 196.21 -11.83 
-43.80 196.33 -11.00 
-43.80 195.64 -10.07 
-44.08 196.04 -8.65 
-43.66 196.28 -7.55 
-43.74 195.72 -7.06 
-43.78 195.91 -6.25 
-43.59 195.77 -5.78 
-43.15 195.99 -11.64 
-43.13 195.84 -11.47 
-42.99 195.91 -10.78 
-43.33 196.05 -9.60 
-43.09 196.08 -8.72 
-43.10 196.08 -8.16 
-43.18 195.77 -6.08 
-43.05 195.92 -5.63 
-42.25 196.19 -11.61 
-42.35 196.18 -11.13 
-42.29 195.97 -10.32 
-42.37 196.14 -9.80 
-42.58 195.83 -8.37 
-42.24 196.15 -7.96 
-42.35 195.66 -6.71 
-42.59 196.00 -5.90 
-41.72 195.87 -11.47 
-41.58 195.89 -10.18 
-41.61 195.87 -9.86 
-41.33 196.08 -8.70 
-41.44 196.12 -8.37 
-41.77 195.68 -6.68 
-41.58 195.97 -6.54 
-40.79 196.13 -11.34 
-41.04 195.65 -10.12 
-40.98 195.72 -9.78 
-40.92 195.68 -8.13 
-40.00 196.12 -10.03 
-46.54 196.57 -9.60 
-45.84 196.65 -11.57 
-45.82 196.96 -11.31 
-45.71 196.49 -10.76 
-46.18 196.54 -9.75 
-45.15 196.84 -11.59 
-45.18 196.38 -11.06 
-45.34 196.38 -10.73 
-45.37 196.43 -9.78 
-44.22 196.71 -11.84 
-44.65 196.89 -11.43 
-44.57 196.83 -9.39 
-44.51 196.77 -9.18 
-44.26 196.91 -8.27 
-43.82 196.67 -11.76 
-43.74 196.63 -11.28 
-43.48 196.53 -9.70 
-44.07 196.56 -9.25 
-43.95 196.63 -8.11 
-43.48 196.52 -7.47 
-43.66 196.45 -5.81 
-42.92 196.70 -11.78 
-43.04 196.47 -11.04 
-43.36 196.37 -9.62 
-42.88 196.37 -8.17 
-42.49 196.50 -11.52 
-42.65 196.39 -11.03 
-42.18 196.68 -10.35 
-42.15 196.38 -9.86 
-42.59 196.87 -8.25 
-42.14 196.66 -7.60 
-42.50 196.50 -6.50 
-41.78 196.36 -11.38 
-41.79 196.34 -10.41 
-41.55 196.54 -9.79 
-41.19 196.38 -11.48 
-41.13 196.72 -10.70 
-40.83 196.41 -9.93 
-46.28 197.13 -11.04 
-44.95 197.18 -11.80 
-44.41 197.14 -12.25 
-44.65 197.09 -11.85 
-44.62 197.13 -9.19 
-43.27 197.13 -11.98 
-54.34 203.38 -12.55 
-54.31 203.53 -11.73 
-54.42 203.68 -11.14 
-54.45 203.65 -10.55 
-54.22 204.02 -9.81 
-54.25 204.01 -9.19 
-54.29 204.00 -8.56 
-54.34 203.99 -7.93 
-53.53 203.95 -10.73 
-53.55 203.94 -9.70 
-53.58 203.93 -8.67 
-54.18 204.09 -12.46 
-54.23 204.04 -11.67 
-54.20 204.04 -11.05 
-54.14 204.12 -10.47 
-54.22 204.02 -9.81 
-54.20 204.09 -8.91 
-53.98 204.10 -8.22 
-53.82 204.13 -9.13 
-54.58 205.33 -11.66 
-55.55 205.55 -11.21 
-54.69 205.80 -12.27 
-54.69 205.80 -11.88 
-54.69 205.80 -11.09 
-54.55 205.64 -12.31 
-54.54 205.64 -11.74 
-54.52 205.65 -10.99 
-54.44 206.17 -12.01 
-54.53 206.15 -10.98 
-52.16 206.64 -10.98 
-51.36 206.84 -11.76 
-51.37 206.84 -10.98 
-50.35 206.77 -10.98 
-51.98 206.90 -10.98 
-51.10 207.21 -12.23 
-51.23 207.06 -12.10 
-51.30 207.05 -11.00 
-50.89 207.22 -10.98 
-49.90 207.50 -10.98 
-52.65 208.15 -5.70 
-52.09 208.00 -7.73 
-50.80 208.07 -8.26 
-49.51 207.69 -10.91 
-47.65 208.22 -11.61 
-47.67 208.22 -11.21 
-47.63 208.11 -10.78 
-47.55 208.12 -12.13 
-47.10 208.05 -10.85 
-46.53 208.21 -10.79 
-52.85 208.76 -10.96 
-52.86 208.56 -9.71 
-52.75 208.90 -9.15 
-53.16 208.62 -7.14 
-52.63 208.36 -6.07 
-52.82 208.52 -5.68 
-52.09 208.71 -10.99 
-52.08 208.65 -7.66 
-52.32 208.42 -6.13 
-52.47 208.60 -5.51 
-51.10 208.57 -8.26 
-51.33 208.72 -7.65 
-51.67 208.54 -6.17 
-50.85 208.56 -8.08 
-50.70 208.80 -7.71 
-50.25 208.70 -7.85 
-49.29 208.81 -6.86 
-46.37 208.35 -10.98 
-46.56 208.52 -10.71 
-45.64 208.61 -10.79 
-45.16 208.74 -10.73 
-43.78 208.78 -10.93 
-57.22 209.04 -7.76 
-55.34 209.56 -10.75 
-54.70 209.62 -11.05 
-54.60 209.04 -10.68 
-53.23 209.17 -10.84 
-52.56 209.16 -10.95 
-52.73 209.63 -10.79 
-52.85 209.25 -9.63 
-52.69 209.63 -9.22 
-52.58 209.21 -5.71 
-51.93 209.51 -10.92 
-52.08 209.36 -9.69 
-52.04 209.42 -8.95 
-51.90 209.34 -8.54 
-52.38 209.18 -7.82 
-52.16 209.62 -6.13 
-52.58 209.21 -5.71 
-51.51 209.24 -9.87 
-51.17 209.20 -8.22 
-51.59 209.22 -7.60 
-50.96 209.24 -8.34 
-50.85 209.60 -7.70 
-50.67 209.05 -6.32 
-50.06 209.57 -8.38 
-50.03 209.21 -7.14 
-49.63 209.61 -6.83 
-44.46 208.96 -11.77 
-44.47 208.96 -11.02 
-44.51 209.10 -10.66 
-44.04 209.17 -11.90 
-44.07 209.17 -11.41 
-43.72 209.21 -10.71 
-43.09 209.49 -10.68 
-42.32 209.58 -10.66 
-35.87 209.40 -11.84 
-55.48 209.96 -10.75 
-54.89 209.78 -10.92 
-55.03 210.16 -10.61 
-54.18 210.00 -10.97 
-54.28 210.24 -10.68 
-54.10 209.91 -8.51 
-53.78 209.91 -10.95 
-53.44 210.09 -8.37 
-53.12 210.33 -10.67 
-52.65 209.82 -9.24 
-52.70 210.37 -8.87 
-52.68 209.90 -5.70 
-52.41 209.91 -10.78 
-51.82 209.84 -9.51 
-52.21 210.00 -9.27 
-51.97 209.78 -8.49 
-51.83 210.14 -7.55 
-52.16 210.23 -6.13 
-52.33 209.77 -5.73 
-51.62 209.96 -10.90 
-51.73 209.87 -9.70 
-51.61 210.29 -8.87 
-51.30 209.76 -8.18 
-51.55 209.77 -7.62 
-50.49 210.27 -9.54 
-50.90 209.76 -8.34 
-51.06 209.88 -7.79 
-50.68 210.23 -7.07 
-50.19 209.72 -7.12 
-49.27 209.64 -7.39 
-42.33 209.75 -10.58 
-41.81 209.77 -10.89 
-41.69 209.94 -10.59 
-40.63 210.20 -11.30 
-41.10 210.11 -10.59 
-40.41 210.33 -10.52 
-53.91 210.42 -10.96 
-54.14 210.42 -10.65 
-54.18 210.40 -7.87 
-53.66 210.44 -10.94 
-52.70 210.37 -8.87 
-51.83 210.39 -10.78 
-50.63 210.41 -6.71 
-50.22 210.43 -9.93 
-50.09 210.41 -9.36 
-50.04 210.39 -7.34 
-49.69 210.45 -7.87 
-39.94 210.47 -10.46 
