# .PCD v0.7 - Point Cloud Data file format
VERSION 0.7
FIELDS x y z
SIZE 4 4 4
TYPE F F F
COUNT 1 1 1
WIDTH 941
HEIGHT 1
VIEWPOINT 0 0 0 1 0 0 0
POINTS 941
DATA ascii
-57.29 210.90 -10.11 
-56.94 210.61 -8.88 
-56.23 210.97 -10.32 
-56.50 210.83 -9.42 
-56.22 210.69 -8.78 
-55.67 210.88 -10.42 
-55.64 210.70 -9.36 
-54.92 210.52 -10.33 
-54.86 211.14 -9.47 
-54.88 210.72 -9.16 
-54.60 210.94 -7.17 
-53.92 210.70 -10.60 
-54.38 211.05 -10.22 
-54.01 210.87 -7.87 
-53.44 210.97 -10.87 
-53.57 210.95 -8.83 
-53.14 210.88 -8.40 
-53.62 211.04 -7.54 
-52.82 211.11 -10.73 
-52.96 210.75 -8.58 
-51.90 210.84 -9.25 
-52.39 210.56 -8.72 
-51.83 210.66 -7.11 
-51.51 210.63 -10.89 
-51.59 210.93 -9.48 
-51.33 210.81 -6.95 
-50.70 210.91 -8.77 
-50.88 210.79 -8.32 
-50.62 210.63 -7.61 
-49.87 210.81 -9.89 
-50.01 210.80 -9.62 
-50.12 210.59 -9.16 
-50.19 211.14 -7.90 
-49.85 210.48 -7.76 
-49.63 210.64 -6.07 
-49.47 210.82 -10.06 
-49.19 210.54 -9.74 
-49.30 211.01 -8.27 
-49.53 210.80 -6.46 
-49.41 210.71 -6.05 
-48.73 210.55 -9.97 
-48.87 210.94 -7.03 
-46.48 211.15 -6.61 
-46.12 210.74 -6.11 
-38.65 210.80 -10.58 
-38.46 210.89 -10.48 
-37.88 210.89 -10.67 
-37.85 211.06 -10.36 
-37.49 211.16 -10.37 
-56.93 211.58 -10.20 
-57.32 211.53 -9.41 
-56.36 211.46 -9.79 
-56.08 211.56 -8.77 
-56.52 211.79 -7.85 
-55.40 211.35 -9.31 
-55.17 211.42 -10.25 
-54.90 211.56 -9.34 
-54.74 211.46 -7.13 
-54.19 211.58 -10.21 
-54.22 211.55 -7.51 
-53.35 211.43 -10.96 
-53.77 211.47 -10.48 
-53.25 211.28 -8.33 
-53.65 211.30 -7.65 
-53.68 211.35 -6.96 
-52.89 211.35 -10.69 
-52.52 211.35 -8.71 
-52.04 211.77 -10.98 
-52.04 211.84 -9.33 
-51.99 211.42 -8.85 
-51.86 211.49 -8.08 
-51.82 211.51 -7.32 
-51.69 211.38 -10.87 
-51.47 211.68 -9.92 
-51.11 211.60 -6.63 
-50.68 211.25 -11.02 
-50.45 211.81 -9.33 
-50.78 211.42 -8.98 
-49.64 211.45 -9.89 
-50.06 211.30 -9.57 
-49.66 211.65 -9.17 
-49.62 211.67 -8.25 
-49.95 211.42 -6.37 
-49.95 211.42 -6.37 
-49.51 211.39 -10.05 
-49.43 211.26 -9.41 
-49.44 211.33 -7.78 
-49.08 211.29 -6.82 
-48.77 211.40 -9.93 
-48.79 211.31 -9.12 
-48.52 211.39 -6.77 
-47.53 211.83 -7.38 
-47.40 211.81 -9.28 
-46.08 211.57 -6.38 
-46.36 211.43 -6.12 
-45.49 211.85 -8.71 
-46.08 211.57 -6.38 
-45.60 211.55 -6.15 
-45.23 211.61 -6.51 
-44.76 211.62 -5.69 
-44.77 211.52 -5.40 
-44.36 211.67 -9.06 
-44.28 211.61 -6.99 
-44.25 211.64 -5.35 
-43.94 211.72 -5.56 
-42.00 211.80 -7.28 
-42.36 211.48 -6.67 
-37.05 211.30 -11.54 
-37.59 211.19 -11.13 
-37.14 211.27 -10.38 
-36.99 211.30 -11.28 
-36.67 211.42 -10.39 
-36.67 211.42 -10.39 
-56.90 212.00 -9.55 
-56.24 212.10 -9.46 
-56.14 212.36 -7.09 
-55.86 212.25 -9.40 
-55.62 212.13 -8.32 
-55.84 212.16 -7.64 
-54.52 212.30 -9.62 
-54.87 212.25 -8.71 
-55.21 211.87 -8.47 
-54.76 212.23 -7.45 
-53.85 212.30 -10.24 
-54.36 212.01 -9.11 
-54.19 212.39 -8.45 
-54.16 212.09 -7.62 
-53.66 212.55 -10.98 
-53.60 212.46 -9.44 
-53.33 211.89 -8.96 
-53.28 211.92 -8.22 
-52.68 212.40 -11.79 
-52.90 212.14 -10.77 
-52.62 212.26 -9.94 
-52.89 212.03 -8.84 
-51.97 211.98 -10.89 
-52.38 212.21 -9.96 
-52.23 212.42 -9.35 
-52.36 212.23 -8.98 
-52.26 212.19 -8.19 
-52.41 211.96 -7.46 
-51.32 212.33 -9.28 
-50.75 212.23 -9.48 
-50.81 212.37 -8.77 
-50.04 212.29 -10.98 
-49.90 212.10 -9.86 
-50.20 212.32 -9.38 
-50.12 212.38 -9.10 
-50.12 212.01 -7.10 
-49.73 212.03 -6.77 
-49.48 212.22 -9.99 
-49.56 212.34 -9.30 
-49.30 211.98 -9.03 
-48.30 212.28 -9.33 
-48.75 212.15 -7.18 
-47.89 212.31 -9.10 
-47.53 211.94 -7.40 
-47.67 211.88 -7.07 
-47.43 212.58 -10.23 
-47.21 212.07 -8.80 
-47.00 212.24 -7.16 
-46.64 212.34 -9.14 
-46.78 212.30 -7.49 
-45.67 211.96 -8.70 
-45.82 212.23 -7.60 
-45.66 212.13 -6.81 
-45.12 212.07 -9.16 
-45.08 212.20 -8.88 
-44.83 212.49 -6.53 
-44.27 212.38 -9.46 
-44.62 212.30 -8.99 
-44.17 212.30 -6.89 
-44.47 212.13 -6.16 
-44.64 212.22 -5.41 
-43.37 212.57 -9.61 
-43.90 212.50 -8.83 
-43.35 212.25 -8.45 
-43.84 212.02 -7.74 
-43.23 212.36 -9.51 
-43.01 212.18 -7.96 
-42.65 212.06 -7.48 
-42.27 212.28 -7.27 
-42.43 212.17 -6.61 
-38.51 212.31 -7.46 
-38.40 212.40 -9.36 
-37.52 212.37 -8.11 
-37.71 212.56 -7.52 
-34.57 212.07 -10.31 
-34.12 212.21 -11.43 
-33.53 212.36 -10.72 
-33.83 212.29 -10.32 
-32.88 212.33 -11.00 
-32.93 212.32 -10.35 
-54.64 212.60 -9.74 
-54.69 212.81 -7.97 
-54.80 212.90 -7.58 
-53.84 212.98 -9.95 
-53.89 212.84 -9.66 
-54.07 212.77 -8.69 
-54.50 212.97 -7.75 
-53.24 213.19 -11.41 
-53.53 213.02 -10.90 
-53.56 213.09 -10.49 
-53.53 212.78 -9.45 
-53.51 212.82 -9.03 
-52.86 213.29 -11.37 
-52.81 213.03 -11.03 
-52.71 212.89 -10.21 
-52.63 212.61 -9.59 
-52.71 213.09 -8.48 
-52.11 213.11 -10.51 
-52.25 213.00 -9.46 
-52.16 212.64 -8.87 
-52.03 213.16 -7.90 
-52.19 212.71 -7.66 
-51.20 213.26 -11.17 
-51.65 212.96 -9.27 
-51.26 212.65 -8.66 
-51.57 212.79 -7.64 
-50.76 213.23 -11.28 
-50.70 213.15 -11.15 
-50.52 212.95 -10.37 
-50.96 213.17 -9.32 
-50.51 212.82 -8.26 
-50.41 213.23 -7.72 
-50.10 212.85 -10.75 
-50.14 212.59 -10.06 
-50.15 212.90 -9.03 
-49.85 212.89 -7.63 
-49.20 213.08 -10.98 
-49.47 212.60 -8.99 
-49.36 212.58 -7.60 
-48.39 213.11 -10.26 
-48.33 212.70 -9.09 
-47.93 213.26 -10.12 
-47.77 212.86 -8.72 
-47.12 212.72 -10.18 
-47.33 212.76 -8.68 
-46.40 213.19 -10.31 
-46.42 212.78 -9.13 
-45.68 212.68 -8.22 
-45.61 213.16 -7.02 
-44.80 212.82 -9.18 
-44.87 212.90 -8.76 
-45.10 212.76 -8.40 
-45.39 212.71 -6.96 
-44.21 212.70 -9.54 
-44.20 212.95 -8.92 
-43.54 212.93 -9.57 
-43.96 212.58 -8.66 
-42.91 212.96 -9.82 
-42.91 212.96 -9.82 
-42.84 212.94 -8.93 
-42.87 213.19 -7.26 
-42.54 212.73 -9.98 
-42.02 212.74 -9.71 
-42.54 212.87 -7.99 
-41.90 213.16 -10.51 
-41.49 212.73 -8.10 
-39.25 213.12 -10.41 
-39.20 213.23 -9.19 
-38.85 212.89 -10.56 
-39.00 213.19 -9.30 
-39.00 212.95 -8.99 
-38.70 213.19 -7.59 
-37.95 213.26 -10.44 
-38.28 213.13 -9.37 
-37.74 212.85 -8.02 
-38.34 212.61 -7.41 
-37.32 212.97 -8.09 
-37.37 213.12 -7.64 
-37.63 213.03 -6.17 
-36.46 213.24 -8.17 
-36.67 212.80 -7.74 
-36.49 213.09 -6.41 
-36.06 213.17 -8.04 
-35.92 213.11 -7.16 
-36.01 213.25 -6.75 
-35.53 212.85 -7.09 
-32.48 212.66 -10.27 
-55.36 213.81 -9.81 
-54.55 213.81 -10.02 
-55.12 213.67 -8.86 
-54.76 213.40 -7.21 
-55.06 213.59 -7.01 
-54.35 213.30 -11.10 
-54.36 213.35 -10.26 
-54.32 213.94 -9.36 
-54.15 213.67 -8.84 
-54.09 213.41 -8.40 
-54.31 213.44 -7.75 
-53.44 213.39 -11.38 
-53.21 213.45 -10.80 
-53.22 213.47 -10.56 
-53.19 213.49 -9.30 
-53.51 213.48 -8.70 
-53.79 213.48 -8.33 
-52.89 213.38 -11.64 
-52.73 213.94 -10.88 
-52.52 213.88 -10.34 
-53.02 213.59 -8.77 
-51.74 213.65 -11.31 
-52.30 213.39 -11.06 
-52.16 213.43 -10.16 
-52.17 213.43 -9.09 
-52.15 213.46 -8.00 
-51.44 213.61 -11.31 
-51.26 213.79 -11.00 
-51.71 213.36 -9.04 
-51.21 213.88 -8.36 
-50.50 213.84 -11.04 
-51.00 213.69 -7.79 
-50.69 213.60 -7.67 
-49.97 213.74 -10.75 
-49.66 213.34 -9.30 
-49.28 213.52 -10.74 
-47.68 213.52 -8.12 
-46.13 213.62 -10.15 
-46.28 213.33 -8.79 
-45.68 213.85 -10.42 
-44.85 213.58 -9.19 
-44.76 213.41 -9.09 
-45.09 213.37 -8.40 
-44.02 213.57 -9.53 
-44.62 213.64 -8.89 
-43.74 213.80 -10.87 
-43.67 213.90 -10.55 
-43.61 213.87 -9.82 
-43.62 213.32 -8.66 
-43.72 213.62 -7.48 
-42.93 213.47 -10.20 
-43.12 213.59 -9.81 
-42.90 213.36 -8.84 
-42.94 213.29 -7.42 
-42.00 213.77 -10.16 
-42.51 213.50 -9.69 
-42.38 213.64 -8.98 
-42.19 213.88 -7.83 
-42.49 213.35 -7.62 
-41.48 213.60 -10.31 
-41.82 213.58 -7.81 
-40.69 213.85 -10.08 
-40.46 213.86 -10.32 
-39.55 213.96 -10.36 
-39.24 213.75 -8.82 
-38.71 213.47 -10.34 
-38.75 213.45 -9.09 
-38.09 213.82 -10.24 
-37.88 213.53 -9.30 
-38.37 213.69 -9.02 
-38.32 213.65 -7.95 
-37.83 213.61 -7.25 
-37.91 213.51 -5.86 
-37.71 213.90 -10.32 
-37.66 213.38 -9.23 
-37.72 213.86 -9.12 
-37.30 213.44 -7.97 
-37.62 213.41 -7.51 
-37.15 213.76 -6.21 
-36.91 213.48 -7.96 
-36.95 213.65 -7.76 
-36.48 213.46 -6.70 
-36.19 213.91 -9.06 
-35.85 213.86 -8.05 
-35.98 213.65 -7.15 
-35.61 213.43 -7.08 
-35.60 213.62 -6.90 
-32.44 213.95 -8.04 
-32.76 213.89 -7.35 
-55.35 214.62 -10.85 
-55.29 214.54 -9.68 
-55.50 214.26 -8.92 
-55.24 214.48 -6.81 
-54.89 214.18 -10.98 
-54.80 214.44 -10.17 
-54.93 214.06 -9.42 
-54.77 214.34 -8.54 
-54.92 214.03 -7.17 
-55.17 214.14 -6.97 
-53.96 214.54 -10.73 
-54.28 214.60 -9.66 
-54.24 214.12 -8.89 
-53.93 214.04 -8.09 
-54.45 214.20 -7.45 
-53.55 213.98 -10.81 
-53.32 214.31 -10.16 
-53.48 214.15 -9.72 
-53.43 214.26 -8.77 
-52.65 214.00 -11.45 
-52.43 214.08 -10.96 
-52.58 214.09 -10.43 
-52.47 214.01 -7.31 
-52.41 214.01 -11.54 
-52.17 214.03 -10.88 
-52.28 214.14 -10.20 
-52.34 214.14 -9.37 
-52.34 214.12 -8.96 
-52.17 214.00 -7.46 
-51.41 214.25 -10.58 
-51.52 214.48 -8.81 
-50.56 214.10 -10.77 
-50.99 214.55 -9.09 
-50.64 214.55 -7.57 
-50.22 214.29 -10.66 
-49.49 214.57 -10.64 
-48.55 214.57 -10.36 
-48.03 214.53 -10.33 
-47.75 214.35 -7.89 
-46.90 214.61 -10.58 
-46.92 214.06 -10.27 
-46.92 214.60 -7.95 
-46.63 214.61 -9.94 
-46.63 214.41 -8.09 
-45.68 213.85 -10.42 
-45.61 214.17 -9.05 
-45.47 214.49 -8.14 
-45.53 214.25 -7.55 
-45.33 214.24 -10.43 
-44.95 214.49 -9.25 
-45.06 214.25 -8.80 
-45.27 214.18 -8.22 
-45.45 214.30 -7.58 
-44.23 214.40 -10.93 
-44.34 214.34 -9.60 
-44.01 214.16 -10.77 
-43.56 214.49 -10.13 
-43.56 214.32 -9.77 
-43.53 214.30 -8.83 
-43.87 214.27 -7.44 
-43.07 214.62 -10.83 
-43.06 214.16 -10.47 
-42.91 214.28 -9.68 
-43.09 214.43 -9.15 
-42.88 214.23 -8.10 
-42.30 214.65 -10.84 
-42.51 214.09 -9.94 
-42.32 214.26 -8.50 
-42.55 214.09 -7.83 
-42.60 214.05 -7.13 
-41.90 214.25 -10.18 
-41.41 214.21 -9.86 
-40.92 214.22 -10.17 
-40.59 214.54 -9.41 
-40.82 214.61 -9.05 
-40.24 214.23 -10.39 
-40.37 214.35 -7.55 
-39.52 214.27 -10.58 
-39.55 214.44 -10.46 
-39.34 214.17 -8.19 
-38.84 213.97 -10.21 
-38.53 214.43 -8.76 
-38.90 214.48 -8.36 
-37.90 214.32 -10.23 
-37.94 213.98 -9.05 
-38.00 214.52 -8.11 
-37.79 214.29 -7.47 
-38.32 214.40 -6.50 
-38.16 214.40 -5.74 
-37.56 214.08 -10.43 
-37.28 214.02 -9.24 
-37.51 214.54 -7.93 
-37.38 214.07 -7.62 
-37.67 214.20 -6.25 
-37.00 214.43 -10.35 
-36.35 214.35 -8.94 
-36.70 214.50 -7.96 
-36.62 214.22 -7.60 
-36.72 213.98 -6.67 
-36.09 214.57 -10.60 
-36.04 214.29 -9.40 
-36.24 214.22 -9.04 
-35.77 214.08 -8.10 
-36.28 213.97 -7.37 
-35.01 214.27 -9.23 
-35.21 214.68 -8.78 
-35.37 214.51 -8.10 
-35.04 214.13 -7.18 
-35.25 214.24 -6.93 
-34.92 214.41 -9.65 
-34.51 214.28 -8.69 
-34.32 214.55 -8.30 
-34.67 214.25 -6.23 
-34.07 214.38 -8.76 
-34.19 214.60 -8.37 
-33.52 214.36 -9.37 
-32.86 214.33 -8.39 
-33.10 214.26 -7.17 
-32.60 214.25 -8.02 
-55.40 215.04 -8.45 
-54.92 214.96 -10.90 
-55.22 214.94 -9.98 
-54.84 215.17 -9.66 
-55.01 215.17 -8.68 
-54.61 214.74 -7.97 
-54.90 214.92 -7.40 
-53.88 214.94 -11.10 
-54.23 214.86 -9.64 
-54.21 214.94 -8.75 
-53.97 214.73 -7.60 
-53.55 215.28 -10.99 
-53.51 215.01 -10.17 
-53.24 214.71 -8.65 
-52.85 215.28 -10.90 
-51.94 214.71 -10.64 
-51.86 215.01 -10.17 
-51.93 215.12 -9.82 
-51.21 215.14 -10.73 
-51.42 215.01 -10.21 
-50.97 215.16 -10.75 
-51.00 215.21 -10.42 
-49.89 214.91 -10.74 
-49.43 215.11 -10.85 
-49.43 215.26 -10.33 
-48.50 214.83 -10.00 
-47.89 214.82 -9.96 
-47.72 215.15 -9.79 
-47.05 214.78 -10.21 
-47.04 215.07 -9.86 
-46.85 215.22 -8.48 
-46.77 214.85 -10.66 
-46.61 215.04 -10.15 
-45.75 214.76 -8.87 
-45.60 214.86 -7.85 
-45.56 214.78 -7.54 
-45.13 215.27 -10.76 
-45.18 215.19 -10.41 
-44.99 215.10 -9.50 
-44.99 214.99 -8.92 
-45.18 214.71 -8.21 
-45.06 215.09 -7.59 
-44.19 214.95 -11.38 
-44.19 215.20 -10.82 
-44.50 215.18 -9.93 
-44.47 215.46 -9.21 
-44.17 214.96 -8.66 
-43.37 214.92 -10.71 
-43.65 214.97 -10.48 
-43.51 214.78 -9.28 
-43.91 214.85 -9.11 
-43.70 215.53 -8.03 
-43.84 215.12 -7.63 
-42.94 215.07 -10.64 
-42.76 215.18 -10.19 
-42.83 215.20 -9.56 
-43.21 214.71 -8.80 
-43.14 215.05 -7.81 
-41.96 214.84 -10.85 
-42.27 215.18 -10.13 
-42.60 215.07 -9.84 
-42.15 215.15 -8.90 
-41.80 214.87 -9.79 
-41.54 215.04 -9.80 
-41.67 215.34 -8.92 
-41.15 215.33 -10.04 
-40.81 215.19 -9.23 
-40.73 215.05 -8.75 
-40.27 214.71 -10.03 
-40.44 215.34 -9.20 
-40.17 215.23 -9.16 
-40.04 214.71 -7.58 
-39.26 214.96 -10.18 
-39.29 215.03 -8.81 
-39.54 214.98 -7.83 
-39.72 215.34 -7.70 
-38.83 215.16 -10.61 
-38.85 215.18 -10.38 
-38.36 215.04 -8.81 
-38.94 214.90 -8.21 
-37.77 214.83 -10.24 
-37.83 215.10 -8.73 
-37.85 214.96 -7.80 
-38.32 215.22 -6.00 
-37.52 215.22 -10.61 
-37.60 215.21 -10.50 
-37.31 214.97 -9.51 
-37.41 215.36 -9.13 
-37.64 214.93 -8.43 
-36.68 215.31 -9.37 
-36.67 215.15 -8.89 
-36.42 214.84 -6.82 
-36.32 215.25 -10.74 
-35.78 214.97 -9.28 
-36.17 214.92 -8.89 
-35.94 214.85 -8.47 
-36.04 214.95 -7.31 
-35.52 214.83 -9.73 
-35.25 215.00 -8.88 
-35.55 214.88 -8.40 
-35.07 215.22 -6.40 
-35.11 214.84 -6.17 
-34.69 214.89 -8.72 
-34.51 215.26 -8.24 
-34.65 214.68 -7.59 
-34.44 214.88 -6.29 
-34.07 215.28 -9.75 
-33.82 214.68 -8.50 
-33.90 214.83 -8.18 
-33.32 214.91 -8.35 
-33.10 214.86 -7.77 
-33.10 214.86 -7.77 
-32.55 215.22 -8.33 
-32.55 215.34 -7.58 
-55.47 215.42 -10.11 
-55.27 215.60 -9.69 
-55.01 215.80 -9.51 
-54.23 215.57 -9.07 
-53.52 215.44 -10.86 
-53.24 215.45 -10.10 
-52.97 215.71 -10.25 
-51.26 215.40 -10.08 
-51.26 215.76 -9.68 
-50.47 215.75 -10.25 
-50.15 216.02 -10.24 
-49.16 215.47 -9.99 
-48.07 215.45 -9.54 
-47.85 215.88 -8.96 
-47.38 215.60 -8.86 
-46.98 215.54 -8.04 
-46.27 215.56 -9.97 
-46.62 215.77 -9.75 
-45.61 215.94 -10.58 
-45.55 215.77 -10.38 
-45.64 216.03 -9.65 
-45.78 215.85 -8.73 
-45.83 216.06 -7.48 
-45.10 215.50 -11.00 
-45.25 216.02 -10.36 
-45.32 215.41 -8.72 
-44.47 215.56 -10.82 
-44.26 215.70 -10.18 
-44.27 215.66 -9.43 
-44.47 215.49 -8.82 
-43.56 215.43 -10.21 
-43.83 215.61 -9.32 
-43.67 215.48 -8.99 
-43.70 215.53 -8.03 
-42.63 215.72 -9.50 
-42.70 215.91 -9.13 
-42.00 215.56 -9.25 
-42.30 215.40 -8.86 
-42.01 215.72 -8.28 
-41.45 215.78 -9.81 
-41.35 215.67 -8.94 
-41.81 215.72 -8.47 
-40.59 215.61 -9.22 
-41.05 215.64 -9.01 
-40.23 215.79 -9.91 
-40.07 215.61 -9.48 
-40.01 215.78 -9.02 
-40.16 215.82 -6.94 
-40.16 215.82 -6.94 
-39.27 215.77 -9.85 
-39.53 216.00 -9.80 
-39.80 215.81 -9.12 
-39.46 215.45 -7.54 
-38.81 215.43 -10.31 
-38.66 216.02 -9.80 
-37.99 215.65 -10.34 
-38.05 215.92 -8.60 
-38.07 215.95 -8.30 
-38.05 215.98 -7.12 
-37.19 215.54 -10.73 
-37.52 215.49 -10.44 
-37.12 215.51 -9.43 
-37.58 216.02 -8.55 
-37.65 216.04 -8.40 
-37.37 215.52 -7.60 
-37.33 215.63 -6.92 
-36.34 215.93 -10.58 
-36.83 215.66 -9.23 
-36.86 215.50 -9.16 
-36.47 215.55 -8.24 
-36.59 215.38 -7.57 
-36.03 215.99 -10.04 
-36.08 215.69 -9.69 
-36.17 215.85 -9.16 
-35.05 215.79 -9.99 
-35.37 215.81 -9.86 
-35.49 215.62 -8.62 
-35.23 215.41 -8.17 
-35.30 215.52 -7.56 
-35.15 215.59 -6.22 
-34.46 215.48 -9.98 
-34.24 215.38 -8.83 
-34.53 215.55 -8.15 
-33.70 215.47 -8.45 
-33.97 215.76 -8.28 
-33.13 215.49 -8.78 
-32.88 215.72 -8.41 
-32.65 215.64 -8.82 
-32.46 215.92 -8.26 
-54.42 216.62 -8.99 
-53.19 216.71 -10.86 
-53.28 216.74 -10.07 
-53.02 216.26 -10.82 
-53.00 216.13 -10.07 
-51.24 216.19 -9.47 
-50.75 216.20 -9.73 
-50.28 216.66 -9.71 
-48.70 216.36 -9.80 
-48.69 216.52 -9.04 
-47.60 216.17 -8.23 
-45.51 216.11 -9.43 
-45.69 216.18 -9.13 
-45.55 216.50 -7.98 
-44.83 216.19 -10.82 
-44.84 216.22 -10.51 
-44.85 216.46 -9.53 
-44.68 216.17 -10.82 
-44.57 216.49 -9.91 
-44.41 216.66 -9.29 
-44.54 216.31 -8.52 
-44.25 216.44 -8.39 
-44.43 216.27 -7.24 
-43.80 216.34 -10.86 
-43.51 216.15 -10.54 
-43.74 216.30 -7.13 
-43.62 216.10 -7.03 
-43.09 216.53 -10.56 
-43.09 216.53 -10.56 
-42.06 216.28 -10.28 
-41.96 216.16 -8.90 
-42.11 216.31 -7.87 
-40.52 216.57 -9.10 
-39.94 216.37 -8.65 
-39.99 216.51 -8.10 
-40.13 216.19 -7.26 
-39.78 216.50 -9.46 
-39.55 216.48 -8.51 
-39.64 216.34 -8.45 
-38.71 216.58 -10.60 
-38.86 216.29 -10.16 
-38.98 216.34 -9.50 
-37.93 216.71 -10.76 
-37.99 216.55 -10.27 
-38.06 216.40 -9.64 
-37.97 216.19 -8.76 
-37.75 216.44 -8.36 
-37.36 216.20 -10.19 
-37.41 216.52 -9.40 
-37.70 216.50 -9.08 
-36.59 216.75 -10.68 
-36.50 216.76 -9.95 
-36.89 216.18 -8.85 
-36.90 216.30 -7.04 
-36.11 216.17 -10.20 
-35.81 216.38 -9.85 
-35.69 216.12 -8.98 
-35.80 216.63 -7.94 
-35.62 216.37 -10.52 
-35.37 216.55 -7.95 
-35.51 216.21 -7.33 
-34.55 216.61 -10.32 
-34.50 216.35 -6.55 
-34.75 216.35 -6.24 
-32.96 216.42 -8.19 
-32.62 216.12 -8.18 
-32.53 216.72 -7.70 
-53.44 217.20 -10.67 
-52.72 217.28 -10.92 
-46.39 217.04 -9.00 
-45.82 216.77 -9.19 
-45.82 217.42 -9.05 
-44.89 217.08 -8.40 
-44.68 217.03 -9.40 
-44.32 217.25 -8.87 
-44.33 216.77 -8.01 
-44.65 216.91 -7.27 
-43.42 217.20 -9.65 
-43.91 216.80 -8.96 
-42.82 216.78 -10.55 
-43.29 217.01 -9.70 
-42.29 217.12 -10.65 
-42.22 217.37 -10.50 
-40.59 217.04 -9.05 
-39.84 216.79 -9.58 
-39.93 217.05 -7.81 
-39.18 216.82 -8.96 
-38.59 216.89 -10.76 
-38.69 216.94 -10.07 
-38.78 216.78 -9.77 
-38.59 217.28 -8.66 
-38.11 217.14 -10.61 
-37.71 217.23 -10.29 
-37.86 217.35 -8.73 
-37.85 217.37 -8.33 
-37.41 217.41 -10.66 
-37.55 217.37 -10.18 
-37.52 217.26 -9.60 
-37.24 217.29 -9.08 
-37.11 217.20 -8.17 
-36.81 216.94 -10.68 
-36.73 217.12 -10.46 
-37.01 217.22 -8.56 
-35.98 216.92 -10.39 
-36.24 217.18 -9.29 
-35.79 217.28 -8.45 
-35.97 217.11 -7.44 
-35.39 216.95 -10.32 
-35.52 216.85 -8.10 
-35.43 217.43 -7.46 
-34.62 216.81 -10.51 
-33.24 217.32 -7.55 
-32.48 217.41 -8.03 
-46.37 217.85 -8.93 
-45.78 217.78 -8.57 
-44.80 217.64 -9.13 
-45.15 217.49 -8.38 
-44.63 218.01 -8.41 
-43.60 217.54 -10.31 
-43.59 217.79 -9.22 
-43.66 217.84 -9.15 
-42.89 218.12 -10.20 
-43.08 217.48 -9.58 
-43.24 218.09 -9.14 
-42.08 217.82 -9.93 
-42.44 217.75 -9.77 
-41.92 217.53 -10.63 
-41.34 217.92 -9.96 
-39.94 217.92 -10.60 
-40.01 217.76 -9.60 
-40.27 217.95 -8.87 
-40.36 217.99 -8.20 
-39.62 217.94 -10.71 
-39.25 217.63 -9.74 
-39.17 217.47 -8.13 
-38.76 217.53 -10.73 
-38.76 217.54 -10.35 
-38.42 217.77 -9.68 
-38.62 217.91 -8.58 
-38.81 217.56 -8.41 
-38.19 218.16 -10.61 
-38.19 217.61 -10.29 
-38.42 217.77 -9.68 
-38.43 218.08 -8.64 
-38.08 217.84 -8.47 
-38.41 217.83 -7.75 
-37.30 217.50 -10.60 
-37.31 217.72 -9.95 
-37.14 218.00 -9.77 
-37.51 217.68 -8.70 
-37.50 217.79 -8.08 
-37.36 217.97 -7.52 
-36.70 217.93 -10.59 
-36.79 218.08 -10.05 
-36.95 218.01 -9.68 
-36.84 217.78 -8.96 
-36.78 217.68 -8.37 
-36.23 218.08 -10.64 
-36.13 218.15 -10.38 
-35.66 217.75 -8.84 
-35.48 217.60 -8.52 
-35.34 217.63 -8.39 
-34.26 217.76 -10.49 
-34.42 218.03 -8.52 
-34.12 217.99 -8.27 
-33.10 218.15 -8.49 
-33.13 218.12 -8.03 
-33.51 217.70 -7.56 
-32.64 217.88 -8.59 
-32.80 217.97 -8.00 
-45.84 218.27 -8.49 
-44.18 218.78 -10.75 
-43.50 218.64 -8.63 
-43.88 218.53 -8.46 
-42.78 218.34 -9.11 
-42.02 218.60 -9.42 
-40.94 218.21 -10.60 
-40.03 218.31 -9.99 
-39.50 218.25 -9.79 
-39.18 218.19 -8.72 
-38.56 218.75 -10.61 
-38.78 218.86 -9.59 
-38.99 218.46 -8.28 
-38.93 218.55 -7.64 
-38.28 218.69 -10.59 
-38.08 218.57 -9.99 
-38.40 218.64 -9.86 
-37.43 218.49 -10.72 
-37.23 218.74 -8.45 
-36.53 218.29 -9.93 
-36.70 218.35 -9.70 
-35.95 218.33 -10.05 
-36.13 218.75 -9.63 
-35.34 218.58 -10.19 
-35.55 218.83 -9.71 
-34.50 218.57 -10.52 
-34.16 218.32 -8.14 
-44.03 218.92 -10.76 
-43.64 219.02 -10.80 
-39.99 219.05 -8.60 
-39.66 219.35 -9.40 
-39.37 218.87 -9.06 
-38.58 219.02 -9.58 
-38.48 219.30 -8.43 
-37.91 218.92 -9.88 
-37.81 219.26 -9.84 
-38.28 219.34 -8.51 
-38.39 219.47 -8.37 
-37.47 219.19 -10.69 
-37.63 218.99 -10.29 
-37.65 219.44 -9.78 
-37.64 218.88 -8.92 
-36.99 219.56 -10.69 
-36.91 219.54 -9.92 
-35.97 219.11 -9.41 
-35.30 219.11 -9.56 
-34.61 219.08 -9.92 
-34.35 219.09 -8.77 
-34.35 219.41 -8.04 
-33.94 219.28 -8.92 
-33.38 219.32 -8.07 
-37.81 219.61 -10.59 
-38.05 219.77 -10.47 
-38.29 220.13 -9.41 
-38.35 219.81 -8.47 
-37.66 220.09 -10.58 
-37.65 219.95 -10.12 
-37.47 219.95 -9.80 
-37.45 220.04 -8.53 
-37.69 220.19 -8.38 
-36.84 220.00 -10.70 
-36.81 219.98 -9.90 
-36.31 220.24 -9.92 
-33.72 219.72 -8.72 
-33.71 219.81 -8.36 
-33.10 219.93 -9.28 
-33.33 219.72 -8.71 
-32.61 219.83 -9.32 
-32.61 219.95 -8.79 
-38.44 220.29 -8.42 
-38.24 220.68 -9.57 
-37.82 220.44 -8.05 
-37.54 220.53 -9.79 
-37.45 220.47 -8.49 
-37.65 220.61 -8.33 
-36.77 220.62 -9.89 
-37.73 221.17 -8.25 
-37.55 221.42 -8.40 
-33.13 223.45 -8.92 
-32.82 223.27 -8.92 
