# .PCD v0.7 - Point Cloud Data file format
VERSION 0.7
FIELDS x y z
SIZE 4 4 4
TYPE F F F
COUNT 1 1 1
WIDTH 1488
HEIGHT 1
VIEWPOINT 0 0 0 1 0 0 0
POINTS 1488
DATA ascii
-24.25 85.94 -16.02 
-23.04 86.08 -16.05 
-22.09 86.13 -15.74 
-21.52 86.16 -15.70 
-21.56 85.78 -15.52 
-20.15 85.52 -14.18 
-20.15 85.53 -13.44 
-20.33 85.57 -13.38 
-20.20 85.53 -12.62 
-20.20 85.54 -11.85 
-20.21 85.53 -11.08 
-11.42 85.70 -9.68 
-10.82 85.86 -9.59 
-10.19 85.79 -9.49 
-10.21 85.85 -9.16 
-9.42 85.75 -9.44 
-8.75 85.96 -9.30 
-8.27 86.14 -9.06 
-24.19 86.41 -15.84 
-24.30 86.84 -15.37 
-23.79 86.48 -15.40 
-22.80 86.57 -15.75 
-22.98 86.44 -10.12 
-22.60 86.82 -15.70 
-22.16 86.31 -15.51 
-21.58 86.39 -15.69 
-12.56 86.87 -9.58 
-11.90 86.60 -9.55 
-11.21 86.50 -9.54 
-10.67 86.66 -9.34 
-9.87 86.43 -9.27 
-9.89 86.68 -9.20 
-8.87 86.60 -9.09 
-7.82 86.65 -8.86 
-25.67 87.32 -15.90 
-25.55 87.45 -15.37 
-24.90 87.13 -15.07 
-24.38 87.23 -15.42 
-24.38 87.23 -15.42 
-23.53 87.02 -15.75 
-23.32 86.93 -15.52 
-23.02 87.22 -15.66 
-22.55 86.97 -15.68 
-19.12 87.47 -13.23 
-19.11 87.49 -12.40 
-18.95 87.30 -13.28 
-18.93 87.32 -12.47 
-18.91 87.34 -11.66 
-18.90 87.36 -10.85 
-14.97 87.39 -9.82 
-14.54 87.58 -9.65 
-13.86 87.33 -9.61 
-13.19 87.22 -9.61 
-12.50 87.08 -9.53 
-11.61 87.36 -9.25 
-11.86 87.40 -9.21 
-10.81 87.30 -9.09 
-10.50 86.96 -9.27 
-10.59 87.28 -9.13 
-8.59 87.11 -8.84 
-25.66 88.00 -15.43 
-25.66 88.00 -15.43 
-25.06 87.95 -15.76 
-24.42 88.08 -15.64 
-17.08 88.23 -9.81 
-16.41 87.99 -9.77 
-15.87 88.09 -9.72 
-15.03 88.00 -9.57 
-14.36 87.88 -9.61 
-13.71 87.68 -9.59 
-13.07 87.79 -9.47 
-12.40 87.67 -9.37 
-12.64 88.24 -9.13 
-9.56 88.21 -8.74 
-26.97 88.97 -15.55 
-26.21 88.80 -15.86 
-25.67 88.77 -15.71 
-24.86 88.39 -15.66 
-24.64 88.31 -15.68 
-19.92 88.87 -12.38 
-19.95 88.89 -11.39 
-19.97 88.91 -10.40 
-19.31 88.79 -14.00 
-19.30 88.79 -13.06 
-19.30 88.80 -12.12 
-19.29 88.80 -11.18 
-19.29 88.80 -10.23 
-18.58 88.75 -13.99 
-18.58 88.75 -13.15 
-18.58 88.75 -12.31 
-18.59 88.75 -11.46 
-18.56 88.90 -10.70 
-18.69 88.77 -10.58 
-18.48 88.77 -9.82 
-18.34 88.76 -14.02 
-18.34 88.76 -13.20 
-18.32 88.36 -12.37 
-18.29 88.39 -11.54 
-18.34 88.76 -10.71 
-18.08 88.65 -9.82 
-17.18 88.57 -9.78 
-16.82 88.58 -9.66 
-16.12 88.32 -9.61 
-15.52 88.64 -9.60 
-14.71 88.96 -9.40 
-13.69 88.34 -9.42 
-13.70 88.89 -8.98 
-13.27 88.91 -9.05 
-12.42 88.57 -9.03 
-10.14 88.41 -8.76 
-9.99 88.51 -8.59 
-27.72 89.41 -15.56 
-26.86 89.58 -15.71 
-26.38 89.38 -15.66 
-25.92 89.12 -15.66 
-20.98 89.49 -13.33 
-20.95 89.30 -12.18 
-21.00 89.34 -11.18 
-21.04 89.37 -10.18 
-19.88 89.51 -14.01 
-19.88 89.51 -13.17 
-19.88 89.51 -12.33 
-19.81 89.65 -11.54 
-19.87 89.68 -11.23 
-20.01 89.36 -10.28 
-19.83 89.28 -9.80 
-19.45 89.46 -14.03 
-19.45 89.46 -13.20 
-19.45 89.46 -12.38 
-19.46 89.45 -11.55 
-19.46 89.45 -10.72 
-19.25 89.31 -10.45 
-19.46 89.45 -9.88 
-18.98 89.16 -13.97 
-18.98 89.17 -13.13 
-18.98 89.17 -12.29 
-18.98 89.17 -11.45 
-18.90 89.10 -10.72 
-18.98 89.17 -10.61 
-18.85 89.65 -9.79 
-17.84 89.50 -9.59 
-17.07 89.29 -9.52 
-16.62 89.47 -9.58 
-16.11 89.22 -9.41 
-15.13 89.15 -9.30 
-14.11 89.15 -9.26 
-14.11 89.09 -9.19 
-28.49 90.32 -15.85 
-27.72 90.22 -15.68 
-27.11 89.86 -15.69 
-22.72 90.18 -13.62 
-22.09 90.13 -14.32 
-22.17 89.91 -14.12 
-22.21 89.94 -13.12 
-22.14 90.18 -12.26 
-21.96 90.36 -11.81 
-22.17 90.20 -11.23 
-22.34 90.05 -10.11 
-21.48 90.13 -13.83 
-21.44 90.14 -13.13 
-21.43 90.14 -12.22 
-21.49 90.14 -11.92 
-21.50 90.14 -10.96 
-21.42 90.15 -10.38 
-20.73 90.20 -14.03 
-20.73 90.20 -13.21 
-20.72 90.25 -12.26 
-20.73 90.20 -11.55 
-20.73 90.17 -11.08 
-20.75 90.27 -10.48 
-20.74 90.20 -9.88 
-20.15 89.88 -13.93 
-20.15 89.89 -13.08 
-20.14 89.89 -12.27 
-20.18 89.84 -11.54 
-20.18 89.84 -10.71 
-20.15 89.90 -10.51 
-20.18 89.84 -9.87 
-19.29 90.09 -9.64 
-18.52 89.86 -9.58 
-17.95 89.83 -9.67 
-17.33 90.08 -9.27 
-16.45 90.01 -9.41 
-16.33 89.98 -9.15 
-15.85 89.95 -9.32 
-15.29 89.88 -9.03 
-29.16 91.00 -15.71 
-28.65 90.81 -15.70 
-28.05 90.41 -15.70 
-24.03 90.95 -13.59 
-23.47 90.86 -14.19 
-23.55 90.82 -14.09 
-23.53 90.90 -13.15 
-23.58 90.94 -12.10 
-23.64 90.98 -11.05 
-23.70 91.02 -9.99 
-23.20 90.62 -14.14 
-22.66 90.73 -13.64 
-22.77 91.02 -13.18 
-22.53 90.77 -12.40 
-22.76 91.01 -11.37 
-22.69 90.75 -10.85 
-22.76 91.02 -10.47 
-22.00 90.91 -14.04 
-22.17 90.97 -13.21 
-22.17 90.96 -12.37 
-22.17 90.96 -11.54 
-22.09 91.02 -11.01 
-22.38 90.89 -10.26 
-22.01 90.91 -9.87 
-21.54 90.79 -13.98 
-21.54 90.80 -13.15 
-21.54 90.79 -12.33 
-21.54 90.79 -11.49 
-21.48 90.69 -10.72 
-21.51 90.75 -10.36 
-21.48 90.69 -9.88 
-21.01 90.43 -13.90 
-21.02 90.43 -13.06 
-21.02 90.43 -12.22 
-20.98 90.44 -11.50 
-21.12 90.50 -10.73 
-21.15 90.49 -10.28 
-20.70 90.60 -9.74 
-19.97 90.94 -9.68 
-19.74 90.78 -9.67 
-18.84 90.61 -9.39 
-18.06 90.71 -9.69 
-17.84 90.65 -9.13 
-17.59 90.99 -9.33 
-30.67 91.74 -15.85 
-29.85 91.55 -15.68 
-29.35 91.23 -15.67 
-24.75 91.62 -14.18 
-24.83 91.57 -14.06 
-24.88 91.61 -13.01 
-24.87 91.71 -12.04 
-24.93 91.65 -11.96 
-24.93 91.75 -10.96 
-24.46 91.36 -14.13 
-24.13 91.61 -13.61 
-24.51 91.39 -13.06 
-24.14 91.62 -12.67 
-24.56 91.43 -12.00 
-24.16 91.63 -10.76 
-23.42 91.44 -14.08 
-23.42 91.44 -13.19 
-23.39 91.18 -12.69 
-23.41 91.44 -11.41 
-23.41 91.19 -10.81 
-23.41 91.44 -10.50 
-23.30 91.68 -9.89 
-22.77 91.45 -13.76 
-22.96 91.60 -13.23 
-22.96 91.60 -12.40 
-22.96 91.60 -11.58 
-22.79 91.46 -10.97 
-22.79 91.56 -10.29 
-22.79 91.54 -9.89 
-22.40 91.25 -14.04 
-22.42 91.34 -13.13 
-22.43 91.34 -12.30 
-22.43 91.34 -11.46 
-22.41 91.25 -10.74 
-22.45 91.36 -10.55 
-22.41 91.25 -9.91 
-21.23 91.43 -9.70 
-20.28 91.24 -9.64 
-19.55 91.32 -9.52 
-31.73 92.43 -15.84 
-31.18 92.37 -15.69 
-30.62 92.02 -15.67 
-30.23 91.79 -15.70 
-24.87 92.06 -14.55 
-24.70 92.27 -14.11 
-24.68 92.30 -13.07 
-24.78 91.83 -12.11 
-24.90 92.08 -11.68 
-24.81 91.86 -11.02 
-24.16 92.42 -13.95 
-24.22 92.32 -13.23 
-24.23 92.33 -12.41 
-24.23 92.32 -11.58 
-24.23 92.32 -10.75 
-24.17 92.42 -10.56 
-24.24 92.32 -9.92 
-23.73 92.15 -13.91 
-23.62 92.09 -13.08 
-23.58 92.06 -12.28 
-23.72 92.10 -11.55 
-23.68 91.97 -10.75 
-23.63 92.10 -10.50 
-23.72 92.09 -9.89 
-23.23 91.84 -13.01 
-23.23 91.84 -12.13 
-23.24 91.85 -11.47 
-23.23 91.84 -11.25 
-23.13 91.78 -10.45 
-22.91 91.91 -9.80 
-21.76 91.89 -9.67 
-26.45 93.00 -13.57 
-26.46 93.01 -12.59 
-26.47 93.01 -11.61 
-26.48 93.02 -10.62 
-25.51 93.10 -14.06 
-25.51 93.10 -13.24 
-25.51 93.10 -12.41 
-25.52 93.09 -11.59 
-25.52 93.09 -10.76 
-25.52 93.09 -9.92 
-25.01 92.92 -13.13 
-25.02 92.92 -12.30 
-25.03 92.94 -11.53 
-24.95 92.83 -10.84 
-24.99 92.94 -10.36 
-25.03 92.94 -9.85 
-24.45 92.57 -13.12 
-24.46 92.57 -12.29 
-24.46 92.59 -11.54 
-24.52 92.57 -11.01 
-24.36 92.54 -10.40 
-24.47 92.59 -9.86 
-23.96 92.81 -9.74 
-27.28 93.49 -11.57 
-26.30 93.70 -13.23 
-26.30 93.70 -12.40 
-26.44 93.72 -11.60 
-26.45 93.72 -10.77 
-26.27 93.74 -10.29 
-26.31 93.71 -9.90 
-25.74 93.35 -14.05 
-25.86 93.45 -13.15 
-25.86 93.45 -12.31 
-25.75 93.35 -11.58 
-25.70 93.29 -10.80 
-25.62 93.34 -10.33 
-25.75 93.35 -9.91 
-24.50 93.24 -9.72 
-28.92 94.53 -12.49 
-28.93 94.54 -11.47 
-27.56 94.43 -14.07 
-27.61 94.54 -13.12 
-27.65 94.54 -12.35 
-27.72 94.50 -11.60 
-27.57 94.44 -10.77 
-27.59 94.53 -10.22 
-27.65 94.54 -9.82 
-27.41 94.41 -14.04 
-27.17 94.32 -13.05 
-27.07 94.20 -12.35 
-27.17 94.15 -11.60 
-27.17 94.15 -10.77 
-27.18 94.33 -10.43 
-27.08 94.20 -9.84 
-26.68 94.03 -13.01 
-26.73 94.03 -12.23 
-26.73 94.00 -11.50 
-26.69 93.93 -10.87 
-26.69 94.03 -10.36 
-26.74 94.01 -9.81 
-28.90 95.04 -14.16 
-28.90 95.04 -13.32 
-28.90 95.04 -12.47 
-28.55 95.19 -13.91 
-28.47 95.09 -13.15 
-28.47 95.09 -12.31 
-28.54 95.11 -11.55 
-28.33 94.99 -10.88 
-28.43 95.10 -10.37 
-28.55 95.11 -9.86 
-27.94 94.81 -13.06 
-27.88 94.72 -12.32 
-27.98 94.76 -11.55 
-27.89 94.72 -11.02 
-27.95 94.81 -10.46 
-27.98 94.76 -9.88 
-30.07 95.78 -14.17 
-29.70 95.90 -13.87 
-29.79 95.84 -13.24 
-29.80 95.84 -12.41 
-29.80 95.84 -11.58 
-29.80 95.84 -10.74 
-29.71 95.90 -10.30 
-29.81 95.84 -9.90 
-29.11 95.46 -14.04 
-29.17 95.58 -13.03 
-29.24 95.48 -12.42 
-29.24 95.49 -11.59 
-29.08 95.45 -10.83 
-29.18 95.58 -10.40 
-29.25 95.49 -9.91 
-28.89 95.36 -13.97 
-28.81 95.29 -11.38 
-28.81 95.29 -10.52 
-31.06 96.62 -13.23 
-31.20 96.53 -12.52 
-31.20 96.53 -11.68 
-31.07 96.62 -10.73 
-31.19 96.53 -9.99 
-31.07 96.62 -9.89 
-30.64 96.16 -14.18 
-30.55 96.41 -13.97 
-30.65 96.46 -13.06 
-30.56 96.40 -12.33 
-30.65 96.49 -11.71 
-30.66 96.49 -10.72 
-30.44 96.37 -10.33 
-30.57 96.40 -9.83 
-30.03 96.07 -13.94 
-30.03 96.08 -13.07 
-30.00 96.05 -12.33 
-30.01 96.05 -11.50 
-30.05 96.07 -10.89 
-30.04 96.08 -10.46 
-30.01 96.05 -9.84 
-32.06 97.26 -14.06 
-31.91 97.25 -13.91 
-32.00 97.27 -13.16 
-32.00 97.28 -12.32 
-32.07 97.26 -11.54 
-32.05 97.35 -10.98 
-31.92 97.26 -10.37 
-32.08 97.26 -9.85 
-31.27 96.85 -13.92 
-31.28 96.86 -13.04 
-31.41 96.91 -12.33 
-31.50 96.90 -11.56 
-31.34 96.91 -11.02 
-31.29 96.86 -10.40 
-31.51 96.90 -9.87 
-30.39 96.84 -9.64 
-32.23 97.46 -13.97 
-32.33 97.50 -13.10 
-32.23 97.45 -12.31 
-32.35 97.56 -11.72 
-32.36 97.57 -10.73 
-32.39 97.54 -10.14 
-32.24 97.45 -9.81 
-8.80 98.32 -13.59 
-8.68 98.65 -13.06 
-8.63 98.62 -12.22 
-8.71 98.27 -11.61 
-8.46 98.68 -13.21 
-8.63 98.62 -12.22 
-8.58 98.60 -11.39 
-8.58 98.60 -11.39 
-8.73 99.31 -13.07 
-8.71 99.31 -12.38 
-8.70 99.31 -11.68 
-7.94 99.21 -13.82 
-8.21 99.48 -13.16 
-8.18 99.48 -11.23 
-7.67 99.16 -14.43 
-7.66 99.15 -13.78 
-7.64 99.15 -13.14 
-7.54 99.32 -12.33 
-7.53 99.32 -11.77 
-7.82 99.14 -11.19 
-9.52 100.14 -14.08 
-9.52 100.14 -13.28 
-9.51 100.15 -12.49 
-9.51 100.16 -11.69 
-9.21 99.89 -11.04 
-8.90 99.99 -13.91 
-8.83 100.04 -12.95 
-8.82 100.05 -12.41 
-8.89 100.00 -11.68 
-8.89 100.01 -10.93 
-8.31 100.09 -14.21 
-8.17 100.02 -13.90 
-8.10 99.86 -13.13 
-8.09 99.96 -12.45 
-8.10 99.88 -11.67 
-8.18 99.48 -11.23 
-7.70 99.80 -14.22 
-7.54 99.69 -13.71 
-7.65 99.73 -13.01 
-7.66 99.74 -12.47 
-7.75 99.68 -11.67 
-12.82 100.88 -12.79 
-12.44 100.73 -11.99 
-10.93 101.02 -13.86 
-11.19 100.84 -13.21 
-10.72 100.77 -12.41 
-11.18 100.84 -11.90 
-10.70 100.78 -10.76 
-10.40 100.38 -13.81 
-10.37 100.36 -12.85 
-10.33 100.69 -12.65 
-10.56 100.71 -11.83 
-9.51 100.77 -14.21 
-9.76 100.83 -13.87 
-9.57 100.77 -13.16 
-9.46 100.65 -12.39 
-9.57 100.78 -11.68 
-9.86 100.51 -10.82 
-8.89 100.38 -14.13 
-9.11 100.42 -13.62 
-9.11 100.42 -13.14 
-9.00 100.41 -12.41 
-9.10 100.43 -11.68 
-9.02 100.44 -11.29 
-8.55 100.19 -14.13 
-8.40 100.19 -13.73 
-8.52 100.19 -12.98 
-8.53 100.20 -12.43 
-8.41 100.21 -11.75 
-8.54 100.22 -11.32 
-12.88 100.91 -13.72 
-12.92 101.55 -13.14 
-12.88 101.01 -12.68 
-12.90 101.54 -11.77 
-12.88 101.55 -11.08 
-12.31 101.50 -14.53 
-12.30 101.50 -13.90 
-12.29 101.50 -13.26 
-12.29 101.50 -12.63 
-12.27 101.50 -11.35 
-12.04 101.58 -14.64 
-11.82 101.55 -13.91 
-12.00 101.42 -13.18 
-11.74 101.17 -12.60 
-11.79 101.55 -11.55 
-11.78 101.55 -10.95 
-11.00 101.57 -14.19 
-10.87 101.41 -13.85 
-11.03 101.36 -13.11 
-11.03 101.36 -12.60 
-10.91 101.42 -11.72 
-10.92 101.43 -11.13 
-10.30 101.17 -14.18 
-10.30 101.12 -13.86 
-10.46 101.17 -13.14 
-10.41 101.15 -12.33 
-10.46 101.18 -11.68 
-10.43 101.17 -11.17 
-9.87 100.97 -14.20 
-9.88 100.97 -13.70 
-9.89 100.96 -13.13 
-9.93 100.90 -12.36 
-9.92 100.97 -11.68 
-9.95 100.92 -11.21 
-14.10 102.28 -13.86 
-14.09 102.27 -13.20 
-14.08 102.27 -12.54 
-14.07 102.27 -11.87 
-13.20 102.18 -13.80 
-13.19 102.18 -12.96 
-13.37 102.12 -12.25 
-13.28 101.93 -11.66 
-13.36 102.13 -11.36 
-12.15 101.96 -14.85 
-12.15 102.10 -14.59 
-12.36 102.16 -13.96 
-12.35 102.04 -13.08 
-12.34 102.04 -12.56 
-12.42 102.16 -11.64 
-12.41 102.22 -11.20 
-11.81 101.90 -14.59 
-11.66 101.79 -13.98 
-11.74 101.76 -13.12 
-11.66 101.89 -12.50 
-11.73 101.76 -11.62 
-11.70 101.85 -11.27 
-11.31 101.71 -14.11 
-11.31 101.71 -13.62 
-11.16 101.64 -13.08 
-11.16 101.65 -12.53 
-11.14 101.56 -11.67 
-7.48 102.18 -13.18 
-15.00 102.86 -13.65 
-14.96 102.83 -12.59 
-14.92 102.81 -11.53 
-14.33 102.96 -14.18 
-14.68 102.68 -13.88 
-14.67 102.68 -13.23 
-14.32 102.74 -12.15 
-14.32 102.74 -11.54 
-14.26 102.83 -11.19 
-13.80 102.92 -14.63 
-13.78 102.96 -13.94 
-13.79 102.93 -13.16 
-13.64 102.65 -12.27 
-13.79 102.94 -11.68 
-13.72 102.89 -11.04 
-13.29 102.68 -14.45 
-13.02 102.56 -13.95 
-13.11 102.54 -13.15 
-13.03 102.62 -12.42 
-13.19 102.69 -11.63 
-13.07 102.62 -11.14 
-12.56 102.44 -14.17 
-12.66 102.36 -13.81 
-12.67 102.37 -13.16 
-12.57 102.37 -12.45 
-12.50 102.31 -11.65 
-12.57 102.38 -11.31 
-8.71 102.82 -13.94 
-8.68 102.81 -13.11 
-8.65 102.80 -12.28 
-8.61 102.79 -11.46 
-8.04 102.88 -13.66 
-8.01 102.86 -12.81 
-7.52 102.95 -14.27 
-7.54 102.99 -13.79 
-7.53 102.93 -13.04 
-7.53 102.93 -12.49 
-7.58 102.94 -11.84 
-16.47 103.61 -13.94 
-16.46 103.62 -12.99 
-16.45 103.62 -12.04 
-16.44 103.63 -11.09 
-15.76 103.34 -13.92 
-15.98 103.37 -13.23 
-15.80 103.55 -12.44 
-15.74 103.56 -11.65 
-15.73 103.56 -11.05 
-15.14 103.69 -14.15 
-15.14 103.69 -13.66 
-15.34 103.62 -12.91 
-15.28 103.28 -12.21 
-15.27 103.28 -11.61 
-15.27 103.28 -11.01 
-14.29 103.32 -14.59 
-14.59 103.42 -13.77 
-14.55 103.30 -13.13 
-14.61 103.44 -12.40 
-14.51 103.41 -11.73 
-14.64 103.37 -10.94 
-13.89 103.04 -14.45 
-13.90 103.06 -13.78 
-13.91 103.12 -13.06 
-14.00 103.14 -12.36 
-13.94 103.10 -11.77 
-13.95 103.11 -11.09 
-10.76 103.65 -13.42 
-9.37 103.56 -14.53 
-9.34 103.54 -13.72 
-9.58 103.44 -13.34 
-8.74 103.56 -15.03 
-8.84 103.54 -14.37 
-8.75 103.56 -13.76 
-8.80 103.53 -13.07 
-8.82 103.54 -12.44 
-8.85 103.51 -11.74 
-8.17 103.57 -15.62 
-8.27 103.59 -15.06 
-8.34 103.34 -14.37 
-8.31 103.36 -13.77 
-8.13 103.33 -13.10 
-8.32 103.37 -12.50 
-8.21 103.19 -11.67 
-7.75 103.55 -15.69 
-7.60 103.48 -15.24 
-7.64 103.30 -14.23 
-7.64 103.30 -13.81 
-7.64 103.30 -12.97 
-7.65 103.30 -12.54 
-7.62 103.55 -11.66 
-17.18 104.15 -13.96 
-17.09 104.36 -12.90 
-17.16 104.15 -12.62 
-17.07 104.37 -11.75 
-17.07 104.37 -11.17 
-16.64 104.15 -14.13 
-16.56 104.36 -13.94 
-16.64 104.16 -13.27 
-16.64 104.17 -12.41 
-16.64 104.11 -11.72 
-16.63 104.10 -11.13 
-16.85 104.37 -10.54 
-15.94 104.09 -14.14 
-16.03 104.17 -13.73 
-16.04 104.19 -13.02 
-16.05 104.20 -12.31 
-15.93 104.10 -11.65 
-15.96 104.08 -11.31 
-15.25 103.70 -14.13 
-15.29 103.79 -13.75 
-15.36 103.87 -13.07 
-15.32 103.82 -12.36 
-15.33 103.83 -11.66 
-15.35 103.85 -10.95 
-11.63 104.36 -14.36 
-11.59 104.34 -13.39 
-11.15 104.25 -13.42 
-10.12 104.20 -14.84 
-10.12 104.20 -14.43 
-10.16 104.21 -13.74 
-10.13 104.23 -13.00 
-10.16 104.22 -12.48 
-10.09 104.24 -11.85 
-10.30 103.96 -11.28 
-9.44 103.96 -14.86 
-9.61 103.93 -14.39 
-9.53 103.96 -13.83 
-9.77 104.01 -13.11 
-9.72 104.03 -12.43 
-9.42 103.91 -11.76 
-8.99 104.03 -15.01 
-9.07 103.69 -14.39 
-8.93 103.89 -13.78 
-9.00 103.75 -13.03 
-8.94 103.90 -12.48 
-9.07 103.70 -11.56 
-8.27 103.82 -15.70 
-8.25 103.89 -15.31 
-8.31 103.82 -14.37 
-8.26 103.92 -13.77 
-8.29 103.92 -13.06 
-8.26 103.92 -12.52 
-7.91 103.84 -15.32 
-7.70 103.87 -14.00 
-7.49 103.92 -13.15 
-7.55 103.79 -12.53 
-18.52 104.99 -13.64 
-18.64 104.84 -13.27 
-18.63 104.84 -12.57 
-18.49 104.99 -11.74 
-18.61 104.84 -11.15 
-17.89 104.80 -14.11 
-17.89 104.81 -13.22 
-17.89 104.82 -12.33 
-17.97 104.93 -11.82 
-18.00 104.46 -11.09 
-17.54 105.05 -14.15 
-17.30 104.87 -13.65 
-17.30 104.87 -13.16 
-17.25 104.91 -12.49 
-17.29 104.88 -11.67 
-17.21 104.89 -10.86 
-17.69 104.97 -10.59 
-16.86 104.66 -14.15 
-16.79 104.58 -13.71 
-16.62 104.48 -13.15 
-16.59 104.61 -12.37 
-16.61 104.49 -11.66 
-16.63 104.58 -10.92 
-12.47 104.77 -13.58 
-12.66 104.76 -13.34 
-12.57 104.99 -12.64 
-11.60 104.92 -14.16 
-11.68 104.93 -13.83 
-11.67 105.00 -13.14 
-11.66 104.93 -12.36 
-11.66 104.93 -11.86 
-11.15 104.72 -14.36 
-11.02 104.69 -13.75 
-11.02 104.69 -13.12 
-11.02 104.70 -12.43 
-11.24 104.72 -11.82 
-10.27 104.52 -15.05 
-10.46 104.69 -14.40 
-10.40 104.59 -13.76 
-10.40 104.60 -13.11 
-10.39 104.60 -12.45 
-10.39 104.60 -11.79 
-9.79 104.56 -15.55 
-9.64 104.80 -15.18 
-9.81 104.50 -14.34 
-9.77 104.60 -13.76 
-9.78 104.61 -12.92 
-9.58 104.58 -12.47 
-9.94 104.41 -11.40 
-9.26 104.71 -15.52 
-8.80 104.50 -14.54 
-8.98 104.45 -13.96 
-8.99 104.46 -13.00 
-8.83 104.52 -12.58 
-7.93 104.99 -15.36 
-8.40 104.42 -14.65 
-8.14 104.44 -13.97 
-8.15 104.44 -13.29 
-8.17 104.44 -12.60 
-7.84 104.89 -15.01 
-7.66 104.59 -14.38 
-7.81 104.88 -13.48 
-7.64 104.57 -12.94 
-7.66 104.95 -12.36 
-7.79 104.88 -11.94 
-19.86 105.65 -14.02 
-20.00 105.45 -13.10 
-19.84 105.65 -12.65 
-19.83 105.66 -11.97 
-19.98 105.45 -10.78 
-19.11 105.69 -14.62 
-19.32 105.48 -14.03 
-19.23 105.50 -13.16 
-19.22 105.51 -12.25 
-19.29 105.49 -11.47 
-19.22 105.52 -11.32 
-18.54 105.63 -14.56 
-18.72 105.44 -13.89 
-18.73 105.45 -13.18 
-18.75 105.47 -12.48 
-18.65 105.66 -11.67 
-18.78 105.50 -11.05 
-18.46 105.50 -10.63 
-18.23 105.44 -14.15 
-18.10 105.24 -13.84 
-18.11 105.25 -13.04 
-18.02 105.36 -12.46 
-17.97 105.27 -11.67 
-18.05 105.12 -11.12 
-18.15 105.30 -10.63 
-17.64 105.06 -13.65 
-17.65 105.16 -12.91 
-17.65 105.16 -12.36 
-17.59 105.15 -11.71 
-17.66 105.18 -11.23 
-13.73 105.73 -13.91 
-13.71 105.72 -13.19 
-13.69 105.71 -12.46 
-13.57 105.73 -12.02 
-13.01 105.66 -15.11 
-13.05 105.62 -14.51 
-13.05 105.62 -13.76 
-13.09 105.63 -13.07 
-12.98 105.65 -12.35 
-12.97 105.65 -11.79 
-12.56 105.64 -15.08 
-12.33 105.63 -14.28 
-12.50 105.33 -13.87 
-12.48 105.37 -13.18 
-12.48 105.34 -12.43 
-12.48 105.33 -11.94 
-11.98 105.58 -15.00 
-11.89 105.61 -14.34 
-11.89 105.43 -13.81 
-11.72 105.29 -12.92 
-11.74 105.20 -12.29 
-11.66 104.93 -11.86 
-11.31 105.53 -14.91 
-10.91 105.17 -14.36 
-11.18 105.23 -13.73 
-11.17 105.20 -12.89 
-10.88 105.31 -12.36 
-11.39 105.20 -11.32 
-10.21 105.17 -15.54 
-10.21 105.17 -15.03 
-10.26 105.77 -14.47 
-10.36 105.07 -13.91 
-10.24 105.19 -12.98 
-10.38 105.09 -12.40 
-9.40 105.58 -15.73 
-9.40 105.41 -15.40 
-9.89 105.44 -14.63 
-9.90 105.44 -13.91 
-9.91 105.44 -13.18 
-9.92 105.44 -12.46 
-9.77 105.74 -12.01 
-9.12 105.42 -15.81 
-9.10 105.44 -15.31 
-8.71 105.16 -14.36 
-8.63 105.34 -13.64 
-8.61 105.34 -12.88 
-8.59 105.33 -12.12 
-8.57 105.33 -11.36 
-8.24 105.44 -15.69 
-8.30 105.30 -15.15 
-8.17 105.32 -14.65 
-8.15 105.30 -13.71 
-8.12 105.28 -12.77 
-8.15 105.18 -12.35 
-8.57 105.33 -11.36 
-7.55 105.45 -15.23 
-7.68 105.46 -14.60 
-7.65 105.34 -14.01 
-7.65 105.34 -13.25 
-7.65 105.34 -12.49 
-22.05 106.47 -13.82 
-22.03 106.47 -12.75 
-22.02 106.48 -11.67 
-21.27 106.28 -13.16 
-21.26 106.28 -12.45 
-21.25 106.28 -11.72 
-21.24 106.28 -11.00 
-20.97 106.36 -14.05 
-20.64 106.24 -13.10 
-20.79 106.41 -12.22 
-20.46 106.25 -11.72 
-20.78 106.42 -10.97 
-20.66 105.85 -10.57 
-20.02 106.41 -14.14 
-20.16 106.26 -13.78 
-20.17 106.27 -12.94 
-20.30 106.27 -12.38 
-20.31 106.29 -11.64 
-20.20 106.31 -11.26 
-19.33 105.85 -14.40 
-19.34 106.03 -13.65 
-19.56 106.08 -13.05 
-19.56 106.08 -12.54 
-19.52 106.19 -11.66 
-19.52 106.20 -11.07 
-19.01 105.89 -14.56 
-18.92 105.84 -13.66 
-19.00 105.84 -13.16 
-18.84 105.82 -12.42 
-18.99 105.85 -11.67 
-19.04 105.86 -11.32 
-15.24 106.38 -14.42 
-15.22 106.36 -13.63 
-15.19 106.35 -12.83 
-15.16 106.33 -12.03 
-14.57 106.36 -14.54 
-14.57 106.37 -13.81 
-14.57 106.37 -13.07 
-14.47 106.32 -12.45 
-14.41 106.40 -11.97 
-13.85 106.02 -13.74 
-13.93 106.10 -13.12 
-13.86 106.03 -12.47 
-13.64 106.14 -11.83 
-13.26 105.97 -14.98 
-13.06 106.04 -14.33 
-13.27 106.05 -13.75 
-13.29 105.90 -13.12 
-13.10 106.07 -12.24 
-13.22 105.90 -11.91 
-12.63 105.88 -15.00 
-12.56 105.82 -14.34 
-12.38 106.01 -13.84 
-12.39 106.02 -12.76 
-12.59 105.84 -12.28 
-12.21 106.25 -12.00 
-11.58 106.25 -14.88 
-11.82 105.90 -14.49 
-11.83 105.90 -13.95 
-11.85 105.77 -13.33 
-11.85 105.91 -12.32 
-11.02 106.42 -15.08 
-10.91 105.98 -14.61 
-10.92 105.98 -13.87 
-10.93 105.98 -13.12 
-10.97 106.39 -12.70 
-10.95 106.38 -11.90 
-10.10 106.20 -14.38 
-10.08 106.20 -13.58 
-10.05 106.19 -12.79 
-10.03 106.18 -12.00 
-9.75 106.04 -15.68 
-9.43 106.28 -15.50 
-9.76 106.11 -14.69 
-9.74 106.10 -13.79 
-9.71 106.08 -12.89 
-9.41 105.92 -12.25 
-9.39 105.92 -11.50 
-9.13 106.14 -15.73 
-8.96 106.14 -15.18 
-9.08 105.89 -14.20 
-8.81 106.00 -13.98 
-9.07 105.88 -13.31 
-8.81 105.99 -12.41 
-8.80 105.99 -11.62 
-7.55 106.32 -15.05 
-7.55 106.43 -14.64 
-21.95 107.11 -13.81 
-22.40 107.07 -13.03 
-22.19 107.26 -12.30 
-22.19 107.26 -11.70 
-22.39 107.08 -11.05 
-21.53 107.04 -14.14 
-21.51 106.87 -13.80 
-21.49 106.87 -12.89 
-21.73 106.97 -12.27 
-21.73 106.97 -11.66 
-21.44 106.87 -11.05 
-20.99 106.90 -14.09 
-20.99 106.90 -13.59 
-20.99 106.91 -13.08 
-20.98 106.91 -12.57 
-20.98 106.92 -11.55 
-21.04 107.03 -10.92 
-20.37 106.61 -14.13 
-20.42 106.52 -13.92 
-20.36 106.62 -13.15 
-20.28 106.50 -12.56 
-20.36 106.63 -11.65 
-20.40 106.56 -11.09 
-17.61 107.04 -14.22 
-16.42 106.99 -14.46 
-16.40 106.98 -13.69 
-16.32 107.18 -13.14 
-16.35 107.23 -12.39 
-16.41 107.12 -12.02 
-15.84 106.98 -14.49 
-15.90 107.01 -13.84 
-15.90 107.01 -13.11 
-15.92 107.03 -12.44 
-15.80 107.07 -11.80 
-15.47 106.86 -14.37 
-15.33 106.76 -13.79 
-15.24 106.69 -13.09 
-15.14 106.82 -12.37 
-15.15 106.83 -11.84 
-14.61 106.78 -14.29 
-14.62 106.79 -13.75 
-14.63 106.80 -13.20 
-14.65 106.61 -12.41 
-14.61 106.88 -12.02 
-14.06 106.53 -14.31 
-14.00 106.60 -13.74 
-14.01 106.60 -13.19 
-14.03 106.49 -12.31 
-14.14 106.97 -12.01 
-13.12 107.18 -15.36 
-13.13 107.17 -14.57 
-13.15 107.16 -12.98 
-12.26 107.11 -14.25 
-12.24 107.09 -13.43 
-12.22 107.08 -12.60 
-11.67 106.99 -14.89 
-11.80 107.12 -14.34 
-11.78 107.11 -13.51 
-12.00 106.55 -13.06 
-12.01 106.55 -12.29 
-11.72 107.10 -11.84 
-11.24 106.86 -15.60 
-11.30 106.84 -15.05 
-11.19 106.91 -14.54 
-11.21 106.83 -13.86 
-11.19 106.82 -12.99 
-11.21 106.70 -12.50 
-11.22 106.82 -11.65 
-10.45 107.17 -15.07 
-10.29 106.67 -14.43 
-10.17 107.14 -13.99 
-10.04 106.69 -13.13 
-10.03 106.69 -12.32 
-9.51 106.70 -15.15 
-9.81 106.69 -14.49 
-8.77 106.82 -15.73 
-8.76 106.83 -15.33 
-8.88 107.16 -14.62 
-8.26 107.02 -15.77 
-8.09 107.09 -14.97 
-8.23 106.99 -14.70 
-7.72 106.76 -15.78 
-7.67 106.92 -14.89 
-7.75 106.95 -14.62 
-23.79 107.69 -14.53 
-23.76 107.69 -13.47 
-23.62 107.84 -13.29 
-23.61 107.84 -12.60 
-23.71 107.68 -11.34 
-22.50 107.81 -14.20 
-22.86 107.59 -13.75 
-22.88 107.60 -13.00 
-22.89 107.62 -12.21 
-22.81 107.58 -11.86 
-22.78 107.58 -10.91 
-22.93 107.65 -10.63 
-22.27 107.49 -14.15 
-22.26 107.49 -13.63 
-22.26 107.49 -13.10 
-22.21 107.71 -12.57 
-22.25 107.50 -11.51 
-22.23 107.42 -11.04 
-21.69 107.31 -14.10 
-21.50 107.29 -13.93 
-21.68 107.31 -13.09 
-21.51 107.27 -12.26 
-21.68 107.32 -11.56 
-21.54 107.33 -10.87 
-17.96 107.68 -14.53 
-18.22 107.81 -13.86 
-17.73 107.88 -13.01 
-17.77 107.91 -12.21 
-17.71 107.87 -11.85 
-17.24 107.68 -14.85 
-17.34 107.72 -14.49 
-17.31 107.73 -13.81 
-17.29 107.77 -13.09 
-17.35 107.73 -12.38 
-17.28 107.78 -11.68 
-16.99 107.55 -14.85 
-16.67 107.47 -14.44 
-16.62 107.39 -13.84 
-16.61 107.38 -13.06 
-16.67 107.39 -12.37 
-16.69 107.48 -11.76 
-16.72 107.26 -11.13 
-16.09 107.29 -14.42 
-16.01 107.38 -13.69 
-16.00 107.37 -13.10 
-15.99 107.37 -12.51 
-15.97 107.36 -11.91 
-15.40 107.33 -14.29 
-15.19 107.14 -13.69 
-15.31 107.19 -13.34 
-15.21 107.15 -12.54 
-15.22 107.15 -11.96 
-14.34 107.83 -15.36 
-14.36 107.82 -13.72 
-14.37 107.82 -12.91 
-13.89 107.79 -15.50 
-13.75 107.84 -14.23 
-13.97 107.54 -13.78 
-13.95 107.54 -12.82 
-13.70 107.81 -12.51 
-13.92 107.53 -11.86 
-13.12 107.22 -15.32 
-12.97 107.40 -13.09 
-12.85 107.33 -12.12 
-12.22 107.69 -15.64 
-12.35 107.57 -15.51 
-12.67 107.66 -14.53 
-12.58 107.52 -13.93 
-12.56 107.51 -13.09 
-12.62 107.34 -12.62 
-12.25 107.60 -12.01 
-11.75 107.42 -15.65 
-11.44 107.50 -14.91 
-12.06 107.43 -14.33 
-12.05 107.42 -13.50 
-11.53 107.46 -13.06 
-12.04 107.41 -12.68 
-11.05 107.68 -15.65 
-10.71 107.37 -15.24 
-10.00 107.82 -15.79 
-10.50 107.79 -15.35 
-10.37 107.22 -14.65 
-9.59 107.68 -15.83 
-9.98 107.44 -15.15 
-8.98 107.44 -15.79 
-8.83 107.71 -15.16 
-8.80 107.47 -14.64 
-8.27 107.52 -15.78 
-8.41 107.34 -15.22 
-8.41 107.27 -14.60 
-7.60 107.32 -15.80 
-7.74 107.75 -15.44 
-7.63 107.29 -14.83 
-24.72 108.53 -14.66 
-24.71 108.54 -14.00 
-24.70 108.54 -13.34 
-24.33 108.35 -14.67 
-24.30 108.35 -13.70 
-24.13 108.53 -13.02 
-24.12 108.53 -12.47 
-24.25 108.34 -11.74 
-24.22 108.34 -10.77 
-23.44 108.31 -14.51 
-23.50 108.32 -13.92 
-23.53 108.43 -13.09 
-23.52 108.34 -12.54 
-23.48 108.36 -11.53 
-23.53 108.36 -11.16 
-23.77 108.16 -10.54 
-23.22 107.90 -14.35 
-22.94 108.04 -13.93 
-22.97 108.14 -13.07 
-22.97 108.15 -12.54 
-22.97 108.08 -11.57 
-22.98 108.09 -10.97 
-22.61 107.89 -13.90 
-22.58 107.92 -13.08 
-22.47 107.80 -12.20 
-22.59 107.94 -11.50 
-19.10 108.57 -14.85 
-19.20 108.64 -14.53 
-19.18 108.61 -13.85 
-19.17 108.62 -13.00 
-19.20 108.63 -12.32 
-19.10 108.58 -11.83 
-18.71 108.38 -14.49 
-18.70 108.37 -13.79 
-18.65 108.38 -13.14 
-18.77 108.43 -12.46 
-18.66 108.36 -11.79 
-18.08 108.09 -14.48 
-18.03 108.08 -13.77 
-18.04 108.07 -13.04 
-18.07 108.10 -12.36 
-18.14 108.35 -11.78 
-17.39 107.99 -14.49 
-17.45 108.05 -13.78 
-17.41 108.00 -13.04 
-17.45 107.95 -12.23 
-17.24 108.03 -11.75 
-16.77 107.95 -14.87 
-16.78 107.95 -14.25 
-16.78 107.96 -13.64 
-16.39 107.92 -13.13 
-16.79 107.97 -12.40 
-16.80 107.97 -11.78 
-15.66 108.52 -13.67 
-15.16 108.50 -14.97 
-15.15 108.49 -14.26 
-15.14 108.48 -13.55 
-15.12 108.47 -12.83 
-15.11 108.46 -12.12 
-14.59 108.26 -12.97 
-13.72 108.52 -15.64 
-14.03 108.14 -15.51 
-13.79 108.05 -14.79 
-13.77 108.04 -13.98 
-13.76 108.03 -13.16 
-13.67 108.18 -12.49 
-13.07 108.26 -15.62 
-13.20 107.96 -15.07 
-13.44 108.10 -14.38 
-13.43 108.09 -13.59 
-13.42 108.08 -12.80 
-12.62 108.02 -15.61 
-11.43 108.56 -15.82 
-11.64 108.57 -15.26 
-11.03 108.38 -15.89 
-11.22 107.98 -14.93 
-10.36 108.08 -15.88 
-10.36 108.23 -15.36 
-9.72 108.23 -15.84 
-9.84 108.45 -15.15 
-9.91 108.23 -14.70 
-9.00 107.94 -15.81 
-8.97 108.41 -15.03 
-9.03 108.45 -14.63 
-8.06 108.06 -15.96 
-8.15 107.91 -15.44 
-8.19 107.96 -14.58 
-7.71 108.28 -15.84 
-7.44 108.19 -15.52 
-25.70 109.11 -14.55 
-25.72 109.13 -13.71 
-25.74 109.21 -13.38 
-25.72 109.21 -12.08 
-25.79 109.15 -11.62 
-25.57 109.17 -10.72 
-25.76 109.15 -10.60 
-25.02 109.20 -14.49 
-25.02 109.21 -13.82 
-24.94 109.10 -13.16 
-24.95 109.12 -12.45 
-24.96 109.13 -11.73 
-24.95 108.87 -11.08 
-24.45 108.91 -14.50 
-24.39 108.86 -13.84 
-24.30 108.86 -13.06 
-24.30 108.86 -12.54 
-24.44 108.93 -11.59 
-24.24 108.74 -11.09 
-24.40 108.72 -10.48 
-23.97 108.61 -13.90 
-23.93 108.65 -13.07 
-23.93 108.65 -12.56 
-23.75 108.53 -11.59 
-21.73 108.95 -14.32 
-21.89 109.10 -13.94 
-21.74 108.95 -13.22 
-21.74 108.96 -12.12 
-21.84 109.09 -11.75 
-20.55 109.28 -14.52 
-20.55 109.29 -13.84 
-20.59 109.28 -13.24 
-20.50 109.29 -12.45 
-20.14 109.05 -14.91 
-20.15 109.09 -14.48 
-20.16 109.06 -13.78 
-20.18 109.10 -13.11 
-20.18 109.08 -12.40 
-20.16 109.08 -11.80 
-20.24 109.10 -11.42 
-19.53 108.85 -14.91 
-19.50 108.77 -14.48 
-19.52 108.78 -13.74 
-19.41 108.75 -13.09 
-19.50 108.79 -12.46 
-19.30 108.88 -11.76 
-19.33 108.79 -10.90 
-18.90 108.65 -14.55 
-18.89 108.65 -13.74 
-18.88 108.66 -12.93 
-18.69 108.69 -12.24 
-18.70 108.69 -11.60 
-18.29 108.63 -14.21 
-17.97 108.63 -13.68 
-17.97 108.63 -13.03 
-18.31 108.65 -12.27 
-18.31 108.65 -11.62 
-17.45 109.08 -13.88 
-17.35 109.03 -12.82 
-17.20 109.25 -12.72 
-16.27 109.00 -14.30 
-15.86 108.95 -13.72 
-16.25 108.98 -12.93 
-16.09 109.20 -12.56 
-14.97 108.80 -15.52 
-14.99 108.66 -14.82 
-14.98 108.65 -14.04 
-14.96 108.64 -13.25 
-14.95 108.62 -12.45 
-14.34 108.92 -15.64 
-14.66 109.06 -15.35 
-14.72 108.73 -14.43 
-14.71 108.72 -13.67 
-14.70 108.71 -12.90 
-13.94 108.70 -15.64 
-13.99 108.77 -15.63 
-14.13 108.62 -13.57 
-14.11 108.61 -12.72 
-12.87 109.28 -15.84 
-12.46 109.08 -15.84 
-11.71 108.76 -15.84 
-11.78 108.98 -15.46 
-11.07 108.86 -15.87 
-10.80 108.91 -14.95 
-10.70 109.20 -14.59 
-10.37 108.73 -15.93 
-10.52 108.69 -15.42 
-10.12 108.94 -14.60 
-9.91 109.08 -15.63 
-9.93 108.94 -15.40 
-9.56 108.69 -14.61 
-9.02 109.19 -15.76 
-8.75 108.82 -15.04 
-8.29 109.04 -15.87 
-8.45 109.25 -15.37 
-7.63 108.91 -15.90 
-7.65 108.68 -15.36 
-26.84 109.98 -14.51 
-26.82 109.70 -13.68 
-26.84 109.72 -12.82 
-26.80 109.80 -11.53 
-26.88 109.76 -11.08 
-26.43 109.92 -14.46 
-26.44 109.93 -13.78 
-26.42 109.90 -13.08 
-26.31 109.72 -12.40 
-26.47 109.97 -11.70 
-26.48 109.98 -11.01 
-26.55 109.98 -10.52 
-25.75 109.55 -14.47 
-25.76 109.56 -13.80 
-25.77 109.57 -13.12 
-25.72 109.53 -12.40 
-25.72 109.54 -11.67 
-25.80 109.61 -11.08 
-25.18 109.33 -14.61 
-25.18 109.26 -13.68 
-25.05 109.29 -13.04 
-25.06 109.29 -12.51 
-25.18 109.27 -11.61 
-24.31 109.58 -10.88 
-24.04 109.42 -10.56 
-23.59 109.94 -13.96 
-23.61 109.95 -12.98 
-23.63 109.96 -12.01 
-23.26 109.87 -13.99 
-23.25 109.87 -13.29 
-23.23 109.86 -12.58 
-23.22 109.85 -11.87 
-22.04 109.99 -14.88 
-21.98 109.99 -14.44 
-21.95 109.99 -13.81 
-21.98 109.90 -13.09 
-21.99 109.90 -12.49 
-22.00 109.91 -11.88 
-22.00 109.91 -11.27 
-21.54 109.82 -14.82 
-21.57 109.81 -14.53 
-21.48 109.79 -13.82 
-21.49 109.77 -13.12 
-21.58 109.86 -12.35 
-21.45 109.74 -11.72 
-21.52 109.69 -11.26 
-20.98 109.48 -14.90 
-20.91 109.51 -14.50 
-20.89 109.47 -13.83 
-20.84 109.48 -13.15 
-20.90 109.51 -12.36 
-20.89 109.51 -11.68 
-20.90 109.81 -11.33 
-20.05 109.40 -14.86 
-20.23 109.31 -14.67 
-20.37 109.24 -13.86 
-20.20 109.30 -12.93 
-20.19 109.30 -12.35 
-20.18 109.30 -11.76 
-19.71 109.41 -14.28 
-19.72 109.41 -13.59 
-19.72 109.41 -12.91 
-19.72 109.42 -12.21 
-19.72 109.42 -11.52 
-18.14 109.89 -13.74 
-18.13 109.89 -13.09 
-18.12 109.88 -12.44 
-17.18 109.77 -14.88 
-17.17 109.76 -14.14 
-17.20 109.84 -13.49 
-17.02 109.84 -13.10 
-17.02 109.84 -12.38 
-15.95 109.82 -15.65 
-16.16 109.70 -15.42 
-15.91 109.31 -14.48 
-16.11 109.22 -14.09 
-16.10 109.21 -13.32 
-16.10 109.32 -12.71 
-15.36 109.51 -15.71 
-15.26 109.37 -15.36 
-14.23 109.94 -15.85 
-14.78 109.92 -15.52 
-13.81 109.80 -15.87 
-13.59 109.95 -15.49 
-13.22 109.57 -15.86 
-13.35 109.71 -15.50 
-12.31 109.33 -15.79 
-11.90 109.24 -15.85 
-11.15 109.72 -16.18 
-11.12 109.33 -15.47 
-10.06 109.53 -15.67 
-10.13 109.55 -15.43 
-9.61 109.76 -15.77 
-9.72 109.86 -15.52 
-9.09 109.75 -15.82 
-9.05 109.66 -15.41 
-8.24 109.64 -15.95 
-8.36 109.62 -15.04 
-7.56 109.53 -16.20 
-27.95 110.27 -14.53 
-27.84 110.28 -13.56 
-27.68 110.44 -12.83 
-27.85 110.29 -12.56 
-27.86 110.31 -11.55 
-27.14 110.31 -14.45 
-26.93 110.30 -13.69 
-27.09 110.35 -13.08 
-27.17 110.34 -12.35 
-27.18 110.36 -11.64 
-27.18 110.31 -11.26 
-26.74 110.16 -14.47 
-26.58 110.09 -13.69 
-26.63 110.18 -12.98 
-26.63 110.19 -12.44 
-26.58 110.11 -11.63 
-26.79 110.22 -11.23 
-24.06 110.17 -10.99 
-23.91 110.24 -14.01 
-23.90 110.23 -13.32 
-23.86 110.21 -11.22 
-22.76 110.41 -14.32 
-22.77 110.42 -13.75 
-22.77 110.42 -13.17 
-22.75 110.39 -12.39 
-22.80 110.38 -11.87 
-22.66 110.22 -11.19 
-22.17 110.09 -14.91 
-22.18 110.10 -14.46 
-22.22 110.09 -13.90 
-22.20 110.11 -13.10 
-22.15 110.13 -12.43 
-22.12 110.26 -11.84 
-22.12 110.11 -11.52 
-21.60 110.13 -14.89 
-21.59 110.12 -14.32 
-21.58 110.12 -13.75 
-21.57 110.12 -13.17 
-21.76 110.04 -12.47 
-21.82 110.10 -11.74 
-20.50 110.02 -14.30 
-20.48 110.01 -13.58 
-20.47 110.01 -12.85 
-20.45 110.00 -12.12 
-18.71 110.07 -12.62 
-18.23 110.33 -14.22 
-18.22 110.32 -13.56 
-18.21 110.31 -12.90 
-18.07 110.35 -12.49 
-17.12 110.24 -15.28 
-16.36 110.05 -15.66 
-15.04 110.43 -16.01 
-15.03 110.34 -15.49 
-14.58 110.14 -15.89 
-13.89 110.01 -15.82 
-12.93 110.00 -15.96 
-13.15 110.17 -15.51 
-12.70 110.24 -16.15 
-10.80 110.40 -16.18 
-10.17 110.44 -15.93 
-10.46 110.35 -15.45 
-9.65 110.31 -15.99 
-9.50 110.37 -15.52 
-9.13 110.20 -15.92 
-9.12 109.99 -15.16 
-8.01 110.38 -15.96 
-7.93 110.39 -15.04 
-7.71 110.28 -16.17 
-7.62 110.27 -15.29 
