# .PCD v0.7 - Point Cloud Data file format
VERSION 0.7
FIELDS x y z
SIZE 4 4 4
TYPE F F F
COUNT 1 1 1
WIDTH 1412
HEIGHT 1
VIEWPOINT 0 0 0 1 0 0 0
POINTS 1412
DATA ascii
-22.46 61.58 -16.89 
-19.76 61.38 -16.73 
-19.40 61.37 -16.72 
-21.48 62.54 -16.67 
-24.92 64.29 -16.77 
-27.92 65.30 -16.84 
-26.90 65.11 -16.76 
-26.48 64.89 -16.81 
-23.65 65.08 -16.73 
-29.56 65.83 -16.88 
-28.78 65.99 -16.81 
-27.90 65.60 -16.75 
-31.55 66.57 -16.93 
-30.68 66.80 -16.86 
-29.70 66.43 -16.79 
-27.57 66.87 -16.79 
-32.00 67.37 -16.75 
-31.35 67.25 -16.79 
-30.77 67.56 -16.77 
-26.96 67.36 -16.61 
-31.00 68.36 -16.76 
-9.30 68.29 -16.67 
-31.10 68.47 -16.79 
-17.30 68.63 -16.71 
-9.47 69.54 -16.58 
-9.48 69.54 -16.05 
-8.96 69.43 -16.43 
-10.03 69.97 -16.58 
-10.01 69.97 -16.11 
-9.94 70.07 -15.33 
-9.76 70.25 -16.55 
-9.90 70.02 -15.88 
-9.86 70.35 -15.16 
-9.89 69.92 -14.20 
-9.89 70.30 -14.08 
-9.92 70.27 -12.99 
-9.87 69.93 -12.35 
-8.89 70.03 -16.48 
-9.18 70.47 -14.10 
-9.20 70.40 -13.05 
-9.22 70.38 -12.52 
-8.25 70.28 -16.57 
-8.25 70.28 -16.05 
-7.70 70.37 -16.28 
-7.46 70.40 -15.82 
-7.48 70.40 -15.36 
-10.05 70.49 -16.38 
-9.98 70.53 -15.78 
-10.02 70.53 -15.14 
-10.16 70.53 -14.54 
-9.88 70.69 -13.59 
-10.51 70.97 -13.07 
-10.19 71.32 -12.58 
-9.44 70.54 -16.55 
-9.38 71.05 -16.03 
-9.25 71.12 -15.08 
-9.39 71.09 -14.25 
-9.39 71.11 -13.65 
-9.79 70.74 -13.28 
-9.38 71.16 -12.45 
-9.27 71.12 -11.49 
-9.06 71.03 -16.36 
-9.14 71.05 -15.71 
-8.87 71.14 -14.91 
-8.87 71.05 -14.43 
-8.89 71.14 -13.82 
-8.89 71.14 -13.20 
-8.94 71.18 -12.50 
-8.94 71.18 -11.69 
-8.86 71.14 -11.02 
-8.86 71.14 -10.23 
-9.12 71.04 -9.70 
-7.98 70.86 -16.26 
-7.48 70.91 -16.48 
-7.48 70.90 -16.03 
-7.61 70.60 -14.91 
-9.99 71.47 -16.42 
-10.01 71.49 -15.92 
-10.19 71.30 -14.95 
-10.19 71.30 -14.36 
-10.19 71.31 -13.77 
-10.19 71.31 -13.18 
-10.19 71.32 -12.58 
-10.19 71.32 -11.98 
-9.52 71.25 -16.39 
-9.29 71.33 -15.65 
-9.32 71.39 -14.91 
-9.24 71.18 -14.54 
-9.27 71.33 -14.00 
-9.33 71.38 -13.10 
-9.26 71.33 -12.34 
-9.25 71.33 -11.51 
-9.25 71.51 -11.24 
-9.25 71.50 -10.35 
-8.95 71.34 -16.37 
-8.80 71.29 -16.05 
-8.95 71.34 -14.99 
-8.94 71.34 -14.30 
-8.79 71.22 -13.64 
-8.93 71.34 -12.91 
-8.93 71.34 -12.21 
-8.94 71.18 -11.69 
-8.97 71.39 -11.07 
-8.86 71.14 -10.23 
-9.23 71.34 -9.82 
-7.93 71.31 -16.46 
-8.04 71.53 -16.17 
-7.88 71.42 -16.37 
-7.63 71.53 -16.17 
-10.98 71.95 -16.48 
-10.07 72.55 -16.19 
-9.47 72.26 -16.45 
-9.49 72.26 -15.85 
-8.89 72.11 -16.23 
-8.70 72.31 -16.01 
-8.17 71.87 -16.30 
-7.98 72.22 -16.10 
-7.83 72.35 -16.31 
-7.57 71.97 -16.02 
-10.42 73.30 -16.12 
-10.34 73.17 -15.94 
-9.73 72.80 -16.41 
-9.46 72.85 -16.01 
-8.75 72.88 -16.31 
-8.96 72.96 -15.87 
-8.17 72.85 -16.04 
-7.66 72.90 -15.78 
-10.18 73.70 -16.31 
-10.42 73.30 -16.12 
-9.66 73.86 -16.31 
-9.48 73.86 -15.75 
-8.82 73.59 -16.29 
-9.08 73.70 -15.90 
-8.26 73.53 -15.67 
-7.49 73.42 -15.73 
-9.94 74.18 -16.15 
-9.45 74.05 -15.65 
-8.87 74.45 -15.64 
-8.34 74.42 -15.66 
-7.56 74.39 -15.67 
-9.26 75.20 -15.25 
-9.43 75.30 -14.82 
-9.26 75.21 -13.44 
-9.46 75.31 -13.02 
-9.26 75.21 -12.53 
-9.26 75.21 -11.62 
-9.26 75.22 -10.70 
-9.53 75.27 -10.29 
-9.59 75.35 -9.91 
-8.70 74.85 -15.67 
-8.64 75.29 -14.03 
-8.66 75.30 -13.37 
-8.57 75.44 -12.54 
-8.70 75.34 -11.38 
-8.30 75.16 -15.64 
-8.04 74.99 -15.33 
-8.05 75.00 -14.68 
-8.06 75.02 -14.04 
-8.09 75.35 -13.26 
-8.08 75.35 -12.50 
-8.07 75.35 -11.73 
-7.68 74.94 -15.67 
-7.52 75.24 -14.94 
-7.41 75.02 -14.81 
-7.40 75.03 -14.06 
-7.40 75.03 -13.30 
-7.51 75.26 -12.56 
-7.51 75.26 -11.76 
-9.99 75.58 -15.64 
-9.99 75.56 -14.98 
-10.11 75.82 -14.32 
-10.00 75.52 -13.67 
-10.01 75.50 -13.01 
-10.01 75.48 -12.35 
-10.02 75.46 -11.69 
-9.67 75.98 -15.61 
-9.66 75.98 -14.89 
-9.84 76.02 -14.61 
-9.49 76.04 -13.83 
-9.53 76.01 -13.18 
-9.64 75.99 -12.71 
-9.64 75.99 -11.97 
-9.63 76.00 -11.24 
-8.95 75.67 -15.60 
-9.03 75.69 -14.90 
-9.20 75.72 -14.62 
-8.81 75.67 -14.00 
-8.80 75.68 -13.22 
-8.79 75.68 -12.45 
-8.91 75.68 -11.89 
-9.00 75.70 -11.30 
-8.16 75.70 -15.69 
-7.97 75.78 -14.87 
-7.94 75.90 -14.56 
-8.00 75.72 -13.89 
-8.00 75.72 -13.05 
-8.06 75.66 -12.35 
-8.06 75.66 -11.52 
-8.37 76.04 -11.11 
-7.60 75.99 -15.66 
-7.74 76.06 -14.72 
-7.54 75.80 -10.92 
-13.58 76.57 -16.37 
-12.92 76.31 -16.36 
-11.71 76.66 -16.06 
-11.72 76.67 -15.36 
-11.74 76.69 -14.66 
-11.69 76.75 -13.54 
-11.72 76.77 -12.92 
-11.80 76.73 -12.55 
-11.82 76.75 -11.84 
-10.99 76.59 -15.60 
-11.15 76.58 -15.31 
-11.10 76.44 -14.67 
-11.15 76.59 -13.84 
-11.00 76.63 -13.27 
-10.99 76.64 -12.49 
-10.98 76.64 -11.71 
-11.18 76.51 -11.17 
-10.32 76.28 -15.60 
-10.48 76.26 -15.32 
-10.48 76.27 -14.59 
-10.30 76.42 -13.93 
-10.29 76.31 -13.31 
-10.28 76.31 -12.54 
-10.28 76.31 -11.78 
-10.43 76.30 -11.24 
-9.72 76.42 -15.63 
-9.61 76.38 -14.95 
-9.72 76.53 -14.69 
-9.72 76.43 -13.94 
-9.71 76.44 -13.09 
-9.71 76.44 -12.23 
-9.87 76.42 -11.55 
-9.70 76.55 -11.21 
-8.65 76.47 -15.83 
-8.89 76.47 -15.36 
-8.89 76.47 -14.45 
-8.86 76.35 -13.65 
-9.00 76.50 -12.94 
-8.88 76.48 -12.62 
-8.86 76.36 -11.86 
-8.67 76.47 -11.32 
-7.98 76.30 -15.58 
-7.98 76.49 -14.90 
-7.97 76.50 -14.17 
-8.26 76.38 -13.25 
-8.26 76.38 -12.29 
-7.95 76.51 -11.96 
-7.95 76.52 -11.22 
-7.55 76.45 -15.67 
-7.59 76.35 -15.04 
-7.58 76.35 -14.04 
-7.57 76.36 -13.03 
-7.56 76.36 -12.03 
-7.72 76.07 -11.96 
-7.72 76.08 -11.04 
-17.24 76.94 -16.71 
-15.10 77.21 -16.42 
-14.25 76.83 -16.39 
-13.09 77.31 -16.09 
-12.83 77.30 -15.42 
-13.13 77.34 -14.65 
-12.93 77.36 -13.51 
-13.17 77.37 -13.20 
-13.19 77.38 -12.47 
-13.21 77.40 -11.74 
-12.55 77.22 -16.05 
-12.40 76.99 -15.37 
-12.42 77.01 -14.66 
-12.55 77.24 -13.78 
-12.55 77.25 -13.02 
-12.55 77.25 -12.26 
-12.40 77.11 -11.61 
-11.60 77.21 -15.71 
-11.84 76.90 -15.30 
-11.74 77.17 -14.78 
-11.74 77.17 -13.94 
-11.73 77.18 -13.10 
-11.72 77.18 -12.25 
-11.71 76.97 -11.65 
-11.48 77.28 -11.21 
-10.73 76.80 -15.72 
-10.64 77.32 -15.11 
-10.75 77.18 -14.50 
-10.70 77.10 -13.93 
-10.71 77.11 -13.02 
-10.72 77.12 -12.11 
-10.76 77.21 -11.72 
-11.04 77.03 -11.05 
-10.59 76.84 -15.63 
-10.24 77.11 -15.44 
-10.23 77.11 -14.79 
-10.07 77.06 -13.74 
-10.49 77.07 -13.22 
-10.50 77.10 -12.28 
-10.30 77.24 -11.59 
-10.52 77.11 -11.33 
-9.51 77.23 -15.64 
-9.68 77.26 -15.21 
-9.56 77.27 -14.27 
-9.59 77.28 -13.58 
-9.43 77.18 -12.92 
-9.66 77.08 -12.26 
-9.65 77.09 -11.67 
-9.64 77.26 -10.86 
-8.85 77.16 -15.54 
-8.70 76.87 -15.14 
-8.69 76.88 -14.54 
-8.83 77.18 -13.60 
-8.52 77.05 -13.13 
-8.81 77.20 -12.30 
-8.81 77.20 -11.65 
-9.11 77.01 -10.88 
-8.36 77.09 -15.71 
-8.21 77.22 -15.26 
-8.45 77.16 -14.49 
-8.14 77.41 -13.81 
-8.26 77.36 -13.12 
-8.28 77.38 -12.47 
-8.07 77.32 -11.80 
-8.45 77.18 -11.22 
-7.62 76.96 -15.66 
-7.54 76.84 -15.36 
-7.66 77.00 -14.41 
-7.68 77.01 -13.77 
-7.70 77.03 -13.14 
-7.48 76.97 -12.50 
-7.65 77.26 -11.96 
-7.51 76.99 -11.17 
-16.57 77.79 -16.46 
-14.13 77.94 -16.11 
-14.58 78.01 -15.39 
-14.60 78.03 -14.64 
-14.27 78.03 -13.47 
-14.65 78.06 -13.14 
-14.34 78.08 -12.13 
-14.38 78.10 -11.45 
-13.86 77.97 -15.56 
-13.83 77.66 -15.38 
-13.85 77.97 -14.77 
-13.84 77.98 -13.98 
-13.83 77.98 -13.19 
-13.83 77.98 -12.40 
-13.82 77.98 -11.60 
-13.55 77.94 -11.22 
-13.30 77.72 -15.55 
-13.28 77.57 -15.28 
-13.29 77.72 -14.74 
-13.28 77.72 -13.93 
-13.27 77.73 -13.13 
-13.26 77.73 -12.31 
-13.25 77.73 -11.50 
-13.41 78.09 -11.23 
-12.44 77.71 -15.62 
-12.49 77.64 -14.83 
-12.51 77.79 -14.62 
-12.43 77.72 -13.83 
-12.42 77.72 -12.93 
-12.59 77.58 -12.19 
-12.49 77.80 -11.87 
-12.47 77.65 -11.32 
-11.90 78.03 -15.62 
-11.68 77.92 -15.44 
-11.56 77.87 -14.49 
-11.55 77.87 -13.87 
-11.54 77.87 -13.25 
-11.92 77.89 -12.43 
-11.78 77.70 -11.65 
-11.88 78.03 -11.01 
-10.79 77.48 -15.62 
-10.90 77.87 -15.19 
-10.79 77.60 -14.63 
-10.89 77.87 -14.15 
-10.88 77.88 -13.10 
-10.79 77.45 -12.29 
-10.71 77.58 -11.62 
-10.92 77.99 -10.99 
-10.16 77.66 -15.66 
-10.21 77.79 -15.27 
-10.24 77.81 -14.66 
-10.25 77.72 -13.56 
-10.41 77.74 -12.83 
-10.27 77.83 -12.27 
-10.31 77.86 -11.65 
-10.19 77.77 -10.74 
-9.45 77.92 -15.90 
-9.57 77.77 -15.33 
-9.58 77.73 -14.72 
-9.44 77.92 -13.78 
-9.39 77.73 -13.14 
-9.34 77.81 -12.44 
-9.42 77.92 -11.64 
-9.69 77.68 -11.22 
-9.39 78.09 -10.54 
-8.86 77.73 -15.77 
-8.89 77.75 -15.12 
-8.91 77.77 -14.47 
-8.93 77.79 -13.82 
-9.14 77.81 -12.92 
-9.10 77.94 -12.31 
-9.09 77.94 -11.72 
-8.97 78.09 -11.16 
-8.87 77.72 -10.59 
-8.02 77.83 -15.65 
-8.08 77.84 -15.21 
-8.20 77.76 -14.54 
-8.30 77.87 -13.75 
-8.30 77.87 -13.15 
-8.10 77.78 -12.28 
-8.09 77.78 -11.63 
-8.04 77.79 -10.77 
-7.59 77.97 -15.78 
-7.53 77.80 -15.22 
-7.57 77.83 -14.60 
-7.61 77.86 -13.98 
-7.64 77.89 -13.35 
-7.48 78.01 -12.47 
-7.47 78.02 -11.68 
-7.47 77.54 -11.09 
-19.99 78.86 -16.68 
-18.97 78.74 -16.52 
-18.14 78.41 -16.50 
-16.26 78.82 -12.29 
-16.28 78.84 -11.50 
-15.62 78.63 -16.06 
-15.61 78.64 -15.25 
-15.78 78.87 -14.66 
-15.77 78.88 -13.82 
-15.76 78.88 -12.97 
-15.76 78.72 -12.04 
-15.80 78.75 -11.34 
-15.61 78.67 -11.20 
-15.43 78.70 -15.54 
-14.93 78.47 -15.52 
-15.38 78.39 -14.63 
-15.35 78.80 -13.78 
-15.40 78.71 -13.09 
-15.03 78.36 -12.09 
-15.38 78.71 -11.45 
-15.33 78.81 -11.06 
-14.50 78.36 -16.34 
-14.44 78.43 -15.60 
-14.49 78.36 -15.47 
-14.44 78.44 -14.71 
-14.43 78.44 -13.82 
-14.42 78.44 -12.93 
-14.60 78.34 -12.34 
-14.36 78.57 -11.88 
-14.41 78.44 -11.15 
-13.71 78.45 -15.75 
-13.71 78.45 -15.75 
-13.71 78.46 -14.79 
-13.72 78.47 -13.83 
-13.72 78.48 -12.87 
-13.72 78.48 -12.87 
-13.73 78.49 -11.91 
-13.06 78.60 -15.62 
-13.05 78.41 -15.32 
-13.06 78.60 -14.60 
-13.05 78.61 -13.59 
-13.21 78.75 -13.21 
-13.05 78.61 -12.58 
-13.04 78.62 -11.56 
-12.77 78.48 -10.86 
-12.71 78.47 -15.96 
-12.19 78.51 -15.22 
-12.18 78.50 -14.58 
-12.16 78.50 -13.95 
-12.16 78.51 -13.04 
-12.52 78.45 -12.52 
-12.54 78.39 -11.72 
-12.51 78.46 -11.23 
-11.55 78.58 -15.70 
-11.47 78.59 -15.28 
-11.47 78.59 -14.53 
-11.47 78.58 -13.78 
-11.46 78.58 -13.03 
-11.61 78.65 -12.19 
-11.46 78.57 -11.51 
-11.46 78.36 -11.33 
-10.70 78.61 -15.63 
-10.93 78.24 -15.28 
-10.96 78.37 -14.68 
-11.00 78.39 -13.97 
-10.87 78.24 -13.06 
-11.07 78.43 -12.54 
-10.97 78.26 -11.59 
-11.15 78.47 -11.10 
-10.68 78.63 -10.52 
-10.46 78.58 -15.90 
-10.22 78.56 -15.19 
-10.21 78.56 -14.59 
-10.20 78.56 -13.99 
-10.10 78.47 -13.08 
-10.12 78.49 -12.40 
-10.17 78.56 -11.56 
-10.23 78.83 -11.04 
-9.51 78.71 -15.61 
-9.69 78.54 -14.93 
-9.53 78.39 -14.64 
-9.50 78.55 -13.99 
-9.50 78.55 -13.25 
-9.51 78.55 -12.51 
-9.51 78.56 -11.76 
-9.59 78.46 -11.10 
-8.85 78.35 -15.67 
-8.83 78.40 -14.90 
-8.87 78.38 -14.60 
-8.85 78.35 -13.96 
-8.88 78.45 -13.23 
-8.88 78.44 -12.42 
-8.87 78.51 -11.73 
-9.01 78.42 -11.01 
-8.86 78.25 -10.60 
-8.26 78.22 -15.56 
-8.34 78.31 -15.10 
-8.19 78.63 -14.45 
-8.11 78.59 -13.89 
-8.11 78.58 -13.13 
-8.10 78.38 -12.23 
-8.10 78.36 -11.58 
-8.19 78.58 -10.94 
-8.34 78.61 -10.55 
-7.79 78.28 -15.85 
-7.74 78.52 -15.11 
-7.69 78.64 -14.54 
-7.54 78.66 -13.83 
-7.54 78.65 -13.22 
-7.63 78.59 -12.32 
-7.62 78.59 -11.72 
-7.60 78.66 -10.92 
-7.78 78.66 -10.76 
-22.59 79.33 -16.64 
-20.68 79.36 -16.57 
-19.82 79.08 -16.55 
-18.96 79.38 -16.57 
-17.09 79.34 -16.23 
-17.09 79.34 -16.23 
-17.13 79.37 -15.52 
-17.10 79.48 -14.67 
-17.09 79.49 -13.83 
-17.07 79.48 -12.98 
-17.29 79.47 -12.66 
-17.33 79.52 -11.87 
-17.05 79.49 -11.29 
-16.42 79.41 -15.68 
-16.34 79.15 -15.45 
-16.36 79.27 -14.66 
-16.36 79.27 -13.74 
-16.35 79.27 -12.82 
-16.49 79.08 -12.70 
-16.34 79.27 -11.89 
-16.63 79.29 -11.17 
-15.96 79.53 -15.75 
-15.68 79.30 -15.50 
-15.67 79.30 -14.53 
-15.66 79.30 -13.56 
-16.22 79.09 -13.04 
-15.75 78.88 -12.11 
-16.20 79.09 -11.37 
-15.74 78.88 -11.26 
-15.43 79.06 -15.60 
-15.09 79.28 -15.41 
-15.42 79.06 -14.65 
-15.42 79.07 -13.70 
-15.35 78.92 -12.92 
-15.10 79.30 -12.39 
-15.40 79.07 -11.80 
-15.34 78.93 -11.05 
-14.28 79.19 -15.61 
-14.26 79.31 -15.25 
-14.27 79.20 -14.58 
-14.33 79.33 -13.69 
-14.37 79.35 -12.91 
-14.26 79.20 -12.50 
-14.26 79.21 -11.46 
-14.18 79.00 -11.26 
-13.45 78.87 -15.99 
-13.51 79.17 -15.16 
-13.60 79.07 -14.42 
-13.59 79.07 -13.75 
-13.59 79.07 -13.08 
-13.58 79.07 -12.41 
-13.92 79.12 -11.61 
-13.57 79.07 -11.07 
-13.03 79.48 -15.74 
-13.01 79.25 -15.03 
-13.07 79.28 -14.30 
-12.97 79.49 -13.45 
-13.02 79.52 -12.77 
-13.07 79.56 -12.09 
-13.43 79.18 -11.75 
-13.39 79.16 -11.08 
-12.08 78.94 -16.03 
-12.44 79.13 -15.30 
-12.47 79.15 -14.65 
-12.52 79.16 -13.96 
-12.57 79.19 -13.22 
-12.61 79.21 -12.48 
-12.37 79.13 -11.48 
-12.23 79.33 -10.89 
-11.43 79.21 -15.89 
-11.40 79.24 -15.18 
-11.78 79.35 -14.63 
-11.42 79.21 -13.84 
-11.46 79.30 -13.06 
-11.48 79.32 -12.36 
-11.51 79.34 -11.65 
-12.14 79.17 -11.07 
-11.64 79.23 -10.57 
-10.75 79.33 -15.78 
-10.87 79.16 -15.39 
-10.87 79.16 -14.64 
-10.88 79.17 -13.88 
-10.88 79.17 -13.13 
-10.89 79.18 -12.37 
-10.88 79.21 -11.71 
-10.80 79.37 -11.30 
-11.05 78.88 -10.55 
-10.26 79.33 -15.65 
-10.26 79.33 -14.90 
-10.14 79.23 -14.25 
-10.17 79.18 -13.99 
-10.35 79.34 -13.25 
-10.33 79.18 -12.52 
-10.26 79.36 -11.73 
-10.21 79.22 -11.17 
-10.29 79.50 -10.33 
-9.75 79.01 -15.65 
-9.78 79.10 -15.10 
-9.79 79.12 -14.48 
-9.79 79.13 -13.86 
-9.80 79.14 -13.24 
-9.81 79.16 -12.62 
-9.85 79.12 -11.80 
-9.85 79.12 -11.03 
-8.61 79.12 -15.05 
-8.64 79.12 -14.60 
-8.65 79.10 -13.98 
-8.66 79.08 -13.37 
-8.65 79.04 -12.24 
-8.95 79.11 -11.66 
-8.95 79.10 -10.88 
-8.75 78.90 -10.59 
-8.06 79.02 -14.92 
-8.38 79.23 -14.52 
-8.37 79.23 -13.91 
-8.37 79.23 -13.30 
-8.27 79.17 -12.26 
-8.26 79.17 -11.67 
-8.20 79.18 -11.05 
-8.28 78.98 -10.53 
-7.71 79.26 -15.10 
-7.71 79.26 -14.50 
-7.55 79.07 -13.74 
-7.59 79.35 -12.88 
-7.53 79.33 -12.25 
-7.60 79.32 -11.58 
-7.60 79.31 -10.92 
-7.69 79.50 -10.11 
-21.60 79.72 -16.60 
-19.04 80.14 -16.25 
-19.07 80.16 -15.42 
-19.10 80.18 -14.60 
-19.13 80.20 -13.77 
-19.16 80.22 -12.93 
-19.19 80.24 -12.10 
-19.22 80.26 -11.25 
-18.77 80.17 -16.31 
-18.50 80.26 -15.56 
-18.53 80.07 -15.47 
-18.52 80.08 -14.58 
-18.50 80.08 -13.68 
-18.49 80.08 -12.78 
-18.47 80.27 -12.68 
-18.46 80.27 -11.71 
-17.99 79.89 -15.50 
-18.16 79.73 -15.42 
-17.98 79.90 -14.64 
-17.97 79.90 -13.78 
-18.24 79.79 -12.98 
-18.12 79.89 -12.62 
-18.16 79.91 -11.87 
-18.21 79.94 -11.12 
-17.51 79.92 -15.68 
-17.61 79.72 -15.48 
-17.41 79.75 -14.63 
-17.40 79.76 -13.69 
-17.39 79.76 -12.75 
-17.39 79.76 -12.75 
-17.38 79.76 -11.80 
-17.58 79.81 -11.06 
-16.52 79.58 -15.59 
-16.69 80.17 -15.28 
-16.82 79.84 -14.50 
-16.81 79.85 -13.50 
-16.68 80.18 -13.16 
-16.80 79.85 -12.51 
-16.50 79.59 -11.71 
-16.59 79.86 -10.89 
-15.55 79.81 -15.61 
-15.88 80.19 -15.28 
-15.54 79.81 -14.55 
-15.97 80.22 -13.67 
-16.01 80.24 -12.86 
-16.06 80.26 -12.05 
-15.99 79.57 -11.75 
-16.10 80.27 -11.23 
-15.01 79.73 -16.05 
-15.37 79.97 -15.52 
-15.10 79.76 -14.48 
-15.38 79.97 -13.91 
-15.39 79.97 -13.10 
-15.40 79.97 -12.30 
-15.40 79.98 -11.48 
-15.26 79.82 -11.28 
-14.75 79.73 -15.07 
-14.17 80.06 -14.71 
-14.22 80.08 -13.94 
-14.53 79.68 -12.80 
-14.72 79.74 -12.30 
-14.71 79.74 -11.60 
-14.32 79.95 -11.24 
-13.83 80.00 -15.77 
-13.98 80.03 -15.25 
-13.98 79.69 -14.47 
-13.97 80.03 -13.68 
-13.96 79.69 -13.11 
-13.95 79.69 -12.42 
-13.80 79.66 -11.77 
-13.96 80.02 -11.31 
-13.06 80.01 -15.61 
-13.13 80.06 -15.46 
-13.13 80.06 -14.70 
-13.12 80.06 -13.93 
-13.12 80.06 -13.16 
-13.04 80.00 -12.48 
-13.03 80.00 -11.70 
-12.78 80.13 -11.16 
-12.36 79.83 -15.89 
-12.18 79.97 -15.36 
-12.20 79.99 -14.61 
-12.22 80.00 -13.86 
-12.23 80.02 -13.11 
-12.25 80.03 -12.36 
-12.26 80.04 -11.60 
-12.35 80.16 -11.12 
-12.03 80.27 -10.32 
-11.53 80.08 -15.67 
-11.80 79.98 -15.05 
-11.81 79.99 -14.30 
-11.50 79.98 -14.03 
-11.50 79.98 -13.20 
-11.53 80.08 -12.49 
-11.53 80.08 -11.69 
-11.52 79.99 -11.12 
-11.87 79.96 -10.47 
-11.04 79.81 -15.65 
-11.04 79.81 -14.90 
-11.04 79.81 -14.16 
-10.95 79.71 -14.07 
-11.06 79.87 -13.35 
-10.93 79.78 -12.60 
-10.93 79.78 -11.84 
-10.93 79.78 -11.07 
-10.60 79.62 -15.09 
-10.44 80.00 -14.63 
-10.47 80.03 -13.96 
-10.62 79.66 -13.18 
-10.55 80.09 -12.60 
-10.30 79.71 -11.92 
-10.27 80.18 -10.73 
-10.22 79.92 -10.36 
-9.54 79.65 -12.77 
-9.79 79.69 -10.81 
-8.73 80.12 -13.90 
-8.73 80.11 -13.11 
-8.73 80.10 -12.32 
-8.73 80.09 -11.53 
-8.81 79.92 -10.65 
-8.97 79.62 -10.43 
-8.17 80.06 -14.25 
-8.07 79.74 -13.90 
-8.07 79.74 -13.28 
-8.14 79.74 -12.28 
-8.03 79.95 -11.62 
-8.05 79.91 -10.98 
-8.28 79.87 -10.43 
-7.53 79.87 -14.35 
-7.59 80.02 -13.84 
-7.61 79.97 -13.18 
-7.63 79.92 -12.51 
-7.67 79.99 -11.58 
-7.65 79.93 -11.19 
-7.68 79.94 -10.41 
-7.77 79.96 -9.93 
-20.00 80.58 -16.28 
-20.14 80.79 -16.07 
-19.82 80.68 -15.47 
-19.81 80.68 -14.58 
-19.80 80.68 -13.69 
-19.86 80.73 -13.29 
-19.90 80.76 -12.52 
-19.95 80.79 -11.74 
-19.72 80.64 -15.58 
-19.46 80.61 -15.40 
-19.45 80.61 -14.45 
-19.43 80.61 -13.49 
-19.42 80.61 -12.53 
-19.40 80.61 -11.57 
-18.65 80.46 -15.67 
-18.91 80.33 -15.48 
-18.64 80.46 -14.69 
-18.63 80.46 -13.70 
-18.87 80.33 -12.86 
-18.62 80.46 -12.71 
-18.61 80.47 -11.72 
-18.85 80.33 -11.10 
-18.02 80.41 -15.48 
-18.01 80.81 -14.18 
-18.00 80.41 -13.45 
-18.01 80.82 -13.10 
-17.99 80.41 -12.43 
-18.00 80.82 -12.01 
-17.57 80.46 -15.39 
-17.07 80.93 -14.61 
-16.94 80.81 -13.86 
-17.04 80.92 -12.98 
-16.96 80.82 -12.19 
-17.01 80.91 -11.35 
-16.97 80.75 -11.17 
-16.88 80.45 -15.60 
-16.93 80.81 -15.51 
-16.87 80.46 -14.52 
-16.83 80.69 -13.66 
-16.95 80.82 -13.02 
-16.86 80.47 -12.34 
-16.93 80.73 -12.00 
-16.86 80.47 -11.25 
-16.06 80.90 -15.91 
-16.12 80.61 -15.05 
-16.11 80.61 -14.32 
-16.10 80.61 -13.60 
-16.09 80.61 -12.87 
-16.16 80.39 -12.24 
-16.07 80.61 -11.41 
-15.06 80.76 -16.05 
-15.27 80.46 -15.13 
-15.13 80.82 -14.64 
-15.12 80.58 -13.93 
-15.17 80.60 -13.14 
-15.22 80.63 -12.35 
-15.27 80.66 -11.54 
-15.30 80.74 -11.20 
-14.31 80.74 -15.60 
-14.24 80.88 -15.16 
-14.31 80.75 -14.68 
-14.31 80.75 -13.89 
-14.31 80.75 -13.11 
-14.28 80.73 -12.41 
-14.28 80.73 -11.61 
-14.15 80.83 -11.08 
-13.68 80.37 -15.60 
-13.77 80.56 -15.39 
-13.77 80.57 -14.58 
-13.77 80.57 -13.78 
-13.77 80.57 -12.97 
-13.59 80.52 -12.22 
-13.61 80.54 -11.48 
-13.52 80.39 -10.65 
-13.88 80.61 -10.46 
-13.05 80.93 -15.61 
-12.86 80.61 -15.06 
-12.87 80.62 -14.31 
-13.09 80.71 -13.98 
-13.10 80.71 -13.23 
-13.10 80.71 -12.48 
-13.11 80.71 -11.72 
-12.90 80.65 -11.26 
-12.35 80.60 -15.64 
-12.35 80.60 -14.91 
-12.40 80.75 -14.41 
-12.54 80.62 -14.12 
-12.30 80.61 -13.33 
-12.30 80.61 -12.55 
-12.45 80.72 -11.82 
-12.35 80.61 -11.18 
-12.69 80.53 -10.35 
-11.80 80.29 -15.65 
-11.92 80.39 -14.88 
-11.85 80.29 -14.17 
-11.60 80.57 -13.95 
-11.91 80.39 -13.34 
-11.91 80.39 -12.57 
-11.91 80.39 -11.80 
-11.91 80.39 -11.02 
-11.08 80.44 -15.33 
-11.12 80.47 -14.64 
-11.16 80.50 -13.95 
-11.20 80.53 -13.26 
-11.24 80.56 -12.56 
-11.28 80.59 -11.86 
-11.14 80.36 -10.82 
-10.82 80.74 -10.43 
-10.52 80.65 -10.63 
-10.11 80.58 -10.58 
-9.78 80.69 -10.27 
-8.77 80.68 -13.69 
-8.75 80.70 -12.83 
-8.94 80.47 -10.48 
-7.98 80.29 -14.47 
-7.95 80.28 -13.92 
-7.86 80.49 -11.25 
-7.88 80.45 -10.59 
-7.66 80.67 -14.47 
-7.50 80.68 -13.70 
-7.53 80.70 -12.96 
-7.64 80.59 -12.19 
-7.66 80.55 -11.54 
-7.68 80.51 -10.88 
-7.65 80.66 -10.43 
-7.76 80.51 -9.87 
-21.15 81.27 -16.07 
-20.99 81.05 -16.30 
-20.83 81.34 -15.53 
-20.81 81.14 -15.45 
-20.55 81.02 -14.51 
-20.76 81.16 -14.04 
-20.52 81.02 -12.64 
-19.84 81.01 -15.66 
-19.28 81.00 -15.47 
-19.27 81.00 -14.43 
-19.26 81.00 -13.39 
-19.25 81.00 -12.34 
-18.89 81.12 -11.06 
-18.57 81.64 -15.35 
-18.89 81.10 -14.31 
-18.89 81.11 -13.23 
-18.89 81.11 -12.15 
-18.89 81.12 -11.06 
-17.64 81.14 -15.33 
-17.75 81.26 -14.67 
-17.73 81.17 -13.65 
-17.78 81.19 -12.80 
-17.77 81.26 -12.13 
-17.83 81.21 -11.96 
-17.88 81.23 -11.10 
-17.22 81.53 -15.96 
-17.30 81.57 -15.14 
-17.47 81.41 -14.28 
-17.46 81.41 -13.52 
-17.45 81.41 -12.76 
-17.44 81.41 -12.00 
-17.43 81.41 -11.24 
-16.73 81.57 -16.03 
-16.73 81.56 -15.20 
-16.66 81.31 -14.38 
-16.65 81.31 -13.63 
-16.64 81.31 -12.89 
-16.52 81.16 -12.27 
-16.52 81.18 -11.45 
-16.71 81.55 -11.07 
-16.04 81.52 -15.81 
-16.10 81.56 -15.08 
-16.01 81.15 -14.40 
-15.60 81.56 -13.95 
-15.54 81.47 -13.06 
-15.54 81.47 -12.26 
-15.73 81.24 -11.78 
-15.99 81.14 -11.13 
-15.00 81.32 -15.92 
-14.99 81.40 -15.20 
-15.06 81.37 -14.41 
-15.07 81.53 -13.96 
-15.11 81.42 -12.88 
-15.14 81.45 -12.11 
-14.92 81.16 -11.55 
-15.15 81.52 -11.25 
-14.54 81.50 -15.70 
-14.41 81.24 -15.37 
-14.43 81.26 -14.58 
-14.45 81.27 -13.79 
-14.47 81.29 -13.00 
-14.48 81.30 -12.21 
-14.56 81.52 -11.80 
-14.50 81.32 -11.41 
-14.41 81.58 -10.47 
-13.73 81.42 -15.64 
-13.73 81.42 -14.89 
-13.73 81.43 -14.15 
-13.82 81.48 -14.06 
-13.77 81.46 -13.36 
-13.77 81.51 -12.57 
-13.77 81.51 -11.79 
-13.74 81.43 -11.14 
-13.22 81.10 -15.64 
-13.23 81.10 -14.89 
-13.18 81.18 -14.14 
-13.33 81.13 -14.07 
-13.21 81.16 -13.33 
-13.22 81.16 -12.55 
-13.22 81.16 -11.76 
-13.18 81.18 -11.11 
-12.36 81.13 -15.38 
-12.41 81.17 -14.66 
-12.46 81.21 -13.94 
-12.66 81.53 -13.21 
-12.71 81.55 -12.48 
-12.61 81.34 -11.75 
-12.67 81.38 -11.01 
-12.22 81.39 -10.54 
-11.87 80.98 -13.94 
-11.92 81.02 -13.24 
-11.96 81.05 -12.53 
-12.00 81.07 -11.81 
-11.91 81.17 -10.68 
-11.59 81.33 -10.04 
-10.92 81.03 -10.65 
-10.92 81.03 -10.65 
-10.37 81.44 -10.51 
-9.57 81.13 -10.39 
-8.28 81.02 -14.45 
-8.27 81.02 -13.65 
-7.79 81.24 -13.18 
-7.87 81.22 -12.32 
-8.27 81.01 -11.21 
-8.26 81.01 -10.39 
-7.80 81.23 -14.82 
-7.79 81.24 -14.00 
-7.43 81.22 -13.03 
-7.43 81.21 -12.32 
-7.44 81.20 -11.61 
-7.77 81.24 -10.70 
-23.26 82.17 -16.08 
-22.92 82.12 -16.36 
-22.87 82.25 -15.65 
-22.21 81.76 -16.08 
-22.07 81.91 -15.52 
-21.82 81.73 -15.63 
-19.43 82.18 -15.39 
-19.35 82.20 -14.56 
-19.33 82.19 -13.69 
-19.50 82.20 -12.89 
-19.50 82.20 -12.01 
-19.51 82.20 -11.12 
-18.98 82.29 -15.81 
-18.60 81.71 -15.51 
-18.62 81.66 -14.49 
-18.61 81.72 -13.80 
-18.62 81.72 -12.93 
-18.62 81.72 -12.07 
-18.77 81.72 -11.91 
-18.82 81.74 -11.03 
-18.35 81.84 -10.59 
-17.98 82.13 -15.59 
-18.22 82.24 -15.10 
-18.20 82.24 -14.32 
-18.19 82.24 -13.54 
-18.18 82.24 -12.76 
-18.05 82.01 -12.13 
-18.16 82.23 -11.98 
-18.15 82.23 -11.19 
-17.04 82.14 -15.85 
-17.46 81.99 -15.19 
-17.46 81.98 -14.36 
-17.21 82.27 -13.58 
-17.27 82.16 -13.11 
-17.31 82.11 -12.57 
-17.44 81.98 -11.84 
-17.44 81.97 -11.00 
-16.51 82.14 -15.57 
-16.70 82.34 -15.17 
-16.55 82.17 -14.78 
-16.58 82.20 -14.00 
-16.26 81.95 -13.10 
-16.25 81.95 -12.27 
-16.69 82.28 -11.62 
-15.91 82.07 -15.88 
-15.82 81.90 -15.20 
-15.93 81.95 -14.53 
-15.93 81.95 -13.68 
-15.89 82.07 -13.04 
-15.89 82.07 -12.09 
-15.72 82.22 -11.75 
-15.89 82.07 -11.13 
-15.06 82.25 -15.68 
-15.03 81.96 -15.08 
-15.04 81.96 -14.31 
-15.23 81.96 -13.97 
-15.19 82.20 -13.24 
-15.19 82.20 -12.43 
-15.06 82.24 -11.73 
-15.02 82.29 -11.10 
-14.57 82.01 -15.65 
-14.47 81.96 -14.90 
-14.47 81.96 -14.14 
-14.59 81.82 -14.04 
-14.47 81.96 -13.38 
-14.47 81.96 -12.61 
-14.47 81.96 -11.85 
-14.47 81.96 -11.08 
-14.06 81.71 -14.90 
-14.05 81.69 -14.17 
-14.21 81.82 -14.15 
-14.00 81.71 -13.40 
-14.01 81.71 -12.65 
-14.01 81.71 -11.90 
-14.06 81.71 -11.10 
-13.73 82.19 -10.14 
-13.32 81.96 -15.38 
-13.22 81.72 -14.67 
-13.40 82.03 -13.92 
-13.33 81.81 -13.19 
-13.38 81.85 -12.44 
-13.43 81.89 -11.69 
-12.97 81.69 -10.68 
-12.91 82.18 -10.53 
-13.39 82.15 -9.91 
-12.56 82.32 -10.49 
-11.46 81.81 -10.27 
-10.91 81.98 -10.46 
-10.58 82.13 -10.32 
-25.41 83.04 -16.42 
-24.41 82.70 -16.08 
-19.07 82.71 -15.62 
-19.32 82.84 -12.13 
-19.36 82.80 -11.73 
-19.38 82.87 -11.25 
-18.38 82.96 -15.91 
-18.99 82.86 -15.17 
-18.98 82.85 -13.45 
-18.40 82.86 -13.05 
-18.98 82.85 -12.58 
-18.97 82.85 -11.72 
-18.10 82.80 -15.89 
-18.28 82.76 -15.40 
-18.17 83.03 -14.59 
-17.67 82.93 -13.56 
-18.17 83.04 -12.92 
-18.33 82.75 -12.52 
-17.73 82.99 -11.92 
-18.16 83.03 -11.25 
-17.46 82.70 -15.58 
-17.49 82.93 -15.35 
-17.50 82.64 -14.60 
-17.50 82.64 -13.78 
-17.50 82.64 -12.96 
-17.49 82.65 -12.13 
-17.49 82.94 -11.87 
-17.49 82.65 -11.30 
-16.50 82.94 -15.69 
-16.67 82.78 -15.41 
-16.67 82.79 -14.60 
-16.68 82.79 -13.78 
-16.70 82.60 -13.08 
-16.50 82.94 -12.47 
-16.50 82.94 -11.66 
-16.69 82.60 -11.19 
-15.82 82.80 -15.65 
-15.88 82.82 -14.90 
-15.88 82.82 -14.16 
-15.79 82.73 -13.94 
-15.79 82.75 -13.35 
-15.79 82.75 -12.58 
-15.79 82.75 -11.80 
-15.89 82.83 -11.14 
-15.40 82.53 -15.68 
-15.32 82.49 -14.91 
-15.37 82.50 -14.16 
-15.23 82.46 -14.16 
-15.32 82.50 -13.43 
-15.40 82.53 -12.62 
-15.38 82.50 -11.91 
-15.40 82.53 -11.07 
-14.88 82.88 -10.44 
-14.13 82.52 -15.40 
-14.18 82.56 -14.66 
-14.22 82.59 -13.90 
-14.18 82.39 -13.16 
-14.31 82.66 -12.39 
-14.29 82.47 -11.63 
-14.48 82.41 -10.80 
-14.16 82.87 -10.58 
-13.77 82.72 -10.86 
-13.60 82.50 -10.56 
-12.95 82.91 -10.42 
-12.56 82.32 -10.49 
-11.46 82.53 -10.40 
-11.10 82.40 -10.31 
-10.16 82.87 -13.68 
-9.97 82.78 -13.03 
-10.12 82.94 -12.04 
-10.09 82.98 -11.22 
-10.48 82.57 -10.17 
-9.82 82.59 -13.96 
-9.67 82.68 -13.29 
-9.73 82.74 -12.36 
-9.90 82.90 -11.41 
-9.65 82.90 -10.77 
-9.87 82.95 -10.60 
-8.98 83.03 -14.21 
-9.12 82.84 -13.30 
-9.13 82.82 -12.32 
-8.91 82.74 -11.75 
-8.88 82.78 -10.91 
-9.14 82.78 -10.36 
-8.30 82.89 -14.35 
-8.03 82.81 -9.66 
-7.40 82.75 -9.83 
-26.49 83.73 -16.38 
-25.76 83.60 -16.38 
-25.62 83.27 -16.09 
-25.20 83.14 -16.38 
-20.62 83.26 -15.83 
-19.94 83.28 -15.91 
-19.90 83.28 -13.44 
-19.78 83.31 -13.40 
-19.78 83.30 -12.53 
-19.77 83.30 -11.65 
-19.22 83.50 -15.94 
-19.62 83.68 -15.42 
-19.14 83.67 -14.67 
-19.13 83.67 -13.80 
-19.33 83.36 -13.27 
-19.11 83.66 -12.06 
-19.10 83.65 -11.19 
-18.50 83.39 -16.01 
-18.87 83.44 -15.41 
-18.86 83.44 -14.57 
-18.86 83.44 -13.73 
-18.57 83.39 -13.12 
-18.61 83.41 -12.29 
-18.65 83.45 -11.45 
-18.47 83.08 -11.17 
-17.91 83.76 -15.89 
-17.95 83.58 -15.41 
-17.95 83.58 -14.58 
-18.01 83.62 -13.94 
-18.01 83.62 -13.16 
-18.02 83.63 -12.37 
-18.03 83.63 -11.58 
-17.97 83.61 -11.24 
-17.48 83.34 -15.71 
-17.29 83.65 -14.92 
-17.34 83.41 -14.29 
-17.44 83.28 -13.95 
-17.28 83.62 -13.30 
-17.28 83.62 -12.52 
-17.29 83.65 -11.82 
-17.30 83.64 -11.04 
-16.58 83.27 -15.65 
-16.63 83.32 -14.91 
-16.58 83.27 -14.17 
-16.74 83.25 -14.08 
-16.58 83.27 -13.42 
-16.58 83.27 -12.66 
-16.59 83.26 -11.91 
-16.63 83.32 -11.17 
-15.84 83.62 -15.45 
-16.03 83.64 -13.10 
-16.09 83.69 -12.29 
-16.15 83.74 -11.48 
-16.05 83.24 -10.77 
-14.99 83.11 -15.43 
-15.08 83.18 -13.89 
-15.13 83.21 -13.12 
-15.20 83.09 -11.56 
-14.27 83.35 -10.44 
-13.08 83.51 -10.23 
-13.11 83.42 -9.68 
-12.54 83.35 -10.33 
-11.94 83.56 -10.28 
-10.24 83.24 -13.29 
-10.25 83.22 -12.27 
-10.25 83.20 -11.25 
-9.78 83.17 -14.13 
-9.78 83.14 -13.17 
-9.79 83.12 -12.22 
-9.79 83.10 -11.26 
-8.89 83.65 -14.03 
-8.89 83.65 -14.03 
-8.86 83.67 -13.18 
-8.84 83.70 -12.33 
-8.82 83.72 -11.48 
-8.89 83.13 -10.83 
-9.18 83.54 -10.17 
-8.73 83.50 -9.67 
-8.34 83.76 -14.28 
-7.93 83.23 -9.81 
-28.21 84.47 -16.09 
-28.01 84.26 -16.50 
-20.64 83.86 -16.02 
-20.42 84.24 -15.99 
-19.90 84.06 -15.52 
-19.89 84.06 -14.65 
-19.88 84.05 -13.77 
-19.87 84.05 -12.89 
-20.28 84.27 -11.94 
-19.85 84.04 -11.13 
-19.50 83.77 -15.94 
-19.28 84.36 -15.41 
-19.29 84.36 -14.57 
-19.29 84.37 -13.72 
-19.30 84.38 -12.87 
-19.65 84.09 -12.61 
-19.63 84.09 -11.78 
-19.61 84.08 -10.95 
-18.59 84.37 -15.68 
-18.52 84.14 -15.09 
-18.53 84.15 -14.29 
-18.57 83.98 -13.93 
-18.60 84.38 -13.35 
-18.60 84.38 -12.57 
-18.60 84.37 -11.79 
-18.48 84.41 -11.13 
-17.96 84.09 -15.67 
-17.95 84.10 -14.90 
-17.96 84.09 -14.16 
-18.22 84.25 -14.00 
-17.96 84.11 -13.38 
-17.96 84.11 -12.62 
-17.96 84.11 -11.86 
-17.96 84.11 -11.09 
-17.52 83.90 -15.64 
-17.52 83.90 -14.90 
-17.61 83.91 -14.18 
-17.62 83.88 -13.98 
-17.52 83.90 -13.42 
-17.60 83.92 -12.66 
-17.53 83.90 -11.93 
-17.44 83.79 -11.11 
-16.84 84.18 -15.52 
-16.53 83.82 -10.61 
-16.09 83.80 -11.49 
-9.34 84.03 -13.18 
-9.36 83.97 -10.35 
-9.72 84.24 -9.79 
-9.19 84.38 -9.35 
-8.31 83.79 -13.47 
-8.28 83.82 -12.66 
-8.25 83.85 -11.85 
-8.22 83.88 -11.04 
-7.99 84.36 -9.29 
-7.63 84.35 -9.50 
-29.42 84.92 -16.54 
-27.93 84.48 -16.39 
-22.39 84.86 -16.02 
-21.43 84.62 -15.76 
-20.62 84.50 -15.98 
-21.04 84.71 -15.39 
-20.03 84.92 -15.73 
-19.97 84.79 -15.41 
-19.97 84.79 -14.56 
-19.98 84.80 -13.70 
-20.05 84.93 -13.21 
-20.06 84.93 -12.37 
-20.06 84.94 -11.52 
-19.99 84.82 -11.11 
-19.35 84.78 -15.70 
-19.35 84.78 -14.92 
-19.25 84.97 -14.18 
-19.38 84.98 -14.02 
-19.45 84.99 -13.42 
-19.35 84.77 -12.58 
-19.35 84.77 -11.79 
-19.36 85.02 -11.15 
-19.31 84.60 -10.62 
-18.75 84.66 -15.65 
-18.75 84.66 -14.92 
-18.75 84.66 -14.18 
-18.80 84.62 -14.01 
-18.84 84.70 -13.42 
-18.75 84.66 -12.69 
-18.84 84.70 -11.92 
-18.75 84.66 -11.20 
-17.89 84.90 -15.56 
-17.77 84.94 -15.50 
-18.08 84.56 -10.70 
-14.11 84.86 -10.12 
-9.81 84.65 -9.55 
-8.95 84.95 -9.54 
-8.35 84.82 -9.48 
-8.34 84.54 -9.03 
-7.50 85.02 -9.33 
-21.79 85.26 -16.01 
-20.70 85.28 -15.73 
-20.67 85.22 -15.41 
-20.68 85.23 -14.55 
-20.72 85.29 -14.04 
-20.72 85.29 -13.19 
-20.97 85.42 -12.26 
-20.73 85.30 -11.49 
-20.70 85.28 -11.06 
-20.03 85.39 -15.67 
-20.03 85.39 -14.93 
-20.03 85.39 -14.18 
-20.10 85.40 -14.03 
-20.09 85.44 -13.35 
-20.09 85.44 -12.57 
-20.09 85.44 -11.79 
-19.98 85.32 -11.15 
-19.63 85.17 -15.67 
-19.63 85.17 -14.93 
-19.63 85.17 -14.19 
-19.63 85.17 -13.45 
-19.63 85.17 -13.45 
-19.65 85.21 -12.69 
-19.65 85.21 -11.95 
-19.64 85.22 -11.20 
-9.48 85.37 -9.53 
-8.54 85.31 -9.38 
