# .PCD v0.7 - Point Cloud Data file format
VERSION 0.7
FIELDS x y z
SIZE 4 4 4
TYPE F F F
COUNT 1 1 1
WIDTH 706
HEIGHT 1
VIEWPOINT 0 0 0 1 0 0 0
POINTS 706
DATA ascii
6.12 211.01 -9.97 
6.13 210.82 -9.08 
6.17 211.21 -9.09 
-4.09 226.52 -6.22 
-3.50 226.25 -6.68 
-3.41 226.33 -5.90 
-5.81 227.27 -7.57 
-4.15 227.16 -6.83 
-3.95 227.04 -6.21 
-3.78 226.78 -6.67 
-3.41 226.96 -6.15 
-1.13 226.85 -6.52 
-1.13 227.20 -6.42 
-1.07 227.15 -6.55 
-7.23 227.79 -7.07 
-6.20 227.34 -7.14 
-5.81 227.39 -7.48 
-5.58 227.83 -6.89 
-5.03 227.61 -7.57 
-4.52 227.93 -7.59 
-4.16 227.72 -6.86 
-4.06 227.58 -6.16 
-1.81 227.88 -6.43 
-1.17 227.65 -6.50 
-1.18 227.87 -6.30 
-0.73 227.96 -6.72 
0.17 227.86 -5.55 
0.12 227.83 -4.80 
0.48 227.98 -5.48 
14.41 227.94 -5.33 
-7.37 228.22 -6.62 
-7.04 228.62 -6.35 
-6.01 228.52 -7.34 
-6.49 228.06 -6.96 
-6.33 228.52 -6.07 
-6.13 228.38 -5.63 
-5.59 228.41 -7.43 
-5.45 228.68 -6.78 
-5.45 228.04 -6.42 
-4.98 228.68 -7.46 
-4.61 228.16 -6.79 
-4.27 228.47 -7.40 
-4.30 228.18 -6.82 
-4.05 228.25 -4.49 
-3.76 228.43 -6.21 
-3.82 228.31 -5.78 
-1.83 228.12 -6.53 
-2.25 228.54 -5.07 
-1.35 228.05 -6.48 
-0.57 228.39 -6.65 
-1.07 228.31 -6.30 
0.03 228.26 -5.51 
-0.11 228.40 -4.78 
0.58 228.38 -7.78 
0.70 228.15 -6.09 
0.73 228.51 -5.19 
1.48 228.47 -8.06 
14.01 228.21 -6.76 
13.72 228.46 -5.85 
14.19 228.47 -5.32 
14.40 228.48 -6.08 
14.44 228.45 -5.43 
-7.06 228.76 -6.39 
-6.25 228.72 -6.25 
-5.42 229.31 -7.29 
-5.32 229.07 -7.10 
-5.90 228.84 -6.24 
-4.86 229.02 -6.62 
-4.55 229.09 -7.45 
-4.54 228.76 -6.72 
-4.00 228.74 -5.98 
-3.63 229.11 -7.66 
-3.64 229.12 -7.14 
-3.04 229.22 -7.57 
-2.62 229.11 -7.04 
-2.50 229.36 -5.09 
-1.93 228.87 -5.05 
-0.72 229.16 -6.89 
-0.92 228.96 -5.94 
-0.40 228.92 -4.76 
0.03 229.26 -7.71 
-0.27 229.27 -6.77 
0.23 228.95 -6.44 
0.99 229.05 -8.84 
0.88 229.17 -8.13 
0.72 229.10 -7.79 
1.22 229.02 -8.77 
1.43 229.05 -8.25 
1.35 228.83 -7.77 
2.04 229.03 -8.23 
1.81 229.02 -7.76 
2.52 229.06 -8.23 
3.83 229.05 -5.79 
3.95 228.99 -5.66 
11.46 229.35 -5.95 
12.61 229.36 -5.26 
13.14 229.15 -7.30 
13.41 229.01 -6.08 
13.88 229.16 -7.25 
14.25 228.92 -5.75 
-5.22 229.66 -7.38 
-4.26 229.59 -7.24 
-4.41 229.90 -7.09 
-3.26 229.46 -7.25 
-3.81 229.93 -7.07 
-2.88 229.55 -7.71 
-2.70 229.69 -7.17 
-2.04 230.09 -7.90 
-2.43 229.75 -7.81 
-1.89 229.99 -6.92 
-1.90 229.63 -5.12 
-2.11 229.76 -4.90 
-1.17 230.10 -6.50 
-0.62 229.74 -7.69 
-0.86 229.84 -6.98 
-0.92 229.66 -6.29 
-0.18 229.71 -6.91 
0.71 229.89 -7.97 
0.82 229.88 -7.68 
0.54 229.76 -6.46 
1.35 229.72 -8.71 
1.37 229.67 -8.42 
1.26 229.54 -7.86 
2.20 229.70 -8.61 
1.95 229.74 -8.13 
1.77 229.75 -7.84 
3.03 230.06 -6.93 
3.63 229.94 -7.51 
3.46 229.79 -7.03 
3.58 229.92 -6.25 
3.65 229.97 -5.54 
4.44 229.73 -7.21 
4.27 230.07 -7.18 
3.90 229.42 -6.29 
3.90 229.43 -5.56 
9.65 230.09 -6.95 
11.22 230.10 -5.39 
12.20 229.64 -5.98 
12.77 229.42 -6.91 
12.50 230.13 -6.01 
12.90 229.64 -5.41 
13.25 230.10 -6.71 
14.03 229.71 -7.26 
13.90 229.55 -6.53 
14.07 229.57 -6.06 
14.20 229.45 -5.36 
14.38 229.79 -6.21 
-6.86 230.35 -7.28 
-6.78 230.54 -6.70 
-6.67 230.61 -6.76 
-4.73 230.23 -7.26 
-3.95 230.34 -7.23 
-4.32 230.32 -7.07 
-4.09 230.54 -6.42 
-3.57 230.14 -7.20 
-3.58 230.50 -7.12 
-3.15 230.36 -7.31 
-2.43 230.16 -7.08 
-2.10 230.21 -5.80 
-1.95 230.76 -5.10 
-1.97 230.69 -4.77 
-1.39 230.40 -7.75 
-1.12 230.35 -6.74 
-1.22 230.54 -6.46 
-0.59 230.51 -8.02 
-0.80 230.30 -7.39 
-0.70 230.69 -7.07 
0.03 230.49 -7.80 
0.03 230.50 -7.43 
-0.23 230.35 -6.83 
0.75 230.65 -7.91 
0.51 230.32 -7.43 
0.80 230.13 -7.01 
0.53 230.20 -6.44 
1.30 230.44 -8.63 
1.26 230.57 -8.36 
1.17 230.47 -7.57 
1.04 230.54 -7.17 
2.00 230.17 -8.08 
2.99 230.67 -8.83 
2.75 230.77 -8.44 
3.04 230.39 -7.38 
2.60 230.71 -6.61 
2.93 230.69 -6.25 
3.15 230.69 -8.53 
3.49 230.51 -7.49 
3.35 230.31 -6.93 
3.26 230.31 -6.25 
3.27 230.34 -5.60 
4.10 230.31 -7.34 
4.10 230.42 -7.14 
4.91 230.45 -7.66 
7.30 230.56 -6.61 
7.55 230.75 -6.66 
8.22 230.45 -6.53 
9.54 230.61 -6.72 
10.51 230.79 -6.83 
10.84 230.53 -7.07 
11.46 230.64 -6.23 
11.24 230.48 -5.57 
11.13 230.41 -4.89 
11.69 230.69 -6.51 
11.55 230.58 -5.90 
11.54 230.58 -5.26 
12.45 230.66 -8.24 
12.64 230.79 -7.69 
12.65 230.62 -6.66 
12.80 230.28 -6.41 
12.80 230.12 -5.50 
13.11 230.75 -7.92 
13.05 230.32 -6.64 
13.22 230.45 -6.08 
13.10 230.75 -5.59 
14.41 230.44 -5.90 
15.10 230.75 -5.74 
16.39 230.64 -5.81 
15.95 230.65 -5.67 
-7.15 231.06 -7.54 
-6.78 230.96 -6.70 
-6.50 231.21 -7.96 
-6.19 231.32 -7.32 
-6.37 230.92 -6.66 
-5.55 231.39 -7.46 
-4.58 231.31 -7.21 
-4.75 231.13 -6.52 
-4.61 230.92 -6.45 
-4.36 231.14 -7.21 
-3.94 231.34 -6.95 
-3.25 231.25 -8.01 
-3.30 231.10 -7.44 
-3.44 231.17 -6.91 
-2.88 231.04 -7.51 
-1.81 231.27 -7.34 
-2.28 231.15 -7.13 
-1.29 231.04 -7.45 
-0.64 230.80 -8.01 
-0.60 230.99 -7.62 
-0.73 231.17 -6.95 
-0.68 231.30 -6.35 
0.14 230.97 -8.11 
-0.16 231.01 -7.60 
-0.04 230.82 -6.58 
1.00 230.97 -8.61 
0.56 231.37 -8.04 
0.82 231.23 -7.55 
0.67 231.43 -7.06 
1.38 231.21 -8.30 
1.20 231.20 -7.36 
1.97 231.07 -8.82 
2.07 231.15 -8.25 
2.11 231.06 -6.65 
2.42 231.07 -6.43 
2.78 231.28 -9.03 
2.68 231.11 -8.21 
2.76 231.29 -7.70 
2.80 231.26 -6.86 
2.96 230.90 -6.27 
3.36 231.31 -9.03 
3.50 231.16 -8.40 
3.46 231.13 -6.82 
3.24 230.84 -6.37 
4.10 231.22 -9.19 
3.93 231.04 -8.55 
4.48 231.02 -7.24 
3.94 230.84 -7.09 
4.83 231.11 -7.49 
5.25 231.18 -6.93 
5.96 231.36 -7.92 
6.02 231.21 -7.47 
6.22 231.13 -7.06 
6.67 231.29 -6.72 
7.58 231.02 -6.65 
8.64 231.22 -6.54 
9.16 230.96 -6.76 
9.15 230.82 -6.48 
9.81 231.47 -6.83 
9.56 231.32 -6.42 
10.30 230.90 -6.63 
11.51 230.82 -5.61 
12.16 231.15 -8.25 
12.01 230.93 -7.74 
12.11 230.99 -6.91 
12.01 230.93 -6.18 
11.77 230.83 -5.36 
12.47 231.01 -9.60 
12.76 231.00 -9.02 
12.72 231.07 -8.14 
12.28 230.87 -7.86 
12.92 231.03 -6.75 
12.60 231.12 -6.02 
13.29 231.23 -9.48 
13.30 231.26 -9.01 
13.18 231.15 -8.09 
13.22 231.26 -7.37 
13.10 230.88 -7.09 
13.21 231.28 -6.29 
13.37 231.42 -5.58 
13.95 231.40 -9.93 
13.96 231.44 -8.97 
13.98 231.08 -8.29 
14.12 230.97 -7.47 
13.63 230.82 -6.97 
13.76 231.40 -5.55 
14.43 231.36 -7.26 
14.39 231.31 -4.91 
15.36 231.32 -5.88 
15.30 231.26 -5.70 
16.12 231.06 -5.52 
16.57 230.88 -5.48 
16.74 231.00 -4.84 
-6.30 231.80 -7.35 
-6.04 232.00 -7.07 
-5.76 231.75 -7.50 
-5.66 232.07 -7.03 
-4.83 231.61 -7.48 
-4.24 231.82 -7.43 
-4.49 231.90 -7.14 
-3.47 231.85 -7.38 
-2.69 231.64 -8.15 
-2.73 231.72 -7.80 
-3.02 231.56 -7.11 
-2.10 231.93 -8.20 
-2.15 231.99 -7.58 
-1.92 231.57 -5.43 
-1.55 232.15 -8.04 
-1.58 231.90 -7.68 
-1.73 231.63 -5.35 
-0.60 231.92 -8.11 
-0.47 231.93 -7.71 
0.03 232.08 -7.99 
-0.07 232.12 -7.83 
0.21 232.13 -6.89 
0.66 231.84 -8.06 
0.78 231.65 -7.52 
0.58 232.00 -6.37 
1.57 231.87 -8.45 
1.52 232.17 -7.43 
1.20 231.67 -6.76 
1.58 232.16 -6.25 
2.21 231.68 -8.61 
1.92 231.90 -8.18 
1.80 231.88 -7.57 
2.38 231.63 -6.64 
2.78 231.57 -8.66 
2.73 231.99 -8.14 
2.72 231.81 -7.82 
2.86 231.60 -7.07 
3.30 231.56 -8.86 
3.29 231.53 -8.52 
3.56 231.95 -7.29 
3.72 231.60 -7.01 
3.64 232.13 -6.15 
3.95 231.53 -9.19 
4.23 231.53 -8.56 
4.27 231.89 -7.24 
3.75 231.73 -7.18 
3.84 232.16 -6.45 
4.71 231.76 -9.18 
5.09 231.96 -7.36 
4.54 232.01 -6.97 
5.91 231.60 -7.01 
6.40 232.10 -6.97 
6.25 231.71 -6.46 
6.78 232.14 -6.62 
6.79 232.08 -6.37 
7.10 231.75 -5.34 
7.44 232.04 -7.26 
7.40 232.13 -6.84 
7.41 231.63 -6.36 
9.43 232.18 -6.84 
10.33 232.15 -6.55 
11.97 231.75 -6.81 
11.95 231.74 -6.09 
12.03 231.83 -5.34 
11.89 231.79 -5.03 
12.74 231.58 -9.56 
12.77 231.62 -9.01 
12.75 231.70 -8.10 
12.72 231.67 -7.58 
12.44 231.96 -6.79 
12.44 231.97 -6.23 
12.51 232.06 -5.64 
12.94 231.86 -9.43 
12.97 231.91 -8.93 
13.31 231.84 -8.52 
13.44 231.63 -7.78 
13.34 231.94 -7.01 
12.95 232.08 -6.06 
13.94 231.63 -9.65 
14.03 231.79 -8.98 
14.27 231.71 -8.32 
13.86 231.65 -7.83 
13.76 232.17 -6.97 
14.13 231.73 -6.01 
13.85 231.77 -5.77 
14.24 232.16 -4.49 
14.49 231.82 -9.64 
14.47 231.82 -8.91 
14.49 231.94 -8.15 
14.48 231.64 -7.62 
14.68 231.90 -5.67 
14.68 231.68 -4.62 
15.19 231.72 -5.86 
15.46 231.62 -5.56 
15.27 231.54 -4.98 
-6.36 232.20 -7.08 
-5.71 232.79 -7.60 
-3.05 232.64 -7.75 
-2.03 232.87 -8.66 
-2.10 232.29 -8.05 
-2.11 232.31 -7.69 
-1.13 232.59 -8.57 
-1.54 232.51 -8.29 
-1.53 232.48 -7.59 
-1.33 232.93 -6.96 
-0.65 232.75 -8.68 
-0.52 232.58 -8.35 
-0.94 232.55 -7.63 
-0.16 232.73 -8.75 
0.01 232.62 -8.50 
0.43 232.86 -8.84 
0.55 232.29 -8.06 
0.75 232.67 -7.47 
0.69 232.67 -7.08 
0.66 232.64 -6.45 
1.32 232.58 -8.24 
1.36 232.57 -7.49 
1.22 232.60 -6.62 
1.98 232.27 -8.25 
1.91 232.27 -7.74 
2.06 232.61 -7.02 
2.37 232.50 -6.24 
2.87 232.32 -8.48 
2.75 232.79 -7.32 
2.59 232.84 -6.94 
2.97 232.66 -6.15 
3.58 232.88 -7.25 
3.67 232.67 -7.04 
4.52 232.61 -7.75 
4.39 232.49 -6.51 
4.57 232.74 -7.30 
4.65 232.42 -7.11 
5.83 232.57 -6.11 
6.26 232.59 -7.50 
6.34 232.79 -6.82 
6.52 232.38 -6.36 
6.70 232.55 -7.64 
7.07 232.46 -7.04 
6.90 232.25 -5.96 
6.76 232.58 -5.70 
7.51 232.53 -7.20 
7.47 232.53 -6.84 
8.26 232.61 -6.85 
9.39 232.45 -7.01 
9.88 232.38 -6.81 
10.11 232.56 -6.44 
10.48 232.63 -6.61 
10.74 232.86 -6.30 
10.22 232.68 -5.76 
10.88 232.61 -6.75 
11.39 232.67 -6.02 
11.04 232.29 -5.70 
11.54 232.88 -5.99 
12.01 232.36 -5.00 
12.67 232.24 -6.91 
12.55 232.14 -5.96 
12.64 232.78 -5.02 
13.43 232.51 -6.11 
13.31 232.53 -5.48 
14.37 232.86 -9.74 
14.33 232.87 -9.16 
14.67 232.83 -8.00 
14.76 232.29 -7.27 
14.72 232.36 -6.84 
14.60 232.46 -5.55 
14.52 232.44 -4.58 
-7.14 233.18 -7.05 
-6.82 233.38 -5.72 
-6.66 233.16 -6.69 
-6.37 233.13 -6.35 
-6.65 233.29 -5.76 
-5.71 233.10 -7.43 
-5.41 233.60 -7.03 
-4.96 233.44 -7.83 
-5.00 233.33 -7.50 
-5.25 233.53 -6.52 
-4.25 233.48 -8.10 
-4.26 233.49 -7.43 
-4.39 233.32 -6.79 
-3.39 233.53 -8.40 
-3.69 233.18 -7.74 
-3.20 233.19 -6.86 
-2.52 233.33 -9.02 
-3.01 233.24 -8.40 
-2.95 233.36 -7.64 
-3.00 233.37 -6.98 
-2.11 233.24 -9.01 
-2.13 232.90 -8.21 
-1.41 233.44 -8.74 
-1.44 233.20 -8.32 
-1.41 233.00 -7.57 
-1.16 233.01 -7.08 
-0.78 233.18 -8.71 
-0.94 233.07 -8.23 
-0.91 233.27 -7.68 
-0.84 233.18 -7.06 
0.09 233.24 -8.73 
0.14 233.44 -8.44 
0.03 233.42 -7.56 
0.05 233.57 -7.16 
-0.14 233.47 -6.31 
0.52 233.05 -8.75 
0.61 233.33 -8.17 
0.60 233.41 -7.44 
0.39 233.01 -6.87 
1.27 233.60 -7.95 
1.44 233.35 -7.31 
1.53 233.23 -7.09 
2.42 233.04 -8.02 
1.89 233.49 -7.23 
2.16 233.22 -6.87 
2.53 233.52 -7.94 
2.99 233.33 -7.20 
2.81 233.07 -6.85 
3.49 232.97 -7.36 
4.30 232.99 -7.07 
4.35 233.10 -7.23 
4.96 232.98 -7.22 
4.87 233.07 -7.03 
5.43 233.56 -9.22 
5.73 233.41 -7.11 
5.49 233.07 -6.10 
6.17 233.09 -7.56 
6.52 233.08 -7.00 
6.96 233.30 -6.99 
7.71 233.14 -6.84 
7.73 233.19 -6.36 
8.36 233.04 -7.20 
8.35 233.22 -6.81 
8.44 233.06 -6.44 
8.91 233.23 -6.85 
9.23 233.51 -6.43 
9.78 232.95 -6.19 
10.53 232.96 -6.74 
10.52 233.41 -6.00 
10.36 233.59 -5.73 
11.30 233.26 -5.97 
11.13 233.15 -5.69 
11.46 232.92 -5.05 
11.49 233.10 -4.15 
11.81 233.14 -5.87 
11.73 233.02 -5.11 
11.92 233.44 -4.88 
13.31 233.24 -5.43 
14.01 232.92 -7.37 
14.70 233.29 -9.74 
14.65 233.30 -9.16 
14.87 233.27 -8.00 
14.98 233.25 -7.43 
14.49 232.92 -4.94 
-5.32 233.66 -6.90 
-5.87 233.97 -5.53 
-4.94 233.72 -7.34 
-4.89 233.75 -6.99 
-5.22 233.99 -5.42 
-3.99 233.87 -8.64 
-4.25 233.70 -8.03 
-4.31 233.81 -7.60 
-4.34 233.94 -7.05 
-4.02 234.26 -6.13 
-4.18 234.12 -5.29 
-3.19 233.79 -8.60 
-3.64 233.74 -8.13 
-3.75 233.93 -7.57 
-3.68 234.05 -6.57 
-3.20 234.10 -5.91 
-2.91 233.87 -8.24 
-2.94 233.74 -7.81 
-2.40 233.61 -9.07 
-2.35 233.70 -8.45 
-1.40 233.58 -9.12 
-1.62 233.67 -8.43 
-0.92 233.85 -9.07 
-0.93 234.10 -7.94 
-0.80 233.89 -7.77 
-0.13 234.02 -8.76 
0.28 233.93 -8.18 
-0.01 234.03 -7.63 
0.11 233.80 -6.80 
0.14 233.76 -6.31 
0.53 234.05 -8.77 
0.61 233.87 -8.16 
1.05 233.77 -7.60 
1.30 233.86 -8.13 
1.44 233.78 -7.57 
1.78 233.88 -7.94 
2.01 234.00 -7.64 
2.58 234.06 -7.92 
2.57 234.05 -7.54 
3.17 234.12 -7.54 
3.46 234.11 -7.08 
5.13 234.04 -7.64 
5.02 234.08 -6.91 
4.68 234.11 -6.42 
5.64 233.87 -8.76 
5.60 233.82 -8.26 
5.75 234.05 -7.42 
5.42 234.27 -6.94 
6.17 233.99 -9.20 
6.17 233.99 -9.20 
6.49 233.92 -8.14 
6.21 234.14 -7.50 
6.42 233.75 -6.95 
6.49 233.87 -6.15 
7.00 234.09 -9.34 
6.89 234.15 -8.91 
6.69 234.11 -8.27 
6.66 234.28 -7.52 
6.73 233.68 -7.15 
7.50 233.70 -6.92 
8.61 233.63 -7.24 
8.33 233.67 -7.04 
9.14 233.74 -7.19 
9.02 233.93 -7.10 
9.19 233.85 -5.78 
9.81 233.94 -7.54 
9.80 233.98 -7.12 
9.93 233.66 -6.28 
10.07 233.94 -5.72 
10.31 234.14 -7.54 
10.87 234.10 -5.60 
11.75 233.76 -5.23 
14.20 234.01 -6.44 
-4.74 234.78 -6.16 
-4.81 234.65 -5.32 
-4.19 234.91 -6.49 
-4.29 234.91 -6.23 
-4.27 234.50 -5.28 
-3.47 234.39 -5.29 
-2.36 234.32 -8.62 
-0.49 234.55 -7.47 
-0.63 234.51 -6.82 
-0.32 234.64 -9.24 
0.21 234.39 -8.24 
0.02 234.83 -7.21 
0.02 234.73 -6.96 
0.39 234.60 -8.25 
0.36 234.78 -7.38 
0.40 234.94 -7.00 
1.08 234.64 -7.99 
2.41 234.49 -7.52 
2.59 234.40 -8.07 
2.69 234.45 -7.53 
3.00 234.36 -6.93 
3.47 234.49 -7.03 
3.94 234.53 -6.62 
3.99 234.55 -6.41 
4.86 234.91 -7.39 
4.71 234.78 -7.09 
5.47 234.32 -7.90 
5.51 234.75 -7.54 
5.94 234.39 -7.94 
6.55 234.68 -7.48 
6.45 234.52 -6.87 
6.70 234.35 -9.34 
7.13 234.55 -9.17 
7.02 234.60 -8.27 
6.92 234.86 -7.43 
6.95 234.60 -7.09 
7.37 234.81 -9.16 
7.63 234.93 -7.52 
7.56 234.84 -6.99 
8.10 234.89 -6.94 
9.23 234.34 -7.16 
9.35 234.86 -5.75 
9.67 234.42 -7.20 
9.70 234.30 -7.00 
9.49 234.33 -6.03 
9.88 234.43 -5.68 
10.21 234.43 -7.07 
10.24 234.54 -5.81 
-0.34 235.41 -7.36 
-0.12 235.29 -7.00 
-0.26 235.33 -6.32 
0.74 235.14 -7.34 
0.48 235.23 -6.96 
2.82 235.22 -7.39 
3.44 235.22 -7.34 
3.99 235.00 -7.13 
4.71 235.37 -7.46 
4.74 235.21 -7.05 
5.45 235.23 -7.89 
5.71 235.24 -7.39 
5.47 235.40 -7.10 
6.02 235.29 -7.77 
6.86 235.12 -7.33 
6.78 235.16 -6.86 
7.96 235.13 -7.37 
7.89 235.15 -7.07 
8.42 235.18 -7.35 
8.41 235.10 -6.97 
9.19 235.34 -7.30 
8.91 235.38 -6.96 
9.35 235.22 -6.46 
9.64 235.29 -6.90 
9.86 235.14 -6.07 
