# .PCD v0.7 - Point Cloud Data file format
VERSION 0.7
FIELDS x y z
SIZE 4 4 4
TYPE F F F
COUNT 1 1 1
WIDTH 74
HEIGHT 1
VIEWPOINT 0 0 0 1 0 0 0
POINTS 74
DATA ascii
8.859100 -15.446104 -16.404835
8.889893 -16.402563 -16.419279
5.616047 -14.579868 -16.466722
8.977966 -17.340134 -16.432434
9.044098 -18.314907 -16.446999
9.112972 -19.311138 -16.462177
9.185009 -20.329718 -16.477978
8.846168 -21.717743 -16.509377
13.571037 -26.855688 -16.508615
12.950649 -26.243696 -16.508724
12.252651 -25.712732 -16.512260
11.230297 -15.497965 -16.477758
11.327671 -16.413944 -16.488806
11.479126 -17.305588 -16.498301
11.633060 -18.218578 -16.508350
11.789808 -19.154200 -16.518974
11.924942 -20.139214 -16.531260
11.701765 -21.534401 -16.559866
11.494469 -22.972626 -16.589083
11.154663 -24.624783 -16.625587
15.915367 -28.409386 -16.575829
15.302925 -27.705261 -16.578802
14.573568 -27.245792 -16.587662
13.842453 -26.785221 -16.596878
13.109394 -26.322556 -16.606426
12.362568 -25.871723 -16.616854
11.602787 -25.429291 -16.628077
12.182644 -15.130425 -16.532705
12.351412 -16.012127 -16.545052
12.508003 -16.935825 -16.558802
12.692123 -17.858860 -16.572102
12.881874 -18.806992 -16.586037
13.077929 -19.781475 -16.600626
13.099453 -21.020123 -16.625244
12.816343 -22.727261 -16.667318
12.517212 -24.549412 -16.712471
16.210739 -28.338291 -16.707291
15.495789 -27.848423 -16.712618
14.763109 -27.391476 -16.719402
14.030842 -26.934219 -16.726496
13.298704 -26.476311 -16.733904
12.563719 -26.021114 -16.741764
12.335081 -14.721769 -16.564676
12.492533 -15.681610 -16.581936
12.659290 -16.668240 -16.599834
12.887321 -17.610275 -16.615519
13.156193 -18.594929 -16.631603
13.460350 -19.503147 -16.645237
13.771923 -20.438480 -16.659613
13.952223 -21.632217 -16.683329
13.792032 -23.473866 -16.730301
13.618073 -25.459400 -16.781298
14.561539 -27.340420 -16.805855
13.815287 -26.888474 -16.811134
10.112883 -14.791769 -16.513159
10.318306 -15.835482 -16.531441
10.553940 -16.830217 -16.547184
10.854080 -17.768702 -16.560612
11.165035 -18.732054 -16.574633
6.478401 -15.874113 -16.618607
11.474995 -19.743082 -16.589996
7.048378 -16.416883 -16.616280
11.780045 -20.814211 -16.607071
11.546602 -22.947462 -16.658825
11.397135 -25.069143 -16.708946
1.645937 -15.122271 -16.570837
2.058855 -15.928679 -16.575605
2.478909 -16.748068 -16.580753
2.906733 -17.580992 -16.586294
5.638039 -17.126495 -16.684803
5.874201 -18.427231 -16.710752
1.473434 -15.221148 -16.642860
5.362988 -18.610121 -16.648565
4.649056 -18.142046 -16.650043
