# .PCD v0.7 - Point Cloud Data file format
VERSION 0.7
FIELDS x y z
SIZE 4 4 4
TYPE F F F
COUNT 1 1 1
WIDTH 328
HEIGHT 1
VIEWPOINT 0 0 0 1 0 0 0
POINTS 328
DATA ascii
-6.19 10.95 -11.18 
-6.19 10.95 -10.27 
-5.89 10.70 -11.20 
-5.61 10.57 -10.53 
-5.78 10.67 -10.42 
-2.85 10.93 -14.84 
-2.85 10.93 -13.96 
-2.85 10.93 -13.07 
-2.27 11.18 -15.42 
-2.45 11.15 -14.82 
-2.45 11.15 -14.06 
-2.25 11.21 -13.53 
-2.44 11.16 -12.53 
-5.56 11.57 -11.47 
-5.39 11.37 -10.67 
-5.61 11.22 -10.19 
-4.52 11.81 -11.50 
-2.78 11.46 -14.78 
-3.00 11.24 -14.66 
-2.78 11.46 -13.83 
-3.00 11.24 -12.62 
-2.22 11.23 -15.59 
-2.27 11.27 -14.92 
-2.00 11.51 -14.11 
-2.21 11.24 -13.60 
-2.21 11.24 -12.93 
-2.23 11.24 -12.26 
-6.15 12.59 -12.07 
-5.53 12.53 -15.73 
-5.56 12.51 -15.12 
-5.56 12.51 -14.49 
-5.56 12.52 -13.85 
-5.54 12.55 -13.21 
-5.72 12.41 -12.04 
-5.64 12.48 -11.42 
-5.64 12.48 -10.76 
-5.54 12.55 -10.27 
-5.17 12.41 -15.75 
-5.17 12.42 -15.15 
-5.18 12.42 -14.55 
-5.06 12.39 -13.85 
-5.07 12.37 -13.21 
-5.08 12.35 -12.57 
-5.13 12.21 -11.45 
-5.16 12.22 -10.77 
-5.14 12.36 -9.89 
-2.64 12.07 -15.36 
-2.55 12.06 -14.67 
-2.54 12.06 -13.66 
-2.54 12.06 -12.65 
-2.63 12.06 -12.11 
-1.97 12.57 -16.32 
-2.03 12.46 -15.71 
-2.03 12.46 -14.85 
-1.93 12.59 -14.30 
-1.84 12.10 -13.59 
-2.03 12.45 -13.12 
-2.02 12.48 -12.42 
-1.55 12.36 -15.75 
-1.67 12.42 -14.74 
-1.56 12.37 -14.62 
-1.67 12.43 -13.57 
-1.69 12.14 -13.01 
-1.68 12.14 -12.36 
-6.96 13.17 -15.76 
-6.92 13.22 -15.14 
-6.96 13.18 -14.51 
-6.91 13.19 -13.87 
-6.98 13.29 -12.83 
-7.04 13.05 -12.05 
-7.13 13.10 -11.43 
-7.13 13.10 -10.80 
-7.16 13.28 -10.40 
-6.33 13.04 -15.77 
-6.33 13.05 -15.16 
-6.41 12.96 -14.50 
-6.26 13.08 -13.87 
-6.33 13.07 -12.75 
-6.49 12.83 -12.10 
-6.29 12.80 -11.40 
-6.30 12.81 -10.77 
-6.30 12.95 -10.18 
-5.66 12.68 -15.77 
-5.66 12.68 -15.16 
-5.64 12.73 -14.51 
-5.66 12.65 -13.42 
-5.66 12.70 -12.74 
-5.67 12.67 -12.19 
-5.44 12.89 -11.41 
-5.82 12.86 -10.65 
-5.81 12.87 -9.81 
-4.88 12.86 -15.72 
-4.90 12.81 -15.11 
-4.92 12.77 -14.50 
-4.97 12.74 -13.86 
-5.00 12.83 -12.69 
-5.17 12.82 -11.08 
-5.17 12.82 -10.13 
-3.48 13.29 -15.75 
-3.25 13.25 -15.20 
-3.18 13.34 -14.20 
-3.38 13.28 -13.43 
-3.38 13.29 -12.85 
-3.48 13.31 -12.34 
-2.96 13.05 -15.69 
-2.96 13.06 -15.13 
-2.80 13.01 -14.01 
-2.83 13.05 -13.47 
-2.83 13.05 -12.89 
-2.83 13.06 -12.31 
-2.23 12.72 -16.30 
-2.11 12.87 -15.67 
-2.10 12.87 -14.67 
-2.12 12.66 -14.15 
-2.10 12.87 -13.67 
-1.93 13.01 -12.93 
-2.10 13.14 -12.43 
-1.37 12.98 -16.22 
-1.06 12.93 -15.32 
-1.73 12.87 -15.14 
-1.66 12.63 -14.10 
-1.66 12.63 -13.37 
-1.66 12.64 -12.63 
-1.02 12.94 -15.61 
-1.01 12.97 -15.19 
-6.91 13.46 -16.01 
-7.21 13.47 -15.77 
-7.21 13.48 -15.17 
-7.00 13.42 -14.51 
-7.36 13.52 -13.55 
-7.21 13.50 -12.74 
-7.36 13.52 -12.33 
-7.09 13.23 -11.32 
-7.09 13.36 -10.89 
-7.04 13.75 -10.22 
-6.56 13.87 -15.50 
-6.10 13.47 -15.20 
-6.10 13.47 -14.56 
-6.10 13.47 -13.92 
-6.10 13.47 -13.27 
-6.44 13.49 -12.44 
-6.31 13.47 -10.97 
-4.61 13.83 -15.83 
-4.66 13.61 -15.17 
-4.51 13.82 -14.56 
-4.68 13.95 -13.48 
-4.68 13.96 -12.91 
-4.68 13.96 -12.34 
-4.50 13.80 -16.28 
-4.22 13.63 -15.73 
-4.19 13.70 -15.13 
-4.21 13.65 -14.10 
-4.22 13.66 -13.52 
-4.20 13.72 -12.84 
-4.26 13.76 -12.34 
-3.73 13.42 -15.74 
-3.61 13.43 -15.16 
-3.69 13.51 -14.26 
-3.73 13.50 -13.45 
-3.64 13.46 -12.87 
-3.65 13.47 -12.29 
-3.07 13.64 -15.65 
-3.06 13.64 -14.83 
-3.05 13.64 -14.01 
-3.18 13.34 -13.49 
-3.04 13.64 -13.18 
-3.03 13.64 -12.36 
-1.86 13.43 -16.30 
-2.21 13.59 -15.59 
-2.15 13.75 -15.16 
-2.21 13.65 -14.09 
-1.85 13.66 -13.68 
-1.15 13.84 -16.22 
-1.59 13.88 -15.61 
-1.19 13.41 -15.33 
-1.71 13.58 -14.20 
-0.83 13.69 -16.27 
-0.82 13.89 -16.00 
-0.36 13.43 -16.23 
16.47 13.82 -16.13 
-7.04 14.21 -14.68 
-5.51 14.17 -15.84 
-5.50 14.19 -13.34 
-4.64 14.10 -15.63 
-4.63 14.10 -14.16 
-4.68 13.95 -13.48 
-4.68 13.96 -12.91 
-4.90 14.02 -12.53 
-4.05 14.51 -15.60 
-4.12 14.36 -15.21 
-4.21 14.49 -14.23 
-4.22 14.39 -13.91 
-4.02 14.17 -13.13 
-4.01 14.17 -12.29 
-3.25 14.61 -16.27 
-3.72 14.48 -15.69 
-3.39 14.39 -15.21 
-3.74 14.64 -14.08 
-3.42 14.52 -13.63 
-2.74 14.55 -16.23 
-2.98 14.08 -15.72 
-2.54 14.07 -15.34 
-2.85 14.43 -14.30 
-2.18 14.08 -16.22 
-1.99 14.45 -15.64 
-2.32 14.25 -14.21 
-3.97 14.82 -15.15 
-3.96 14.89 -14.19 
-3.72 15.21 -15.59 
-3.61 14.83 -15.18 
-3.12 14.77 -16.35 
-2.88 14.82 -15.59 
-3.05 14.83 -15.35 
-2.13 14.73 -14.85 
12.59 15.04 -15.94 
9.23 16.10 -16.20 
9.89 15.77 -16.03 
10.18 16.00 -16.18 
11.87 15.62 -10.66 
12.00 15.67 -10.36 
12.22 15.74 -10.60 
13.44 15.93 -16.13 
13.19 16.03 -16.06 
14.54 15.98 -16.21 
15.43 15.46 -15.93 
11.77 16.65 -16.13 
11.93 16.62 -14.86 
11.88 16.67 -14.05 
12.12 16.46 -13.22 
12.13 16.46 -12.44 
11.77 16.66 -11.61 
12.14 16.46 -10.87 
12.82 16.15 -16.08 
12.65 16.47 -10.86 
12.45 16.42 -10.36 
15.79 16.44 -15.66 
11.05 17.07 -16.22 
12.69 17.06 -10.12 
13.20 17.33 -16.15 
12.92 17.44 -15.58 
13.12 17.47 -14.62 
13.11 17.46 -13.80 
13.11 17.46 -12.97 
12.93 17.40 -10.68 
12.91 17.35 -10.26 
14.40 17.18 -15.61 
14.86 16.91 -15.34 
15.54 17.01 -15.48 
15.28 17.29 -15.35 
15.22 17.50 -11.89 
15.34 17.41 -11.75 
15.21 17.46 -11.14 
4.07 17.95 -16.28 
5.25 17.75 -16.29 
7.02 17.72 -16.30 
13.40 17.95 -15.73 
13.24 17.88 -15.08 
13.40 17.94 -14.67 
13.25 17.89 -13.49 
13.28 17.88 -10.29 
15.14 17.76 -15.92 
15.34 17.59 -14.84 
15.13 17.75 -14.41 
15.13 17.75 -13.65 
15.13 17.74 -12.89 
15.12 17.74 -12.13 
15.12 17.73 -11.36 
0.73 18.87 -16.25 
1.28 18.63 -16.25 
10.44 18.25 -16.08 
11.72 18.76 -15.57 
12.34 18.80 -16.13 
12.25 18.74 -16.06 
-0.90 19.55 -16.23 
-0.36 19.32 -16.23 
11.51 19.02 -16.17 
-2.50 20.22 -16.22 
-1.97 19.99 -16.22 
-1.44 19.78 -16.22 
-4.08 20.88 -16.21 
-3.55 20.66 -16.21 
-3.03 20.44 -16.21 
-6.15 21.62 -16.20 
-4.62 21.06 -16.21 
6.58 21.48 -13.68 
7.15 21.39 -13.64 
-7.13 22.21 -16.20 
-6.64 21.91 -16.20 
5.90 22.17 -13.13 
6.29 22.02 -13.80 
6.29 22.02 -13.19 
6.97 21.93 -13.77 
7.00 21.95 -13.17 
9.83 21.91 -13.66 
7.00 22.83 -13.66 
7.11 22.67 -13.06 
7.32 22.76 -13.87 
8.96 22.67 -13.45 
9.36 22.65 -12.93 
9.52 22.83 -13.54 
7.53 23.20 -14.00 
7.54 23.20 -13.37 
9.96 23.25 -13.74 
9.42 23.28 -13.20 
14.82 31.49 -16.50 
15.50 31.65 -16.52 
16.88 31.75 -16.60 
16.16 32.82 -16.66 
16.66 32.60 -16.71 
17.11 32.77 -16.63 
13.38 33.54 -16.66 
14.04 33.06 -16.75 
14.44 33.01 -16.75 
15.62 33.27 -16.72 
16.01 33.18 -16.74 
17.10 33.20 -16.73 
17.35 33.40 -16.68 
12.83 34.09 -16.65 
7.34 34.93 -16.23 
13.66 34.74 -16.70 
8.38 35.31 -16.09 
15.58 35.32 -16.44 
15.58 35.30 -15.70 
15.51 35.30 -15.01 
15.58 35.29 -14.36 
15.58 35.28 -13.61 
15.49 35.30 -13.09 
16.65 35.33 -16.64 
