# .PCD v0.7 - Point Cloud Data file format
VERSION 0.7
FIELDS x y z
SIZE 4 4 4
TYPE F F F
COUNT 1 1 1
WIDTH 587
HEIGHT 1
VIEWPOINT 0 0 0 1 0 0 0
POINTS 587
DATA ascii
7.37 36.13 -16.02 
7.32 36.14 -15.26 
7.30 36.13 -14.88 
7.28 36.09 -14.11 
7.18 36.11 -12.57 
7.39 36.18 -12.27 
7.63 35.85 -16.18 
7.88 35.82 -15.31 
7.88 35.84 -14.89 
7.87 35.88 -14.06 
7.87 35.88 -13.64 
7.74 35.72 -12.69 
8.00 35.86 -12.16 
8.26 36.19 -12.56 
8.41 36.12 -12.12 
9.91 35.79 -16.11 
9.91 35.79 -15.70 
9.92 35.80 -14.89 
14.17 35.63 -16.47 
14.70 35.87 -16.12 
5.16 36.80 -16.26 
5.16 36.75 -15.41 
5.28 36.93 -15.12 
7.04 36.86 -16.19 
7.08 36.66 -15.69 
7.04 36.79 -14.74 
7.25 36.82 -14.28 
7.22 36.82 -13.58 
7.19 36.80 -12.87 
8.17 36.62 -16.26 
8.19 36.62 -15.59 
8.02 36.85 -12.73 
8.02 36.70 -12.22 
8.43 36.82 -16.10 
8.43 36.82 -15.72 
8.33 36.72 -14.84 
8.34 36.71 -13.90 
8.42 36.80 -13.38 
8.44 36.74 -12.58 
8.49 36.59 -12.15 
9.47 36.61 -16.03 
9.64 36.82 -15.72 
9.62 36.81 -14.78 
9.42 36.54 -14.29 
9.61 36.78 -13.65 
9.61 36.76 -12.49 
8.98 36.32 -12.14 
9.79 36.83 -16.14 
9.78 36.35 -15.79 
9.78 36.37 -14.93 
9.78 36.37 -14.42 
9.79 36.39 -13.39 
9.79 36.39 -13.04 
10.46 36.46 -15.98 
12.96 36.83 -16.10 
13.21 36.91 -16.22 
14.19 36.38 -16.42 
14.23 36.39 -15.32 
14.22 36.39 -14.82 
14.17 36.38 -14.40 
14.22 36.39 -13.68 
5.33 36.94 -16.25 
5.31 36.94 -15.83 
5.94 37.45 -16.07 
5.93 37.43 -15.73 
5.99 37.54 -14.86 
5.96 37.52 -14.01 
5.93 37.51 -13.32 
5.95 37.49 -12.82 
6.43 37.25 -16.16 
6.35 37.12 -15.37 
6.39 37.15 -14.73 
6.56 37.24 -14.04 
6.35 37.14 -13.37 
6.56 37.24 -12.81 
6.56 37.24 -11.97 
6.86 37.32 -16.09 
6.86 37.32 -15.54 
6.86 37.32 -14.62 
6.86 37.32 -13.87 
7.21 36.96 -13.26 
7.19 36.95 -12.52 
7.97 37.09 -15.93 
7.96 37.10 -15.47 
7.96 37.10 -15.02 
7.97 37.10 -14.10 
7.97 37.11 -13.17 
8.22 37.14 -12.47 
8.53 37.33 -16.25 
8.42 37.26 -15.61 
8.56 37.32 -14.87 
8.67 37.25 -14.17 
8.67 37.26 -13.41 
8.46 37.04 -12.77 
8.58 37.11 -12.33 
9.25 37.09 -16.18 
9.25 37.09 -15.74 
9.25 37.09 -14.87 
9.25 37.09 -14.44 
9.25 37.09 -13.57 
9.25 37.09 -12.69 
9.25 37.09 -12.25 
10.00 37.02 -13.89 
13.08 37.12 -16.11 
13.21 37.12 -16.26 
6.83 38.16 -16.23 
6.84 38.15 -15.59 
6.84 38.15 -14.96 
6.84 38.15 -14.32 
7.10 38.13 -16.03 
7.10 38.11 -15.67 
7.02 38.03 -14.88 
7.03 38.02 -13.97 
6.86 38.16 -13.37 
7.09 38.09 -12.72 
6.87 38.16 -11.99 
7.06 37.99 -11.24 
7.21 38.19 -10.56 
8.19 38.03 -16.28 
8.15 38.01 -15.51 
8.13 37.99 -15.05 
7.93 38.17 -14.37 
8.07 37.94 -13.50 
8.64 37.99 -16.20 
8.44 37.74 -15.42 
8.63 37.94 -14.72 
8.64 37.91 -13.97 
8.64 37.89 -13.59 
8.66 37.85 -12.82 
6.66 38.58 -15.93 
6.71 38.46 -15.40 
6.73 38.46 -14.92 
6.68 38.58 -14.24 
6.69 38.58 -13.39 
6.70 38.58 -12.96 
7.51 38.42 -16.18 
7.52 38.42 -15.73 
7.32 38.29 -14.79 
7.31 38.30 -14.27 
6.89 38.44 -13.54 
6.88 38.45 -12.45 
6.88 38.46 -11.90 
7.55 38.42 -13.52 
8.55 38.56 -15.87 
8.62 38.61 -15.45 
8.51 38.52 -14.76 
8.44 38.40 -14.20 
8.46 38.35 -13.63 
9.61 40.23 -13.46 
9.88 40.29 -13.50 
9.89 40.29 -13.00 
9.63 40.98 -15.95 
9.63 40.98 -15.61 
9.64 40.98 -14.75 
9.64 40.99 -14.23 
9.35 41.10 -13.55 
9.90 41.11 -15.95 
9.90 41.11 -15.61 
9.91 41.23 -14.84 
10.05 41.02 -13.99 
9.76 40.95 -13.48 
10.00 40.71 -12.79 
10.37 40.84 -13.68 
10.59 40.84 -12.76 
11.68 40.85 -13.13 
11.15 40.83 -12.79 
12.36 40.89 -13.81 
12.12 40.68 -13.61 
13.01 40.71 -13.94 
17.26 40.65 -16.03 
17.29 40.68 -15.75 
17.27 40.70 -14.63 
17.32 40.70 -14.10 
16.89 40.91 -13.53 
17.58 41.01 -15.97 
17.42 40.78 -15.35 
17.42 40.77 -14.90 
17.57 40.99 -14.15 
17.49 40.58 -13.36 
9.51 41.41 -16.02 
9.40 41.36 -15.50 
9.45 41.38 -14.73 
9.38 41.31 -14.22 
9.40 41.34 -13.42 
9.46 41.27 -12.90 
9.91 41.22 -15.94 
9.91 41.23 -15.31 
10.11 41.18 -14.74 
9.90 41.12 -14.28 
9.91 41.13 -13.27 
9.91 41.13 -12.93 
10.93 41.61 -12.73 
11.56 41.29 -13.58 
11.17 41.63 -12.71 
11.85 41.25 -16.15 
11.86 41.25 -15.41 
11.87 41.24 -15.05 
12.05 41.19 -13.85 
12.05 41.19 -13.55 
16.24 41.32 -16.02 
16.33 41.30 -15.83 
10.26 42.30 -13.55 
10.20 42.31 -13.06 
10.94 42.25 -16.07 
10.66 42.13 -15.60 
10.66 42.13 -14.84 
10.66 42.12 -14.06 
10.70 42.27 -13.18 
10.67 42.12 -12.81 
11.37 42.06 -16.09 
11.27 42.12 -15.37 
11.33 42.01 -14.72 
11.28 42.11 -14.13 
11.32 41.91 -13.51 
11.55 42.17 -12.59 
11.99 41.90 -16.14 
11.83 42.40 -14.80 
11.82 42.38 -14.43 
12.06 41.98 -13.45 
11.91 41.96 -12.54 
10.27 43.17 -15.92 
10.88 42.53 -13.51 
10.87 42.57 -12.69 
11.77 42.66 -14.51 
11.75 42.64 -13.93 
11.75 42.63 -13.64 
13.55 43.20 -15.89 
13.55 43.20 -15.41 
13.56 43.24 -14.61 
13.51 43.28 -14.01 
13.55 43.19 -13.30 
15.14 43.09 -15.93 
6.01 43.83 -15.94 
6.01 43.83 -15.53 
6.01 43.84 -14.83 
6.02 43.84 -14.42 
6.02 43.84 -13.58 
6.19 43.92 -15.93 
6.19 43.93 -15.54 
6.17 44.00 -14.94 
6.35 43.90 -13.98 
6.18 43.99 -13.40 
8.17 43.89 -15.91 
9.43 43.53 -15.97 
9.34 43.35 -15.79 
12.32 43.69 -16.01 
12.31 43.72 -15.63 
12.21 43.76 -14.26 
13.38 43.23 -15.88 
13.38 43.23 -15.53 
13.56 43.24 -14.61 
13.51 43.28 -14.01 
13.51 43.28 -13.55 
5.86 44.16 -16.00 
5.86 44.23 -15.27 
5.78 44.26 -14.61 
5.77 44.24 -14.16 
5.76 44.22 -13.70 
6.17 44.01 -16.00 
6.19 43.93 -15.54 
6.36 43.90 -14.73 
6.17 44.00 -14.00 
6.18 43.99 -13.40 
7.49 44.62 -14.41 
7.47 44.59 -13.64 
6.24 45.16 -15.96 
6.55 45.26 -15.37 
6.23 45.16 -14.77 
6.23 45.17 -13.98 
6.52 45.29 -13.36 
6.47 45.29 -12.86 
6.59 44.77 -12.03 
7.39 44.75 -15.94 
7.39 44.75 -15.45 
7.39 44.75 -14.80 
7.40 44.74 -13.98 
7.40 44.74 -13.48 
6.85 44.65 -11.96 
7.61 45.12 -16.06 
7.83 44.70 -15.69 
7.83 44.69 -14.87 
7.61 45.14 -14.01 
7.83 44.67 -13.76 
9.57 48.12 -13.08 
8.49 48.68 -13.63 
9.44 48.27 -15.74 
10.06 48.71 -13.28 
10.06 48.71 -13.00 
10.56 48.52 -15.87 
10.56 48.51 -15.57 
10.56 48.44 -14.98 
10.56 48.43 -14.15 
10.54 48.51 -13.48 
10.84 48.17 -12.98 
11.09 48.54 -13.32 
11.11 48.54 -12.92 
12.38 48.52 -13.24 
12.30 48.66 -12.75 
12.47 48.67 -15.96 
13.13 48.29 -15.83 
12.87 48.22 -13.49 
12.78 48.38 -12.67 
13.22 48.38 -13.92 
13.09 48.24 -13.39 
13.21 48.36 -12.74 
14.60 48.73 -13.43 
14.61 48.73 -13.03 
15.64 48.80 -13.17 
15.63 48.81 -12.62 
16.22 48.55 -15.90 
16.29 48.58 -15.49 
16.21 48.55 -14.83 
16.29 48.58 -14.07 
16.36 48.51 -13.46 
15.96 48.69 -12.87 
15.95 48.70 -12.25 
16.74 48.28 -13.16 
16.76 48.26 -12.71 
16.66 48.32 -12.32 
8.90 49.26 -15.98 
8.93 49.38 -13.83 
8.91 49.31 -13.50 
9.15 49.18 -13.21 
9.56 48.92 -12.70 
10.53 49.27 -13.25 
10.49 49.46 -12.99 
11.52 49.51 -12.88 
12.24 48.89 -15.94 
14.29 49.03 -15.96 
14.29 49.02 -15.38 
14.27 49.01 -14.62 
14.27 49.00 -13.85 
14.37 49.13 -13.41 
14.38 49.13 -13.00 
14.87 49.19 -15.89 
14.82 49.17 -15.54 
14.90 49.14 -14.83 
14.86 49.10 -14.17 
14.91 49.07 -13.41 
14.82 48.92 -12.94 
15.53 48.88 -15.93 
15.91 48.93 -12.67 
16.17 49.11 -12.80 
9.55 49.90 -13.31 
9.55 49.89 -12.52 
9.32 49.94 -11.90 
10.15 50.04 -15.74 
10.15 50.04 -14.52 
10.15 50.04 -14.11 
9.79 49.95 -13.26 
10.09 49.94 -12.81 
9.98 49.80 -12.19 
10.47 50.10 -15.98 
10.47 50.10 -15.67 
10.37 49.82 -14.79 
10.38 49.80 -14.13 
10.52 49.81 -13.25 
10.52 49.81 -12.83 
10.95 49.53 -12.03 
11.33 49.89 -15.85 
11.26 49.80 -12.44 
13.32 49.98 -15.92 
13.29 49.92 -15.25 
13.29 49.93 -14.87 
13.31 49.95 -14.12 
13.34 49.71 -13.60 
14.08 49.66 -15.92 
13.88 49.56 -13.30 
8.82 50.54 -13.18 
8.82 50.54 -12.72 
9.26 50.29 -13.14 
9.25 50.29 -12.66 
9.55 50.29 -11.93 
9.81 50.50 -13.19 
9.59 50.27 -12.74 
10.74 50.49 -16.04 
10.74 50.48 -15.66 
10.72 50.42 -13.37 
12.30 50.46 -15.91 
13.23 50.77 -16.06 
12.70 51.23 -15.99 
11.21 52.06 -16.02 
12.27 52.49 -15.98 
12.35 52.94 -11.87 
12.66 52.62 -16.11 
12.60 52.58 -12.12 
10.16 53.72 -13.70 
10.17 53.71 -13.00 
10.70 53.48 -16.00 
12.30 53.70 -15.94 
12.28 53.72 -13.89 
12.39 53.53 -13.30 
12.36 53.10 -11.82 
14.47 53.66 -13.92 
14.42 53.72 -13.41 
14.44 53.66 -12.66 
14.84 53.50 -13.38 
14.82 53.49 -12.94 
9.56 54.31 -12.68 
10.01 53.95 -13.35 
9.80 54.13 -12.66 
10.97 54.40 -15.96 
10.99 54.35 -13.83 
10.85 54.26 -13.58 
10.83 54.35 -12.85 
11.07 53.89 -16.00 
11.98 53.94 -13.83 
12.20 53.81 -13.33 
12.00 53.96 -12.87 
12.58 53.91 -13.69 
13.71 53.86 -16.09 
13.70 53.87 -15.18 
13.70 53.88 -14.82 
13.69 53.88 -14.46 
13.68 54.11 -13.58 
13.52 54.16 -13.01 
13.90 53.83 -16.00 
13.91 53.83 -15.59 
13.91 53.84 -14.78 
13.91 53.84 -14.37 
13.92 53.85 -13.56 
14.47 53.73 -12.97 
14.42 53.72 -13.41 
15.56 54.27 -13.50 
15.54 54.25 -13.05 
16.48 54.37 -13.68 
17.13 53.86 -15.88 
17.29 53.92 -15.51 
17.13 53.87 -14.58 
17.13 53.87 -14.14 
17.17 54.06 -13.32 
17.17 54.10 -12.81 
17.32 54.10 -15.44 
17.28 53.93 -14.92 
17.28 53.94 -14.34 
17.56 53.89 -13.33 
17.55 53.87 -12.83 
10.35 54.65 -15.43 
10.25 54.52 -14.83 
10.35 54.64 -14.17 
10.20 54.80 -13.61 
10.00 54.96 -12.78 
9.90 54.52 -11.78 
9.94 54.99 -11.66 
10.62 54.72 -16.01 
10.25 54.52 -15.63 
10.25 54.52 -14.83 
10.35 54.64 -14.17 
10.44 54.46 -13.45 
10.39 54.61 -13.06 
11.06 54.65 -16.00 
12.15 54.85 -15.90 
11.84 55.05 -13.85 
12.07 54.96 -13.77 
12.03 54.95 -12.82 
12.51 55.09 -16.13 
12.52 55.08 -15.81 
13.91 54.96 -16.12 
14.14 55.10 -15.64 
14.15 55.12 -14.23 
14.75 55.10 -13.80 
15.13 54.73 -13.54 
15.15 54.75 -13.07 
15.75 54.53 -15.97 
15.75 54.54 -15.54 
15.86 54.53 -14.80 
15.79 54.56 -14.15 
15.61 54.78 -13.51 
15.54 54.66 -12.94 
16.23 54.50 -13.51 
16.14 54.51 -12.83 
9.64 55.13 -12.64 
9.65 55.13 -11.66 
10.82 55.78 -16.03 
10.70 55.55 -13.79 
10.80 55.69 -13.27 
10.88 55.62 -12.68 
11.42 55.39 -16.09 
11.47 55.24 -15.69 
11.40 55.41 -14.68 
11.40 55.42 -13.98 
11.39 55.42 -13.62 
11.29 55.46 -12.84 
11.92 55.80 -15.94 
11.92 55.80 -15.45 
11.93 55.79 -14.64 
12.02 55.59 -14.19 
12.04 55.58 -13.45 
11.87 55.30 -12.83 
12.55 55.18 -16.06 
12.56 55.18 -15.68 
12.59 55.57 -13.60 
13.84 55.37 -13.78 
14.27 55.16 -16.10 
14.26 55.16 -15.65 
14.15 55.12 -14.23 
14.25 55.19 -13.37 
10.34 55.93 -12.76 
11.56 55.95 -13.47 
11.78 55.99 -13.32 
11.81 56.00 -12.64 
13.34 55.95 -16.12 
15.94 56.26 -16.21 
16.57 55.91 -16.22 
12.78 56.97 -16.17 
14.83 56.68 -16.09 
15.60 56.65 -16.09 
16.47 56.86 -16.08 
11.41 57.80 -16.16 
12.06 57.63 -16.06 
12.92 57.37 -16.11 
8.08 58.04 -16.07 
10.88 58.47 -16.04 
11.44 58.00 -16.05 
13.68 58.35 -13.12 
13.75 58.01 -12.94 
13.68 58.38 -12.22 
14.14 57.97 -13.33 
14.03 58.15 -12.53 
13.94 58.14 -12.33 
4.88 59.27 -16.05 
4.88 59.27 -15.54 
4.88 59.28 -14.69 
4.88 59.28 -14.35 
5.19 59.29 -13.29 
5.19 59.29 -12.94 
5.80 59.10 -13.28 
6.05 58.94 -12.90 
6.77 59.18 -16.05 
7.24 59.23 -15.99 
7.24 59.23 -15.42 
7.27 59.35 -14.80 
7.26 59.36 -14.04 
7.32 59.16 -13.13 
7.26 59.24 -12.55 
7.74 59.17 -16.07 
10.22 59.18 -16.16 
10.82 58.78 -16.16 
13.02 58.80 -13.11 
13.31 58.67 -13.02 
16.91 58.96 -16.17 
0.55 59.89 -16.25 
3.93 60.01 -16.13 
3.93 60.02 -15.33 
4.08 59.86 -14.82 
3.94 59.84 -14.07 
3.52 60.02 -13.50 
4.10 59.84 -16.03 
4.09 59.85 -15.27 
4.08 59.86 -14.82 
4.07 59.87 -14.05 
4.35 59.87 -13.25 
4.97 59.55 -16.11 
5.16 59.37 -15.52 
5.16 59.38 -14.75 
5.16 59.38 -14.37 
5.06 59.71 -13.17 
5.35 59.72 -13.00 
5.74 59.66 -16.12 
5.63 59.58 -15.49 
5.56 59.54 -14.74 
5.62 59.59 -14.08 
5.67 59.45 -13.18 
5.78 59.61 -12.85 
6.37 59.59 -13.31 
6.84 59.41 -12.54 
7.10 59.44 -16.02 
7.18 59.33 -15.41 
7.27 59.35 -14.80 
7.26 59.36 -14.04 
7.26 59.37 -13.27 
7.25 59.38 -12.51 
9.63 59.59 -16.15 
11.37 59.92 -12.98 
15.36 59.63 -16.19 
2.93 60.11 -16.22 
2.87 60.30 -15.58 
2.88 60.16 -14.77 
3.02 60.07 -14.27 
2.99 60.09 -13.53 
3.87 60.36 -16.13 
3.94 60.03 -14.12 
3.69 60.27 -13.29 
4.35 60.07 -13.26 
9.79 60.08 -16.19 
11.01 60.18 -12.80 
11.33 60.20 -13.33 
