# .PCD v0.7 - Point Cloud Data file format
VERSION 0.7
FIELDS x y z
SIZE 4 4 4
TYPE F F F
COUNT 1 1 1
WIDTH 318
HEIGHT 1
VIEWPOINT 0 0 0 1 0 0 0
POINTS 318
DATA ascii
25.19 86.17 -14.77 
25.18 86.16 -14.36 
25.32 86.01 -13.74 
25.14 86.07 -12.69 
25.14 85.98 -12.26 
25.49 85.89 -15.63 
25.47 85.87 -15.14 
25.47 85.83 -14.66 
25.84 85.70 -13.87 
25.77 85.93 -13.19 
25.80 85.84 -12.24 
25.68 85.97 -11.74 
25.84 85.65 -11.22 
26.03 85.56 -15.35 
26.03 85.56 -14.52 
26.04 85.56 -13.68 
26.05 85.55 -12.84 
26.06 85.55 -11.99 
26.07 85.56 -11.15 
28.79 86.17 -15.38 
29.18 85.51 -15.64 
29.18 85.50 -15.17 
31.38 86.06 -15.73 
31.91 86.08 -15.83 
31.63 86.04 -15.16 
32.90 85.79 -15.73 
32.55 85.58 -15.42 
33.35 85.53 -15.74 
35.09 85.82 -15.76 
35.60 86.09 -15.79 
35.59 86.08 -15.43 
36.72 85.93 -15.86 
41.06 85.72 -15.74 
18.66 86.64 -15.93 
21.76 86.66 -15.93 
21.99 86.84 -15.94 
25.22 86.19 -15.59 
25.20 86.18 -15.18 
27.32 86.70 -15.60 
27.31 86.73 -15.30 
27.31 86.58 -14.72 
27.96 86.57 -15.96 
28.67 86.33 -15.61 
31.51 86.49 -15.71 
31.51 86.48 -15.44 
31.80 86.26 -15.84 
32.93 86.51 -15.84 
35.78 86.40 -15.45 
18.81 87.19 -15.91 
19.16 87.34 -15.96 
20.58 87.54 -15.92 
21.84 87.32 -15.93 
25.73 87.15 -15.67 
25.73 87.59 -15.25 
26.38 87.44 -15.99 
26.09 87.50 -15.01 
26.11 87.50 -14.56 
26.88 87.40 -15.61 
27.10 86.90 -14.88 
26.89 87.39 -14.74 
27.96 87.23 -15.70 
27.86 87.33 -15.12 
27.93 87.21 -14.67 
28.15 87.12 -15.94 
17.89 87.72 -15.52 
18.18 87.70 -15.37 
18.32 87.84 -15.74 
18.33 87.86 -15.25 
24.89 88.09 -15.62 
25.73 87.59 -15.55 
25.36 87.67 -15.34 
26.45 88.12 -15.50 
26.45 88.11 -15.22 
26.46 88.10 -14.39 
26.82 87.99 -15.52 
26.83 87.99 -15.21 
26.84 87.98 -14.58 
31.34 88.03 -15.75 
31.54 88.28 -15.37 
31.67 88.13 -14.34 
31.50 88.24 -13.66 
31.49 88.21 -12.79 
32.03 87.71 -15.91 
31.69 88.16 -15.27 
31.67 88.13 -14.34 
31.66 88.11 -13.87 
31.67 88.04 -12.92 
18.21 88.76 -15.77 
18.21 88.82 -15.35 
18.46 88.97 -15.83 
18.57 88.79 -15.37 
24.71 88.53 -15.63 
26.21 88.89 -15.57 
26.24 88.75 -15.17 
31.40 88.52 -15.78 
31.89 88.40 -15.79 
18.25 89.07 -15.73 
18.18 89.29 -15.41 
26.51 89.66 -15.74 
26.64 89.51 -15.04 
26.64 89.47 -14.62 
26.86 89.40 -15.55 
26.85 89.40 -15.04 
40.74 89.15 -15.54 
26.32 89.76 -15.75 
26.31 89.75 -15.41 
34.92 90.34 -16.02 
35.33 90.23 -16.03 
40.70 90.35 -15.55 
40.70 90.35 -14.69 
19.41 90.45 -15.74 
23.92 91.08 -15.53 
25.04 90.94 -15.92 
32.78 90.69 -16.02 
34.65 90.41 -16.02 
40.77 90.56 -14.86 
40.78 90.55 -14.49 
23.52 91.74 -15.34 
24.02 91.48 -15.55 
24.23 91.46 -15.29 
24.64 91.19 -15.92 
24.67 91.19 -15.32 
30.12 91.10 -15.97 
32.67 91.24 -15.98 
33.37 91.14 -15.96 
39.56 91.56 -15.68 
40.57 91.62 -12.30 
40.57 91.74 -11.56 
40.60 91.69 -10.94 
40.89 91.52 -12.22 
17.96 92.16 -15.59 
18.92 92.18 -15.77 
18.92 92.17 -15.32 
19.21 92.26 -15.50 
22.93 92.36 -15.82 
23.09 92.22 -15.39 
23.39 91.91 -15.46 
24.58 91.82 -15.56 
25.25 92.37 -15.54 
25.52 92.01 -15.57 
39.36 92.27 -15.50 
39.99 92.05 -10.93 
40.57 91.85 -12.15 
40.68 92.35 -11.35 
40.33 92.28 -11.08 
40.72 92.17 -15.47 
41.40 92.44 -14.54 
41.40 92.42 -13.36 
40.73 92.05 -12.21 
40.75 92.07 -11.26 
17.98 92.95 -15.45 
17.86 93.17 -13.47 
18.98 93.17 -15.69 
18.76 93.14 -13.57 
18.77 93.12 -13.22 
20.80 92.50 -15.85 
21.87 92.95 -15.85 
39.36 92.95 -15.71 
39.61 93.15 -14.95 
39.61 93.14 -14.48 
39.63 93.12 -13.64 
39.80 93.03 -13.30 
40.64 92.59 -11.38 
40.21 92.51 -10.98 
17.96 93.35 -15.65 
17.95 93.73 -14.83 
18.00 93.39 -14.12 
17.63 93.54 -13.67 
17.73 93.35 -13.05 
18.89 93.75 -15.41 
18.80 93.73 -13.38 
18.53 93.58 -12.99 
19.03 93.20 -13.58 
19.26 93.51 -13.21 
20.93 93.28 -15.84 
22.63 93.78 -15.94 
23.48 93.57 -15.91 
39.88 93.30 -15.59 
39.88 93.30 -15.10 
39.87 93.29 -14.37 
39.87 93.28 -14.00 
39.86 93.27 -13.26 
40.06 93.54 -15.53 
40.06 93.54 -15.10 
40.05 93.53 -14.66 
17.95 94.33 -15.25 
17.62 94.25 -14.64 
17.65 94.38 -13.55 
17.80 94.45 -13.10 
18.68 94.32 -15.49 
18.52 94.47 -15.20 
18.69 94.46 -14.66 
18.60 94.25 -13.47 
18.74 94.36 -13.00 
19.01 94.23 -15.23 
19.02 94.24 -14.41 
19.04 94.25 -13.59 
19.06 94.26 -12.92 
21.01 94.32 -15.67 
22.06 94.57 -15.83 
22.79 94.08 -16.00 
23.53 93.97 -15.90 
18.09 94.72 -13.84 
18.09 94.86 -13.16 
18.68 94.60 -15.86 
18.70 94.61 -15.31 
18.74 94.77 -13.63 
18.75 94.78 -13.07 
19.40 94.97 -15.77 
19.41 94.97 -14.78 
19.31 94.95 -13.36 
19.31 94.95 -13.07 
20.13 95.20 -15.99 
19.90 95.23 -15.31 
19.90 95.23 -14.21 
19.90 95.23 -13.88 
19.79 95.20 -13.30 
22.12 94.97 -15.83 
19.50 95.43 -15.99 
19.66 95.30 -13.05 
19.96 95.52 -15.76 
19.95 95.53 -15.39 
19.87 95.56 -13.40 
20.14 95.78 -13.02 
22.21 95.37 -15.82 
22.78 95.67 -16.00 
18.78 96.57 -16.03 
19.41 96.63 -16.13 
19.97 96.15 -13.49 
19.98 96.15 -13.10 
23.00 96.31 -15.93 
41.48 96.34 -15.58 
18.81 97.01 -16.07 
19.35 97.31 -16.14 
24.40 96.84 -15.73 
39.79 97.34 -12.00 
40.00 97.27 -11.94 
39.66 97.86 -15.43 
39.94 97.60 -12.14 
40.07 97.69 -15.38 
40.13 97.67 -12.29 
40.15 97.66 -11.93 
18.12 99.79 -15.42 
38.09 100.02 -11.82 
37.95 100.80 -15.24 
37.77 100.94 -14.14 
37.78 100.79 -13.65 
37.94 100.77 -13.04 
37.56 100.63 -11.98 
37.56 100.62 -11.56 
37.43 100.31 -11.14 
38.26 100.53 -15.53 
38.21 100.59 -14.85 
37.94 100.78 -14.14 
37.94 100.78 -13.59 
37.94 100.77 -13.04 
38.24 100.76 -12.40 
38.24 100.76 -11.73 
37.78 100.95 -15.50 
37.77 100.95 -15.05 
37.59 100.99 -14.51 
37.58 100.98 -13.67 
37.58 100.97 -12.84 
37.57 100.97 -11.99 
37.57 100.97 -11.57 
38.01 101.08 -11.41 
37.39 102.31 -15.53 
36.62 103.45 -15.47 
40.10 103.49 -15.08 
41.54 103.46 -13.26 
40.31 104.12 -15.01 
40.37 104.15 -13.43 
40.69 104.27 -13.28 
42.01 103.99 -13.46 
42.14 103.96 -13.67 
42.29 104.23 -13.25 
40.75 104.65 -15.14 
40.65 104.87 -13.64 
40.39 104.95 -13.23 
40.75 104.65 -15.14 
40.83 104.63 -13.03 
41.71 104.71 -13.22 
42.18 104.43 -13.29 
41.09 105.39 -13.24 
41.67 105.14 -13.18 
40.94 107.17 -15.43 
41.45 106.54 -15.44 
29.62 107.21 -15.48 
28.39 108.49 -11.28 
28.60 108.53 -11.06 
40.01 108.32 -15.41 
26.06 109.18 -14.95 
26.05 109.15 -14.16 
26.03 109.13 -13.35 
29.45 109.11 -14.01 
29.42 109.14 -12.96 
41.61 109.14 -15.14 
25.95 109.44 -14.84 
25.95 109.43 -14.27 
25.95 109.42 -13.50 
25.96 109.42 -13.12 
26.51 109.82 -15.64 
26.27 109.46 -14.96 
26.27 109.45 -14.16 
26.26 109.44 -13.70 
26.50 109.78 -13.29 
27.53 109.48 -15.52 
29.43 109.38 -14.09 
29.41 109.39 -13.35 
29.60 109.57 -15.44 
29.51 109.33 -14.24 
29.42 109.39 -13.72 
29.52 109.36 -12.88 
29.73 109.48 -12.47 
26.55 110.03 -15.57 
26.55 110.02 -14.86 
26.55 110.02 -14.44 
26.54 110.01 -13.60 
