# .PCD v0.7 - Point Cloud Data file format
VERSION 0.7
FIELDS x y z
SIZE 4 4 4
TYPE F F F
COUNT 1 1 1
WIDTH 367
HEIGHT 1
VIEWPOINT 0 0 0 1 0 0 0
POINTS 367
DATA ascii
38.40 212.46 -6.24 
38.73 212.18 -7.36 
39.18 212.29 -6.10 
39.53 212.18 -7.46 
40.52 212.21 -7.34 
40.82 212.10 -7.32 
41.72 212.22 -7.25 
41.52 212.27 -6.17 
22.13 213.32 -8.76 
22.05 213.17 -8.21 
37.75 213.01 -6.21 
38.62 212.95 -6.62 
38.34 212.80 -6.25 
38.94 212.98 -6.59 
38.76 212.73 -6.27 
39.64 213.23 -7.80 
39.63 212.71 -7.41 
39.37 212.98 -6.68 
40.42 213.01 -7.93 
40.27 212.80 -7.72 
40.25 213.21 -6.88 
41.24 213.09 -7.36 
41.34 213.03 -6.70 
41.19 212.96 -5.96 
41.93 213.13 -9.16 
41.91 213.21 -8.81 
41.62 212.87 -7.92 
41.80 212.68 -7.12 
41.68 212.74 -6.68 
41.70 212.72 -6.21 
42.54 213.15 -8.75 
42.19 212.93 -8.21 
21.61 213.42 -8.76 
21.70 213.28 -8.23 
22.14 213.31 -9.52 
22.05 213.23 -9.02 
21.85 213.34 -8.45 
38.55 213.37 -6.80 
39.10 213.46 -6.81 
39.64 213.23 -7.80 
39.65 213.49 -6.81 
40.13 213.33 -6.87 
42.12 213.91 -9.32 
41.80 213.25 -8.75 
42.09 213.79 -8.06 
42.54 213.76 -9.57 
42.41 213.73 -9.15 
20.97 214.52 -8.67 
21.67 214.22 -8.68 
39.97 214.21 -7.94 
41.38 214.56 -6.91 
41.94 213.97 -9.53 
41.82 214.05 -8.51 
41.80 214.14 -8.18 
41.77 214.35 -7.39 
41.75 214.46 -6.92 
41.80 214.41 -6.41 
42.43 213.96 -9.29 
42.42 214.01 -8.63 
42.32 214.09 -8.25 
42.16 214.23 -7.51 
20.86 214.71 -8.68 
41.25 215.26 -6.75 
41.27 215.05 -5.90 
41.13 215.11 -5.30 
41.55 214.75 -6.42 
41.73 215.00 -5.98 
39.25 215.87 -8.80 
39.04 215.99 -7.26 
39.74 215.38 -8.61 
39.55 215.86 -7.53 
40.25 215.75 -8.62 
40.81 215.77 -8.74 
41.36 215.79 -6.82 
41.58 215.98 -7.51 
42.39 215.74 -8.41 
38.57 216.46 -8.99 
38.91 216.42 -9.23 
38.87 216.14 -8.94 
39.03 216.68 -7.95 
39.21 216.52 -7.62 
39.71 216.46 -9.23 
39.66 216.17 -8.93 
39.50 216.57 -7.29 
39.72 216.70 -6.97 
39.63 216.32 -5.84 
40.13 216.33 -9.20 
40.25 216.11 -8.92 
40.52 216.49 -6.38 
42.01 216.33 -7.65 
42.29 216.18 -8.04 
39.18 217.16 -7.39 
39.70 216.96 -5.91 
40.39 217.02 -6.49 
41.15 217.22 -6.55 
41.98 216.96 -7.57 
42.07 216.99 -7.70 
38.90 217.45 -7.27 
39.47 217.60 -5.87 
41.37 217.82 -7.25 
41.13 217.84 -6.98 
41.95 217.96 -7.77 
41.85 217.88 -7.61 
42.45 217.56 -8.84 
41.27 218.32 -7.25 
41.73 218.27 -7.61 
41.47 218.49 -6.91 
42.53 218.28 -8.93 
41.24 219.27 -4.35 
42.01 218.94 -5.24 
41.43 218.88 -4.45 
42.17 218.90 -5.64 
41.87 219.81 -5.26 
41.71 219.70 -4.53 
41.72 220.27 -5.28 
31.39 231.40 -8.62 
31.61 232.09 -8.56 
30.96 231.70 -7.44 
31.30 231.65 -7.05 
31.94 232.13 -9.30 
31.96 231.82 -8.82 
32.05 231.88 -8.06 
32.68 231.62 -9.56 
32.43 231.53 -7.76 
29.02 232.65 -9.81 
29.51 232.42 -8.47 
28.85 232.39 -7.62 
30.29 232.60 -8.97 
30.69 232.73 -7.23 
31.24 232.43 -7.37 
31.50 232.57 -6.93 
31.90 232.39 -9.30 
32.01 232.23 -8.80 
31.85 232.26 -7.97 
31.81 232.76 -7.67 
31.64 232.70 -6.51 
32.87 232.57 -9.30 
32.91 232.24 -8.73 
33.60 232.56 -8.68 
28.64 233.49 -9.17 
28.16 232.86 -9.12 
28.78 233.42 -7.97 
29.22 233.33 -9.63 
29.38 233.38 -8.84 
28.98 233.38 -8.20 
29.83 233.24 -9.37 
30.08 233.31 -8.45 
30.03 233.08 -6.49 
30.50 233.26 -8.72 
30.27 233.51 -8.00 
30.24 233.08 -7.39 
30.69 233.43 -6.47 
30.53 233.46 -6.19 
31.63 233.27 -9.17 
31.36 233.26 -7.64 
31.54 233.01 -6.49 
31.45 233.42 -5.70 
31.39 233.30 -5.50 
32.08 233.50 -9.54 
32.29 233.46 -8.64 
32.06 233.14 -7.98 
31.79 233.04 -7.66 
31.76 233.34 -6.65 
32.91 233.15 -9.29 
32.88 233.02 -9.21 
32.53 233.45 -8.09 
33.39 233.17 -8.50 
33.03 233.23 -8.45 
33.89 233.51 -8.94 
33.88 233.49 -8.08 
27.35 233.99 -9.16 
27.41 234.07 -9.13 
27.94 234.09 -9.24 
28.64 234.22 -7.41 
29.25 233.87 -8.89 
29.28 233.54 -8.16 
29.13 234.16 -7.59 
29.54 233.64 -9.65 
29.99 234.02 -8.80 
30.12 233.97 -8.30 
30.03 233.62 -6.98 
30.72 233.72 -9.63 
30.49 233.80 -8.71 
30.43 234.10 -8.01 
30.48 234.00 -7.75 
30.74 233.89 -6.14 
31.14 233.83 -9.21 
31.20 233.90 -8.74 
31.05 233.97 -7.76 
31.06 234.32 -7.62 
30.96 234.15 -6.81 
31.56 234.03 -5.67 
31.98 234.01 -9.72 
31.99 234.18 -9.02 
32.14 233.92 -8.10 
31.78 233.65 -6.78 
32.87 233.59 -9.30 
32.69 233.84 -8.71 
33.04 233.91 -7.87 
33.02 234.07 -7.15 
33.21 234.19 -9.57 
33.51 234.20 -8.64 
33.48 233.86 -8.05 
33.32 234.01 -7.73 
33.29 233.67 -7.02 
34.22 233.85 -8.61 
34.27 233.79 -7.11 
34.51 233.89 -8.83 
35.24 234.13 -8.20 
36.20 234.22 -9.18 
36.52 234.13 -8.81 
36.52 234.13 -8.81 
36.78 233.81 -8.09 
37.33 234.02 -8.25 
18.33 234.62 -7.54 
28.13 234.75 -8.87 
28.82 234.50 -8.96 
28.15 234.25 -7.25 
28.65 234.92 -6.59 
28.95 234.61 -9.40 
29.29 234.60 -9.01 
28.95 234.60 -8.08 
29.13 234.37 -7.35 
29.01 234.36 -6.84 
29.77 234.35 -9.20 
30.01 234.72 -8.94 
30.10 234.72 -8.19 
29.55 234.53 -7.50 
30.54 234.53 -9.80 
30.36 234.89 -8.68 
30.28 234.31 -8.44 
30.81 234.71 -6.57 
30.59 234.44 -6.19 
30.46 234.44 -5.56 
31.18 234.79 -9.70 
31.44 234.83 -8.97 
31.10 234.52 -7.92 
31.27 234.57 -7.40 
31.27 234.57 -6.52 
31.18 234.87 -6.23 
32.25 234.85 -9.18 
32.23 234.53 -8.71 
32.08 234.60 -8.09 
31.81 234.31 -7.10 
31.95 234.53 -6.58 
31.72 234.84 -6.25 
32.39 234.68 -9.53 
32.61 234.66 -8.68 
32.53 234.58 -8.07 
32.48 234.75 -7.43 
32.60 234.86 -6.11 
33.15 234.50 -9.58 
33.42 234.47 -8.63 
33.47 234.57 -7.35 
34.06 234.84 -9.04 
33.71 234.49 -7.23 
34.01 234.44 -6.85 
34.53 234.66 -9.68 
34.78 234.44 -6.80 
35.89 234.31 -9.54 
35.33 234.84 -8.99 
35.24 234.13 -8.20 
35.76 234.47 -7.43 
35.56 234.81 -7.03 
35.82 234.79 -6.17 
36.05 234.86 -9.44 
35.96 234.44 -8.58 
36.45 234.43 -8.41 
36.65 234.62 -8.80 
36.98 234.81 -7.89 
36.79 234.48 -7.72 
37.76 234.73 -9.58 
37.34 234.74 -8.59 
37.27 234.62 -8.25 
37.77 234.68 -7.36 
37.83 234.40 -6.76 
38.50 234.93 -9.51 
38.20 234.62 -8.32 
38.14 234.63 -6.95 
39.22 234.48 -8.99 
39.13 234.84 -7.15 
38.91 234.89 -7.02 
39.25 234.73 -6.29 
39.66 234.61 -8.24 
41.00 234.79 -8.38 
41.13 234.84 -6.65 
41.44 234.90 -8.36 
41.72 234.84 -7.31 
28.81 235.34 -8.86 
28.73 235.23 -7.77 
28.86 235.19 -9.40 
28.86 234.95 -9.13 
28.95 235.28 -7.74 
29.16 235.15 -6.26 
30.20 235.46 -9.63 
29.99 235.26 -8.00 
29.95 235.26 -6.39 
30.22 235.07 -6.28 
30.69 234.97 -9.32 
30.91 235.39 -8.43 
30.49 235.31 -8.19 
30.40 235.18 -7.48 
30.66 235.01 -6.64 
30.53 235.08 -6.14 
30.98 235.35 -9.46 
31.24 235.14 -9.04 
31.25 235.06 -8.21 
31.43 235.06 -7.73 
31.30 235.46 -6.62 
31.16 235.39 -6.12 
31.99 234.96 -9.46 
32.06 235.29 -8.69 
31.92 235.30 -7.82 
32.24 234.99 -7.43 
32.22 234.96 -6.58 
32.20 235.43 -6.09 
32.71 235.11 -8.65 
32.58 235.20 -8.03 
32.34 235.12 -7.43 
32.78 235.04 -6.94 
33.24 235.02 -9.27 
33.31 235.11 -8.94 
33.17 235.38 -8.16 
33.50 235.00 -7.31 
33.17 235.41 -6.42 
34.38 235.05 -9.25 
34.42 235.17 -8.55 
33.85 235.40 -7.91 
34.58 235.04 -9.24 
34.68 235.22 -9.00 
34.54 235.20 -8.14 
35.27 235.10 -9.22 
36.39 234.99 -9.44 
36.02 235.30 -9.14 
35.98 235.25 -7.20 
36.69 235.16 -8.56 
36.63 235.46 -8.20 
36.90 235.12 -7.71 
37.84 235.26 -9.57 
37.20 235.14 -8.68 
37.49 235.33 -8.39 
37.66 235.21 -7.60 
37.75 235.02 -6.38 
38.23 235.12 -9.52 
38.24 235.32 -7.99 
38.03 235.45 -7.42 
38.26 235.10 -6.49 
39.09 235.24 -8.70 
39.20 235.23 -8.44 
39.30 235.13 -7.23 
39.62 235.44 -8.94 
39.58 235.20 -7.91 
39.61 235.14 -7.49 
40.46 235.38 -9.49 
40.07 235.19 -8.39 
40.67 235.30 -7.57 
41.00 235.21 -8.71 
40.91 235.26 -8.17 
41.11 235.20 -7.41 
41.22 235.07 -6.99 
41.96 235.31 -9.21 
42.06 235.42 -8.92 
41.58 235.15 -7.28 
42.46 235.16 -8.51 
42.37 235.26 -8.29 
42.15 235.42 -7.53 
42.24 235.20 -6.89 
