# .PCD v0.7 - Point Cloud Data file format
VERSION 0.7
FIELDS x y z
SIZE 4 4 4
TYPE F F F
COUNT 1 1 1
WIDTH 195
HEIGHT 1
VIEWPOINT 0 0 0 1 0 0 0
POINTS 195
DATA ascii
21.86 14.70 -15.83 
21.98 14.70 -15.23 
21.99 14.61 -15.88 
21.98 14.70 -15.23 
19.06 15.62 -15.67 
19.29 15.63 -15.92 
19.23 15.79 -15.97 
19.23 15.79 -15.26 
22.44 16.06 -15.92 
22.30 15.97 -15.42 
19.20 16.48 -16.06 
19.20 16.48 -15.20 
21.57 16.70 -15.84 
21.59 17.01 -15.20 
21.66 16.63 -14.40 
21.55 16.70 -13.76 
21.68 16.99 -13.44 
22.50 16.45 -15.87 
22.31 16.48 -15.40 
23.79 17.02 -15.96 
23.79 17.02 -15.49 
17.75 17.17 -16.07 
21.72 17.06 -15.80 
21.71 17.05 -14.09 
23.79 17.30 -15.83 
23.79 17.30 -15.39 
21.09 18.69 -15.95 
21.09 18.70 -15.28 
21.11 19.21 -15.93 
21.01 19.21 -15.20 
35.64 21.14 -16.53 
36.12 21.18 -16.39 
35.96 21.35 -16.54 
30.53 22.68 -16.43 
33.62 22.40 -16.38 
30.88 22.97 -16.53 
31.25 23.19 -16.55 
35.66 23.15 -16.63 
41.66 23.15 -16.64 
29.52 23.87 -16.63 
29.80 23.80 -16.48 
30.84 23.40 -16.44 
31.50 23.61 -16.56 
28.12 24.58 -16.57 
30.14 24.38 -16.49 
30.49 24.71 -16.49 
31.26 24.27 -16.45 
32.07 24.62 -16.47 
32.51 24.68 -16.61 
28.16 24.87 -16.57 
28.51 25.10 -16.59 
30.74 25.27 -16.50 
31.62 25.03 -16.57 
31.68 25.17 -16.47 
23.67 25.92 -16.49 
24.65 25.96 -16.50 
24.84 25.98 -16.44 
25.59 25.77 -16.55 
26.76 25.51 -16.63 
27.06 25.84 -16.58 
27.58 25.97 -16.49 
31.02 25.54 -16.50 
31.82 25.48 -16.48 
38.88 25.46 -16.47 
20.69 26.63 -16.66 
22.31 26.54 -16.45 
23.23 26.65 -16.67 
23.81 26.38 -16.50 
24.73 26.17 -16.52 
24.93 26.32 -16.39 
26.13 26.74 -16.61 
26.46 26.58 -16.55 
27.83 26.58 -16.50 
30.64 26.15 -16.69 
37.45 26.19 -16.50 
39.13 26.27 -16.47 
41.19 26.23 -16.28 
23.07 26.94 -16.46 
23.62 27.15 -16.48 
26.32 27.08 -16.62 
27.18 27.53 -16.56 
27.90 27.16 -16.62 
28.50 27.04 -16.53 
39.52 27.25 -16.24 
19.80 27.82 -16.52 
20.45 28.08 -16.47 
20.71 27.77 -16.48 
21.27 27.73 -16.51 
23.08 27.97 -16.55 
24.87 27.62 -16.43 
25.79 27.91 -16.85 
26.58 27.91 -16.63 
27.30 27.84 -16.56 
27.70 27.77 -16.66 
28.30 27.79 -16.73 
33.97 27.78 -16.92 
35.62 27.84 -16.49 
36.42 28.11 -16.51 
37.98 28.19 -16.20 
39.83 27.90 -16.14 
20.05 28.56 -16.53 
20.65 28.48 -16.49 
22.30 28.84 -16.78 
23.59 28.30 -16.51 
24.61 28.77 -16.64 
25.19 28.55 -16.67 
25.46 28.56 -16.67 
27.02 28.80 -16.76 
27.89 28.70 -16.80 
33.68 28.86 -16.67 
35.27 28.68 -16.75 
19.76 29.14 -16.46 
20.04 28.94 -16.54 
20.84 29.18 -16.55 
21.95 29.62 -16.67 
22.31 29.00 -16.64 
22.71 29.56 -16.67 
23.84 29.59 -16.60 
24.73 29.38 -16.59 
24.99 29.00 -16.64 
25.49 29.30 -16.68 
32.90 29.24 -16.67 
34.03 29.10 -16.51 
36.53 29.06 -16.43 
37.06 29.61 -16.28 
19.09 30.11 -16.69 
19.27 30.05 -16.65 
20.08 30.08 -16.57 
20.79 29.95 -16.66 
22.38 30.05 -16.69 
22.85 30.02 -16.67 
23.76 29.91 -16.67 
24.47 29.91 -16.74 
24.84 29.64 -16.48 
30.11 30.08 -16.64 
30.76 29.77 -16.61 
31.12 29.76 -16.80 
36.31 30.22 -16.41 
17.83 30.89 -16.73 
18.63 30.83 -16.66 
19.50 30.59 -16.61 
20.18 30.82 -16.60 
21.07 30.52 -16.61 
21.27 30.83 -16.62 
22.79 30.51 -16.70 
23.76 30.33 -16.76 
24.42 30.35 -16.83 
28.82 31.03 -16.96 
31.92 30.44 -16.76 
35.69 30.59 -16.24 
39.58 30.43 -16.39 
18.17 31.36 -16.66 
18.78 31.71 -16.69 
19.33 31.57 -16.69 
20.26 31.40 -16.61 
20.74 31.32 -16.71 
21.46 31.17 -16.69 
25.72 31.06 -16.76 
27.83 31.51 -16.72 
28.74 31.20 -16.63 
29.53 31.42 -16.87 
30.91 31.35 -16.57 
31.40 31.45 -16.71 
32.24 31.05 -16.42 
17.94 32.35 -16.67 
18.75 32.22 -16.70 
19.55 31.88 -16.71 
20.20 32.28 -16.60 
27.20 32.29 -16.79 
27.71 32.27 -16.61 
31.30 32.06 -16.43 
36.41 32.14 -16.23 
18.91 32.46 -16.71 
19.67 32.82 -16.78 
19.86 32.51 -16.77 
20.67 32.93 -16.72 
21.42 33.10 -16.74 
24.33 33.00 -16.65 
25.19 32.59 -16.79 
26.89 32.84 -16.63 
24.69 33.28 -16.82 
26.55 33.18 -16.74 
33.70 33.68 -16.43 
39.84 33.62 -16.17 
23.09 34.30 -16.73 
23.94 34.38 -16.75 
25.86 34.20 -16.58 
26.42 34.44 -16.66 
34.56 34.12 -16.40 
34.56 34.12 -16.40 
23.82 34.73 -16.67 
24.53 35.23 -16.55 
27.37 34.61 -16.54 
28.35 34.83 -16.44 
27.09 35.44 -16.48 
