# .PCD v0.7 - Point Cloud Data file format
VERSION 0.7
FIELDS x y z
SIZE 4 4 4
TYPE F F F
COUNT 1 1 1
WIDTH 1301
HEIGHT 1
VIEWPOINT 0 0 0 1 0 0 0
POINTS 1301
DATA ascii
2.202611923 -27.1515007 1.132177591
2.325567007 -27.83867836 2.085196972
2.190221071 -26.22994423 2.899064064
2.087128878 -24.9492321 3.643516064
2.186845303 -26.05595016 4.67278862
1.167980313 -15.45373821 0.4696004391
2.091592312 -26.91780853 1.130271673
3.444926262 -42.49945831 2.79287529
2.08447814 -26.03077316 2.883071423
2.061744213 -25.66285706 3.728616238
2.094706297 -26.01599503 4.666712761
1.104540706 -15.29226398 0.4739064276
1.963220835 -26.43641853 1.125065088
3.293720961 -42.43746185 2.791329861
1.993727326 -26.00204468 2.881302357
1.981181979 -25.74699783 3.738986015
2.005392075 -26.00723267 4.665492535
1.044724345 -15.16442585 0.4774539769
1.915505409 -27.00753212 1.133766413
3.148726463 -42.45061493 2.793416262
1.907879353 -26.0345993 2.884661198
1.851300955 -25.19121742 3.67335701
1.767513514 -26.20009804 1.124171257
3.010015965 -42.55092621 2.799722672
1.825137734 -26.11258316 2.891829014
1.765571594 -25.24723816 3.680454731
1.774905682 -25.27312469 4.552466869
1.668453217 -26.11060715 1.124137521
2.861025333 -42.61739731 2.804481983
1.738270521 -26.202528 2.900049925
1.685778141 -25.33239174 3.691021919
1.586966157 -26.22004509 1.126698852
2.721091032 -42.71674728 2.810771704
1.662078738 -26.39729691 2.917013407
1.603202939 -25.3835907 3.69758296
1.50490737 -26.25709534 1.128236651
2.565643072 -42.57436752 2.805372238
1.530467868 -25.64467049 2.854813814
1.508741975 -25.24817657 3.681986809
1.409824967 -26.14437103 1.127808094
2.465166569 -43.23270416 2.838693857
1.463994741 -25.99399376 2.884720564
1.416523695 -25.13421822 3.668961287
1.333321452 -26.37080002 1.131949425
2.418337584 -45.08803177 2.930188417
1.383964539 -26.14015961 2.897677898
1.327595472 -24.98796272 3.652088165
1.230370879 -26.08765221 1.129192948
2.276404619 -45.33951569 2.943996906
1.285356522 -25.94371605 2.882005215
1.234235883 -24.8177948 3.632416487
1.171636224 -26.73505783 1.139067173
2.123028755 -45.38700485 2.947926521
1.197945356 -25.95194435 2.883460999
1.152960777 -24.87341881 3.639625788
1.273344159 -31.4506321 1.204574347
1.865134001 -43.24501038 2.845538139
1.107867837 -25.99988556 2.888296127
1.064548731 -24.87141037 3.640036345
1.698413491 -42.97003555 2.833806038
1.030510187 -26.26040268 2.910911322
1.012778401 -25.76799202 3.74743557
1.029562235 -26.12153053 4.687186241
1.560984612 -43.0352478 2.838464975
1.281332254 -39.09325409 2.648011923
-26.05034447 18.11517525 0.7995116711
-20.01522636 13.55101681 1.605180383
-26.07209587 18.16849899 2.785351276
-26.04795647 18.20921516 3.782821178
-22.75683975 15.72834587 4.252214909
-29.46440506 20.96278381 6.524843693
-29.46972656 21.03717995 7.717559338
-29.46507645 21.09753418 8.92695713
-29.46970177 21.17359352 10.16339207
-29.46842003 21.24641991 11.42526722
-25.87922668 18.10826874 0.7973268628
-25.88826942 18.17416573 1.782986283
-25.94063568 18.19255066 2.776338816
-25.88514137 18.20904541 3.766918659
-22.74113464 15.82394028 4.254952908
-29.45513535 21.10147667 6.533266068
-29.48446465 21.19523239 7.734954357
-29.4727459 21.25062752 8.94623661
-29.4732914 21.32415199 10.18504143
-29.48589897 21.40857697 11.45615292
-25.74005699 18.12487221 0.7947303057
-25.75374031 18.19455528 1.777034044
-25.79193115 18.20242691 2.766038656
-25.71318245 18.20060539 3.749911547
-25.74942017 18.28244972 4.754422188
-29.47316551 21.26226425 6.547513962
-29.48301315 21.34151649 7.748361588
-29.4888382 21.41126442 8.968249321
-29.47161865 21.47139549 10.20505905
-29.48912621 21.56042671 11.48161888
-25.61050415 18.14809608 0.7920139432
-20.68818665 14.35429001 1.621482968
-25.64658165 18.21393585 2.755988836
-25.57758904 18.21944046 3.737231493
-25.59990692 18.29068184 4.736090183
-29.4857502 21.41976166 6.560739517
-29.48547554 21.49169731 7.762911797
-29.49346733 21.56379128 8.986979485
-29.48130798 21.62851143 10.22927475
-29.49459267 21.71494293 11.50823689
-25.57226753 18.24228668 0.7880172133
-20.64355469 14.4112215 1.618753076
-25.56887245 18.27775002 2.750998974
-25.56703758 18.32995605 3.73932457
-25.5500946 18.37693024 4.734170437
-29.49755287 21.57759666 6.573918819
-29.49081612 21.63755226 7.777639866
-29.50190926 21.7202549 9.007052422
-29.4932251 21.78836441 10.2545042
-29.49998093 21.86273003 11.53384113
-25.59000587 18.37476921 0.7834205031
-20.4851799 14.38272762 1.612513661
-20.84427261 14.65094852 2.398166656
-25.58722496 18.47173691 3.745309114
-25.56505966 18.51501846 4.742981911
-29.50912285 21.7287178 6.58662653
-29.51018715 21.80300903 7.7968297
-29.49959564 21.86143303 9.02314949
-29.51400948 21.94879532 10.28202915
-29.50842285 22.02144051 11.56216145
-25.58846283 18.50528526 0.7785941958
-20.38811684 14.40198708 1.608133435
-20.63244247 14.58075142 2.382964849
-25.59270859 18.60266685 3.7495749
-25.57623863 18.64457321 4.750919819
-29.50403976 21.87482071 6.596472263
-29.51958275 21.96145821 7.813612461
-29.50591087 22.02554131 9.043836594
-29.51238823 22.09960556 10.3029356
-29.51607895 22.18047333 11.59043789
-25.58469963 18.63476753 0.773753047
-20.31991959 14.4487505 1.604550004
-20.60717201 14.66364288 2.381766558
-25.59134102 18.73521996 3.753241301
-25.5898304 18.78965759 4.75997448
-29.51142311 22.03941917 6.609621525
-29.51689911 22.11863708 7.828158379
-29.51589584 22.19368362 9.065858841
-29.51824951 22.26508331 10.32780457
-29.52658653 22.35053635 11.62141895
-25.59738922 18.77193069 0.7688549161
-20.34785843 14.57331276 1.603839993
-20.51327896 14.69121075 2.375430822
-25.59703064 18.87429047 3.75779891
-25.58728409 18.92253685 4.766433716
-29.51642609 22.20310783 6.622397423
-29.50735855 22.27110481 7.841088295
-29.5287323 22.35757256 9.088056564
-29.51434135 22.42352104 10.34945297
-29.53033257 22.51609421 11.64996815
-25.61558914 18.91444778 0.7638224959
-20.2722435 14.6092701 1.600097656
-20.33366585 14.64333916 2.362633228
-25.60976982 19.0135479 3.763063669
-25.58415794 19.04924011 4.772537231
-29.53803062 22.37383652 6.638267994
-29.52043915 22.4354496 7.859305382
-29.54225349 22.52306557 9.110669136
-29.53859138 22.59859276 10.38026333
-29.52821922 22.66998672 11.67512703
-25.61760521 19.04462242 0.7589866519
-20.27222252 14.70713139 1.598602772
-20.30264664 14.71611786 2.360981464
-25.6125946 19.14551163 3.767176628
-25.59570312 19.18879128 4.781152248
-29.53294754 22.52353859 6.64858675
-29.54022789 22.60643005 7.879435539
-29.54000473 22.67643547 9.128629684
-29.54715919 22.76170349 10.4057436
-29.54288292 22.83890152 11.7073822
-25.60963058 19.17378426 0.7540166974
-20.17321205 14.72348595 1.594160914
-20.22058105 14.74682331 2.355502605
-20.58805656 15.10044098 3.164073706
-25.61705017 19.34396744 4.791819572
-29.53622627 22.68107033 6.660804749
-29.54111862 22.76268387 7.89481163
-29.54510307 22.84470749 9.149995804
-29.54667282 22.92604637 10.42936039
-29.54067421 22.99460411 11.73304749
-25.60728455 19.30183792 0.7491560578
-20.11945343 14.78194523 1.59098506
-20.11615372 14.76340389 2.348380089
-20.35582924 15.0124464 3.139108181
-25.61800766 19.47651672 4.798824787
-29.52433968 22.83457947 6.670483589
-29.52992249 22.91748619 7.907953262
-29.49084091 22.95580292 9.152234077
-29.47869301 23.02600861 10.42785072
-29.55996132 23.17754173 11.76913166
-25.62883568 19.45065308 0.7438648939
-20.08934021 14.85532475 1.588577151
-20.23896599 14.96533871 2.358305454
-20.33549881 15.09589481 3.139615536
-25.61225319 19.60417557 4.804778099
-29.54110909 23.0054245 6.685839653
-29.55465317 23.09588623 7.929894447
-29.56633949 23.17807961 9.194886208
-29.55384827 23.24886703 10.4779768
-29.56769943 23.34382248 11.79945564
-20.4709301 15.22772884 0.82304281
-19.83465004 14.73866463 1.579567909
-20.26759338 15.08961678 2.361166
-20.30871964 15.17421722 3.139365196
-25.62551498 19.74874878 4.81399107
-29.55400276 23.17408943 6.700500011
-29.56952858 23.26706886 7.949436188
-29.57421684 23.34401703 9.216799736
-29.56791115 23.42082024 10.50642872
-29.56594658 23.50293159 11.82616806
-25.64219856 19.72607613 0.7336027622
-19.79697418 14.8046875 1.576943517
-20.39890099 15.30234146 2.371765137
-20.2937088 15.26287937 3.140567064
-25.63652992 19.89234924 4.822908401
-29.56455231 23.34183693 6.714789391
-29.58946419 23.44376183 7.970490932
-29.57391167 23.50391579 9.236370087
-29.57964516 23.59188843 10.53430462
-29.5763588 23.67362213 11.85817909
-25.64936066 19.86549187 0.7283865213
-19.79543686 14.90189075 1.575366735
-19.94255638 15.01286602 2.33813405
-20.24357986 15.32171917 3.137522221
-25.63780975 20.02847862 4.830265999
-29.56977272 23.5060482 6.728063583
-29.58778 23.60284996 7.986024857
-29.58747101 23.67689323 9.260481834
-29.58615303 23.75950623 10.5605526
-29.58446884 23.84340668 11.88954639
-25.65430641 20.00388145 0.7231556773
-19.83877754 15.03850269 1.575081468
-19.93256569 15.10427761 2.338102341
-25.66488457 20.12670135 3.801315546
-25.65337753 20.17787361 4.840111256
-29.57862854 23.6744709 6.742255688
-29.59858131 23.77383995 8.005026817
-29.59430504 23.84510803 9.282710075
-29.58168983 23.91851807 10.58306885
-29.5988636 24.01986885 11.92382717
-25.66761208 20.15040016 0.7177284956
-19.82257271 15.12435341 1.573048234
-19.93418312 15.20627785 2.33895421
-25.67577171 20.27249146 3.806764126
-25.6636982 20.32369041 4.849154949
-29.58811569 23.84453964 6.756719589
-29.60115433 23.938694 8.022027969
-29.61048317 24.02268791 9.308094978
-29.58509254 24.08547592 10.60869312
-29.60522652 24.19036293 11.95509434
-25.67263985 20.29065895 0.7123894691
-19.84504318 15.24455357 1.572121024
-19.87072945 15.25186157 2.33490634
-25.68441963 20.4172802 3.811987162
-25.67327309 20.46981621 4.858155727
-29.59968758 24.0175724 6.771776676
-29.60583496 24.10645866 8.039761543
-29.61412811 24.1903038 9.32976532
-29.6049099 24.26819038 10.64057732
-29.61072922 24.36119652 11.98631191
-25.68596077 20.43911362 0.7068501115
-19.86537552 15.36375999 1.571113706
-19.8071537 15.29717445 2.330852985
-25.69382095 20.56368637 3.817350149
-25.67320442 20.60833931 4.865602493
-29.61037827 24.19097328 6.786782742
-29.61843872 24.28239441 8.059782982
-29.61547661 24.35693359 9.35092926
-29.61518097 24.44358635 10.66925526
-29.61536026 24.53236198 12.01747799
-25.687603 20.58512306 0.7011933327
-19.8029232 15.41016483 1.567712665
-19.74197388 15.34089279 2.326681852
-25.69355392 20.70244217 3.821576595
-25.67785263 20.75894356 4.874310017
-29.60989761 24.35549736 6.79949379
-29.6315918 24.46002007 8.080142021
-29.62342453 24.53894424 9.375453949
-29.61470795 24.61880302 10.69553089
-29.62477684 24.70900345 12.05096245
-25.69193077 20.72754288 0.6957014203
-25.6928196 20.79852104 1.734374642
-19.69052696 15.40181541 2.323589563
-25.69059563 20.84665871 3.825734615
-25.68223572 20.9032917 4.882678986
-29.6176548 24.53683281 6.814790249
-29.64550972 24.64793015 8.101753235
-29.62734795 24.71014595 9.397889137
-29.62600708 24.79750824 10.72515297
-29.64177895 24.90229988 12.08946705
-25.69502449 20.87676811 0.6899024248
-25.68567467 20.93214989 1.73194778
-25.71331215 20.93668365 2.779808283
-25.70367432 20.99925995 3.831696272
-25.68824959 21.05714989 4.891798019
-29.62712479 24.71260834 6.829962254
-29.62782669 24.79985809 8.11423111
-29.63769913 24.89683914 9.423675537
-29.62368393 24.97339821 10.75132275
-29.64509392 25.07582283 12.12106895
-25.71470833 21.02794647 0.6842876077
-25.70153999 21.0874939 1.730154991
-25.70248985 21.06800842 2.780052423
-25.72037315 21.15621948 3.838156462
-25.68000793 21.18476677 4.897786617
-29.63859749 24.89141083 6.845721245
-29.64836502 24.98784256 8.137151718
-29.6354332 25.05615425 9.443520546
-29.63311195 25.14424515 10.7795229
-29.64193344 25.24446297 12.15025711
-25.71031761 21.17238617 0.6785101891
-25.70036697 21.22833633 1.727856517
-25.70870972 21.21568108 2.781599045
-25.72891045 21.30680847 3.843663454
-25.69616318 21.34993362 4.908821106
-29.92026329 25.3211956 6.921163082
-30.07285309 25.64299583 9.606518745
-30.08868599 25.75043106 10.97634888
-25.70725441 21.31184006 0.6729325056
-25.71549225 21.39227104 1.725881696
-25.70472717 21.36211395 2.782441378
-25.73455238 21.46295929 3.849090338
-25.70626831 21.50348663 4.918518543
-30.00564003 25.58170891 6.954377174
-30.0860157 25.8303566 9.633224487
-30.09482384 25.93218613 11.00567055
-25.71669006 21.4637413 0.6670572162
-21.14776611 17.29315376 1.595359206
-21.17619705 17.30351067 2.440195084
-25.72546959 21.59923363 3.852520466
-25.71702576 21.65871811 4.928420067
-30.09093094 25.83579445 6.987123966
-30.09111786 26.01142883 9.657593727
-30.08601379 26.10101509 11.02970505
-25.72826576 21.61868095 0.6610786915
-21.06862831 17.33416557 1.591294289
-21.12477493 17.37073135 2.437182903
-25.74330902 21.76158524 3.859336138
-25.72408104 21.81155777 4.937775612
-30.1116066 26.03113365 7.005768299
-30.10092926 26.1982193 9.683732033
-30.10567665 26.29808426 11.06467438
-25.74631882 21.78079414 0.6549076438
-20.36209488 16.78389359 1.569750428
-20.93640137 17.30914497 2.423779011
-25.75739098 21.92157745 3.865742207
-25.72170258 21.95651245 4.945590973
-30.12839317 26.22421074 7.02371788
-30.10977554 26.38539696 9.709815025
-30.11595345 26.48758888 11.09644604
-30.13014412 26.59946251 12.51867676
-25.74897575 21.92954445 0.6489815116
-20.38932991 16.92109489 1.568703413
-20.77766418 17.27391624 2.41261816
-25.76341629 22.0750618 3.871201515
-25.73007202 22.1126709 4.955355167
-30.12419128 26.398592 7.037156105
-30.13539124 26.50349236 8.379535675
-30.12604904 26.5810585 9.738570213
-30.12939835 26.68151283 11.12973022
-30.11869621 26.77025986 12.54687309
-25.76100349 22.08821297 0.6428030133
-20.63993263 17.27276611 1.573808312
-20.63527489 17.25294495 2.402694941
-25.76864243 22.2288456 3.876615047
-25.74477768 22.27601624 4.966316223
-30.13899803 26.59244919 7.054991245
-30.14479446 26.69312286 8.401201248
-30.13989449 26.77580261 9.766811371
-30.13628769 26.87046051 11.16086578
-30.14190483 26.97606468 12.59033966
-25.77219582 22.24722099 0.6365764737
-20.56980515 17.32001877 1.570010304
-21.01447296 17.73209763 2.432448626
-25.77163124 22.38154221 3.881803513
-25.75291252 22.43420982 4.976233482
-30.14428711 26.7784729 7.070863724
-30.15882683 26.88861656 8.4243536
-30.15131569 26.96959877 9.794538498
-30.1366806 27.05437088 11.18985748
-30.15992928 27.17833519 12.63197327
-25.7724781 22.39684105 0.6305140853
-20.52684402 17.39341545 1.56695509
-25.7688179 22.45131111 2.79533577
-25.79240417 22.55256081 3.889270782
-25.76589966 22.59826088 4.987095356
-30.15001297 26.96622658 7.086997032
-30.16621971 27.07903099 8.445904732
-30.1658802 27.16790199 9.823569298
-30.14985275 27.25218391 11.22401047
-30.16873169 27.37298203 12.67001438
-25.78058624 22.55507851 0.6242234111
-20.3275547 17.31451797 1.559621692
-20.40906906 17.37899971 2.388211012
-25.80229187 22.71424103 3.89543581
-25.7596035 22.74459839 4.99468565
-30.16882896 27.16820717 7.106243134
-30.16982269 27.26706123 8.466626167
-30.16832733 27.35566139 9.848911285
-30.15786743 27.44633293 11.25653839
-30.17380524 27.56532097 12.70682049
-20.57849503 17.62093353 0.7303323746
-20.18894005 17.29328156 1.553965569
-20.19476318 17.28421211 2.372799397
-25.80138588 22.86646843 3.900303841
-25.74873161 22.89507484 5.002003193
-30.18095398 27.36507034 7.124159813
-30.19052315 27.47344017 8.49229908
-30.16377831 27.54711723 9.873463631
-30.17520714 27.66065979 11.2944603
-30.18191338 27.76210213 12.74533367
-25.79332733 22.87919044 0.6112065315
-20.07483101 17.30088997 1.54889226
-20.09494972 17.30614281 2.366156816
-25.80008316 23.02707863 3.905429125
-25.74653625 23.04745102 5.010495186
-30.1776123 27.55728531 7.139523983
-30.1916008 27.67112541 8.513780594
-30.17384529 27.74522781 9.901861191
-30.17837715 27.85289383 11.32582474
-30.18830109 27.96812439 12.78526497
-25.79037476 23.02992249 0.6049590111
-20.04307365 17.38405037 1.546141863
-20.18346214 17.50925064 2.373847961
-25.80742073 23.18969345 3.911448002
-25.78980827 23.24645805 5.027091503
-30.17790222 27.74513245 7.155109882
-30.18661308 27.85469437 8.532787323
-30.19244766 27.95345497 9.933369637
-30.17917824 28.04410362 11.35661125
-30.19828987 28.16980171 12.82541752
-25.80079079 23.19503784 0.598348856
-20.02223015 17.47851944 1.543673754
-25.81776237 23.27420998 2.805319071
-20.40183067 17.90691376 3.234073639
-25.80123901 23.41501617 5.038197041
-30.18969345 27.94595909 7.173480034
-30.19444084 28.05255508 8.555584908
-30.19901085 28.15101242 9.961192131
-30.18977165 28.24671364 11.39150047
-30.21519852 28.3801136 12.86903
-25.81313896 23.36332703 0.5916239023
-19.92215729 17.49344826 1.539073706
-25.81416321 23.42738914 2.80632925
-25.84469795 23.54140663 3.92652297
-25.79227829 23.56411934 5.04580164
-30.2031765 28.1500206 7.192419529
-30.21081543 28.26063728 8.581008911
-30.20996666 28.35453796 9.990764618
-30.20734406 28.45806313 11.42944717
-30.21769524 28.5771389 12.90670967
-25.83019829 23.53766632 0.5847170949
-19.96935844 17.65763092 1.538398862
-25.81256485 23.58366203 2.80750823
-25.84378052 23.69937134 3.931680679
-25.81583786 23.74751282 5.059267998
-30.20591927 28.34460258 7.209090233
-30.22060013 28.46353722 8.604833603
-30.21306229 28.55147934 10.01801395
-30.22913742 28.67545319 11.46940708
-30.22841263 28.78418922 12.94843388
-25.83232498 23.69810867 0.578083396
-19.9080658 17.71215057 1.534819007
-21.2705307 19.09272194 2.460970163
-25.85592651 23.87188721 3.938555479
-25.82733917 23.91995621 5.070710182
-30.21449852 28.5466423 7.227275848
-30.23883247 28.67674446 8.631280899
-30.22995377 28.76425171 10.05017185
-30.23239136 28.87518311 11.50254726
-30.24988747 29.00413704 12.99537277
-25.84057045 23.86600685 0.5712357163
-20.04421425 17.97034836 1.536443353
-25.82777405 23.91849327 2.811324835
-25.84499359 24.02184486 3.942559004
-25.84891891 24.10419464 5.084062576
-30.23020744 28.75763702 7.247286797
-30.24234009 28.87623596 8.653829575
-30.23360062 28.96479416 10.07820225
-30.23060226 29.07108688 11.53407097
-30.25702286 29.21068573 13.03638077
-25.85486221 24.0414238 0.5641700029
-20.00958443 18.05392265 1.533530951
-25.84304047 24.09575081 2.813846827
-25.87053299 24.21081543 3.951265574
-25.84479713 24.26304626 5.092944145
-30.24340248 28.96764755 7.266917706
-30.25559998 29.08748436 8.679380417
-30.24822426 29.17844582 10.11022949
-30.24499893 29.28560448 11.57227802
-30.26959991 29.42462158 13.08025551
-25.8598938 24.20855904 0.5572510362
-19.99278069 18.15048599 1.531174541
-25.85596085 24.27195549 2.81620717
-25.88536835 24.38189316 3.958400965
-30.15252876 28.96308708 5.874316692
-30.2609005 29.18384361 7.2877388
-30.26996613 29.29157829 8.704396248
-30.25502205 29.38545227 10.13993645
-30.25954819 29.50198555 11.61093521
-30.27166939 29.61882782 13.11792278
-25.87502098 24.37935638 0.5503561497
-19.94908524 18.22534752 1.528002262
-25.88303375 24.45619774 2.819603682
-25.8910923 24.5529232 3.964713812
-30.15677643 29.16504288 5.88680172
-30.26459122 29.37706757 7.304712772
-30.27293205 29.49509621 8.727524757
-30.26304054 29.58526039 10.16897774
-30.27794075 29.71406555 11.64982605
-30.28201485 29.83359337 13.16166973
-25.87139511 24.53987694 0.5435056686
-20.59960556 19.03044128 1.542904854
-20.88422585 19.3237896 2.436655045
-20.68219757 19.17165375 3.302401543
-30.15674782 29.35398293 5.898055077
-30.26769638 29.58112907 7.322583675
-30.28517342 29.69999695 8.752418518
-30.27692795 29.80306053 10.20171165
-30.28755188 29.92852211 11.68731594
-30.30014992 30.04823303 13.20740604
-25.87517548 24.70113182 0.5367511511
-20.56365967 19.11920166 1.539827228
-20.79310036 19.3494339 2.430691481
-25.91347885 24.90221977 3.978653193
-30.17106247 29.56973457 5.912615776
-30.28279495 29.78953362 7.342571735
-30.30462265 29.92446518 8.780766487
-30.29469299 30.0165596 10.23467922
-30.29586792 30.13294029 11.72297192
-30.31850815 30.27518463 13.25569534
-25.88606262 24.8962822 0.5286787748
-20.51683617 19.20948029 1.536241055
-20.89365768 19.60014915 2.439659834
-25.90936661 25.0835762 3.984478235
-30.17512894 29.78625679 5.926077366
-30.2896328 30.02126884 7.363465786
-30.30204201 30.14735031 8.805384636
-30.29208755 30.24046898 10.26531982
-30.28126526 30.3449192 11.75506401
-25.88110733 25.05912781 0.5216397643
-20.76350594 19.60527611 1.540347219
-20.82568741 19.65797997 2.435553312
-30.17364311 29.98825645 5.938067436
-33.83557892 34.48934174 13.20862961
-30.19952393 29.92272758 0.4014075696
-20.49419785 19.44280624 1.531273127
-30.18213654 29.99104881 3.158556461
-30.19968987 30.12072945 4.550722122
-30.18310928 30.20381546 5.952183247
-33.85523987 34.74969101 13.25640106
-20.7636795 19.79751968 0.642652452
-20.43216705 19.50496292 1.527480125
-20.37446594 19.42737007 2.403010607
-73.20223236 77.72122955 10.12704849
-33.86060715 34.99617386 13.2989254
-20.81505394 20.05947304 1.534854889
-20.43440819 19.62408638 2.408783913
-72.9342041 77.96543884 10.111063
-20.25667381 19.57209778 1.518591166
-20.45848465 19.78281021 2.411805391
-72.66532135 78.20870972 10.0950346
-20.3192215 19.77378654 1.51788187
-20.28092003 19.71683502 2.399232864
-72.42206573 78.48084259 10.08241272
-20.33020973 19.91923141 1.515858412
-20.19671822 19.75452423 2.393885374
-72.25684357 78.84186554 10.08006477
-20.04867172 19.73299599 1.506620526
-20.11641502 19.79635239 2.388842821
-71.93764496 79.02881622 10.05768871
-20.25640488 20.10404778 1.509391069
-71.71214294 79.32272339 10.04764366
-20.25036621 20.22598648 1.507004976
-32.30636597 34.12384033 3.338519812
-71.45223999 79.54978943 10.03218365
-21.25779915 21.53326797 1.528960466
-32.14149094 34.15588379 3.32771349
-71.21157074 79.82720184 10.02031326
-21.17149353 21.57839012 1.524338245
-31.97481155 34.19673157 3.316874743
-70.98014832 80.11601257 10.00974846
-20.66494179 21.13518333 1.509558916
-21.07605362 21.60555267 2.469758987
-70.7414093 80.42510986 9.999320984
-20.4967556 21.0862751 1.502927303
-21.12889099 21.82276535 2.47529459
-70.47057343 80.69688416 9.984741211
-20.46222115 21.18842697 1.499592781
-21.01358604 21.83378983 2.467658281
-23.21027756 24.55260468 3.72092247
-23.15235329 24.4801712 0.4889449179
-20.39751434 21.24762535 1.495662808
-20.83204842 21.76436234 2.454843521
-23.14332962 24.6320343 3.717796087
-23.10349274 24.58042336 0.483386308
-20.3672142 21.35584068 1.492399335
-20.82645607 21.89892006 2.455715895
-69.75327301 81.51561737 9.950077057
-20.90292358 22.07189369 0.5459179878
-20.23477554 21.33274651 1.486886024
-20.7683754 21.97798538 2.452561855
-69.4861145 81.73616791 9.934239388
-20.10038185 21.31344414 1.481212616
-20.61151505 21.92838478 2.441601038
-69.2668457 82.04479218 9.925948143
-20.05426788 21.40237045 1.477566838
-20.53186607 21.98038673 2.436762333
-20.12531471 21.63788414 1.476561069
-20.41081238 21.98066521 2.428675175
-20.11397171 21.77244186 1.473651171
-20.37708282 22.08973503 2.427454233
-20.14032745 21.95581055 1.471557617
-69.23709106 84.36656189 10.00870514
-20.28038979 22.2935791 1.471808672
-72.34819031 89.30918121 14.42338085
-20.57557869 22.82692528 1.475530148
-71.90294647 89.4061203 14.38066292
-20.53191757 22.93681145 1.471583843
-20.88354874 23.55458069 1.476319551
-70.92368317 89.4119339 14.27359772
-20.73784065 23.52760887 1.470221519
-21.25748444 24.19610596 2.50630331
-20.5925312 23.49989128 1.46414876
-21.07012177 24.11794281 2.49309516
-69.94770813 89.40836334 14.16675663
-20.4788456 23.51301765 1.458761334
-20.79472351 23.92055893 2.472885132
-69.47854614 89.08869934 10.20662498
-20.38678932 23.55448914 1.453833461
-20.60810852 23.83843613 2.459700346
-69.12099457 89.25267792 10.18157673
-69.03417206 89.47525787 14.07183361
-21.01202774 24.4663353 0.4394498169
-20.43383217 23.78367233 1.45179379
-20.45199585 23.79542923 2.448928356
-68.08414459 88.49433899 10.06229401
-68.00565338 88.72588348 13.91071224
-20.8609314 24.43377113 0.4372322559
-20.34095764 23.82489395 1.446821332
-20.41707993 23.915802 2.447803497
-67.6279068 88.51475525 10.02332115
-20.3245945 23.97076988 1.443409085
-20.30145264 23.9264698 2.440255642
-67.15826416 88.51369476 9.982431412
-67.11741638 88.79859924 13.81962299
-20.19248962 23.95805359 1.437626123
-20.31487274 24.11458206 2.44301343
-66.72438049 88.55890656 9.946489334
-66.65323639 88.80284882 13.76994896
-20.09919357 23.99829292 1.432633996
-20.33301735 24.31118011 2.446174383
-66.53697205 88.94577026 9.945100784
-20.23810196 24.36377525 1.432250142
-20.11787033 24.18296242 2.430681229
-66.37535858 89.37138367 9.947505951
-66.31021118 89.62848663 13.78854465
-20.21863556 24.51016426 1.428662539
-20.01123428 24.20512962 2.42386651
-65.94496155 89.41903687 9.912168503
-65.88656616 89.68678284 13.74719334
-20.11670494 24.54053879 1.423439503
-20.31148529 24.80535126 2.449719667
-65.48298645 89.41903687 9.872331619
-65.46328735 89.74318695 13.70586872
-20.18183136 24.80994797 1.421436906
-20.18920708 24.80836105 2.441692591
-65.04453278 89.44961548 9.835776329
-64.99966431 89.73890686 13.65626431
-20.14053154 24.92883682 1.417339921
-64.83472443 89.42253113 6.037539959
-64.59529114 89.46179199 9.797647476
-64.50534058 89.68661499 13.60025692
-64.29698944 89.34772491 2.247211456
-64.38326263 89.42929077 6.007905006
-64.1602478 89.49163818 9.761496544
-64.08377838 89.73698425 13.55905437
-63.83283234 89.33131409 2.226194143
-63.96177673 89.47688293 5.980681419
-63.74591827 89.54922485 9.728271484
-63.66260529 89.78547668 13.51788139
-63.28064346 89.52893829 9.687706947
-63.24295425 89.83376312 13.47696972
-9.716849327 10.19599438 2.788604736
-62.97180557 89.38829041 2.185512066
-63.07992554 89.5067749 5.923078537
-62.89831543 89.6290741 9.659025192
-9.583805084 10.02515602 2.365098715
-9.706310272 10.25088692 2.792668819
-62.50325394 89.35565948 2.164526939
-62.65991974 89.54862976 5.895961761
-9.6417799 10.14426422 1.987751245
-9.515802383 9.991869926 2.355680704
-9.681322098 10.28435135 2.792842627
-9.646029472 10.27350807 3.190284729
-9.539299965 10.05926323 1.975677133
-9.522267342 10.07115364 2.361819983
-9.478709221 10.04626274 2.744202614
-59.47374725 86.0947113 2.085841656
-59.60653305 86.25749207 5.661758423
-9.549928665 10.14548779 1.979997873
-9.526471138 10.19014931 2.764330864
-9.585934639 10.32519245 3.188280582
-59.16904449 86.23919678 5.632938385
-9.46339035 10.0830822 1.970186591
-9.458782196 10.11778545 2.358429909
-9.454467773 10.14988708 2.751447678
-9.53610611 10.32026291 3.180505753
-58.76742935 86.3057251 5.607374191
-9.437841415 10.11403465 1.969259858
-9.429857254 10.14375973 2.357230425
-9.474891663 10.25697041 2.764589548
-9.886806488 10.84174061 1.621637225
-9.41859436 10.15499973 1.969271898
-9.391220093 10.15455723 2.35398078
-9.456608772 10.2970562 2.766330481
-57.85081863 86.19284058 2.008818388
-9.838163376 10.84213829 1.618465662
-9.400203705 10.19762325 1.969429493
-9.37224102 10.19272137 2.35468173
-9.425951958 10.32143211 2.76500535
-57.44635391 86.212883 1.989652276
-9.711615562 10.71905041 1.608910561
-9.411334991 10.28747368 1.973972797
-9.458067894 10.40193176 2.378149986
-9.398340225 10.35074139 2.764561653
-9.710295677 10.79320049 1.609609962
-9.000352859 9.702845573 1.915948391
-9.473223686 10.50050068 2.386614084
-9.396634102 10.4220171 2.771491528
-56.63900375 86.24762726 1.951430082
-9.682124138 10.82505894 1.608113766
-8.948073387 9.725073814 2.278317451
-9.560311317 10.70556831 1.598912716
-8.826051712 9.557872772 1.895503283
-9.07507515 10.00181866 2.310784817
-8.846206665 9.669672966 2.629179955
-55.83378983 86.27526093 1.913357258
-9.579380035 10.81359863 1.601307631
-8.852991104 9.670145035 1.902302861
-8.857057571 9.718384743 2.268551111
-8.816655159 9.690241814 2.627688169
-9.436668396 10.76277256 3.224179029
-9.217216492 10.44471264 3.5566535
-9.483884811 10.73857212 1.594298363
-8.83842659 9.718836784 1.903068066
-8.864264488 9.800204277 2.27507019
-8.788545609 9.71673584 2.626984596
-9.456015587 10.8777523 3.242012024
-9.176966667 10.45330429 3.551695108
-8.764120102 9.80286026 3.7628057
-9.490860939 10.82789612 1.595712066
-8.751206398 9.643528938 1.892748713
-8.825070381 9.805428505 2.271463871
-8.752747536 9.726911545 2.62372303
-8.901071548 10.02049637 3.051991224
-8.723298073 9.804964066 3.75601244
-54.61525345 86.31236267 1.85566771
-9.445965767 10.83166695 1.592840552
-8.710506439 9.64480114 1.889423013
-8.760556221 9.767754555 2.262259007
-8.743096352 9.781237602 2.628083229
-8.738759995 9.817471504 3.002730846
-8.910150528 10.15132999 3.460475683
-8.779941559 9.974310875 3.799019337
-54.21517563 86.31816101 1.836806178
-9.386833191 10.81119251 1.588786244
-8.723640442 9.736872673 1.894278526
-8.729635239 9.786261559 2.26045537
-8.739129066 9.845849037 2.634182453
-8.855250359 10.08927155 3.05478549
-8.947497368 10.29054642 3.489114761
-8.68441391 9.882452965 3.764331579
-53.81567383 86.32221222 1.817983866
-9.425300598 10.95569706 1.59284544
-8.655499458 9.691534042 1.886785626
-8.658567429 9.736003876 2.249715328
-8.826115608 10.1558733 3.448121548
-8.626164436 9.853913307 3.748582363
-9.361989975 10.92807865 1.588448048
-8.626844406 9.713049889 1.885305643
-8.665608406 9.819508553 2.256392717
-8.629268646 9.800461769 2.616522074
-8.715772629 9.995735168 3.023262978
-8.728011131 10.05947304 3.417057991
-8.508869171 9.720624924 3.702038527
-8.597230911 9.92318821 4.146887302
-9.392168999 11.06090546 1.591848731
-8.626010895 9.782831192 1.88811183
-8.371148109 9.379252434 2.195359945
-8.786771774 10.14838886 2.670728207
-8.634464264 9.927023888 3.003030539
-8.589261055 9.889393806 3.36759901
-8.547539711 9.861760139 3.736500025
-8.577051163 9.961579323 4.151821613
-52.67058945 86.41059113 1.762432098
-9.307904243 10.99660015 1.585701227
-8.528657913 9.68484211 1.876063824
-8.447332382 9.585496902 2.217778444
-8.768193245 10.1911602 2.672929525
-8.570132256 9.886975288 2.988952875
-8.532461166 9.865832329 3.354971886
-8.576147079 9.990663528 3.766846657
-8.542686462 9.974780083 4.148292542
-9.337256432 11.13418293 1.589105844
-8.536844254 9.774449348 1.880443692
-8.399448395 9.571754456 2.212020636
-8.724484444 10.19344902 2.668038845
-8.51899147 9.873231888 2.980201721
-8.547776222 9.967395782 3.374129772
-8.597976685 10.10543251 3.793269157
-9.185451508 10.94932938 1.577280641
-8.470679283 9.729542732 1.873164296
-8.418767929 9.677427292 2.22156024
-8.755685806 10.32597256 2.685337305
-8.490576744 9.896195412 2.979459524
-8.386806488 9.751056671 3.313686609
-8.570566177 10.13216019 3.793879986
-8.449233055 9.719677925 1.516267538
-8.391274452 9.659903526 1.863781571
-8.39492321 9.706895828 2.221327782
-8.664409637 10.23890781 2.665715456
-8.480086327 9.951824188 2.985534668
-8.353146553 9.763325691 3.310609579
-8.5522995 10.17582417 3.799436569
-8.6846838 10.47012997 4.289459705
-8.358794212 9.673557281 1.861701608
-8.434267044 9.851198196 2.235664368
-8.621386528 10.23806953 2.660632133
-8.437225342 9.948765755 2.979394674
-8.367943764 9.864750862 3.329739332
-8.484983444 10.12911224 3.778751373
-8.660428047 10.50566959 4.293141365
-49.95215607 85.07801819 1.659892917
-8.308035851 9.653878212 1.856749058
-8.414498329 9.889492035 2.236495495
-8.579377174 10.23878098 2.655842781
-8.391640663 9.940326691 2.972185135
-8.468250275 10.12638855 3.388517618
-8.46472168 10.16915798 3.783310652
-8.512350082 10.30906677 4.219855785
-8.83275032 10.64059734 1.551159024
-8.269875526 9.656718254 1.853768229
-8.3338871 9.815915108 2.223225355
-8.439722061 10.05816936 2.620973587
-8.396413803 10.02530479 2.984316587
-8.510649681 10.28371143 3.421184778
-8.405154228 10.13558102 3.766607761
-8.487640381 10.3423605 4.223002911
-8.73393631 10.53979015 1.54368794
-8.221903801 9.637511253 1.849074006
-8.626626968 10.43522358 2.297029734
-8.446063995 10.14717293 2.630963802
-8.463283539 10.22419834 3.020118952
-8.371168137 10.14970779 3.763750315
-8.443919182 10.33559418 4.213332176
-8.755067825 10.65567207 1.546339989
-8.303539276 9.86324501 1.865161061
-8.57748127 10.4234457 2.291367769
-8.543451309 10.40503407 2.669008732
-8.36740303 10.12173367 2.993574142
-8.267814636 9.977606773 3.333614588
-8.398882866 10.2779398 3.79404974
-8.445565224 10.41981316 4.233290672
-8.976579666 11.05530643 0.3539090157
-8.958997726 11.07044125 0.7568145394
-8.964107513 11.13230228 1.159397721
-8.690912247 10.61760998 1.541799426
-8.252627373 9.843095779 1.860201836
-8.534784317 10.41933632 2.286906481
-8.604311943 10.601511 2.696483374
-8.311535835 10.09367847 2.98242569
-8.38403511 10.32990265 3.802015305
-8.934555054 11.06186771 0.3527576029
-8.913287163 11.07439613 0.7551897168
-8.904080391 11.10534096 1.15706861
-8.019991875 9.433110237 1.485500813
-8.203775406 9.826229095 1.855553627
-8.50362587 10.44498253 2.285758018
-8.588801384 10.65464783 2.700277567
-8.31030941 10.17014885 2.99269104
-8.261160851 10.12521267 3.357469082
-8.373433113 10.39482498 3.813318014
-8.325040817 10.34925652 4.194714546
-8.888810158 11.06120682 0.3521271348
-8.885251999 11.10727787 0.7526483536
-8.863909721 11.11974716 1.154870749
-7.994315147 9.460289001 1.484163284
-7.826690197 9.184130669 1.798089504
-8.65738678 10.82244778 2.328375578
-8.4858284 10.54342842 2.676930189
-8.237682343 10.11281872 2.975402594
-8.235244751 10.15436935 3.358575821
-8.33331871 10.39845943 3.807458639
-8.273136139 10.33321667 4.181515217
-8.878433228 11.12747288 0.3465565443
-8.864466667 11.15425968 0.7496138811
-8.822721481 11.12774563 1.15274775
-7.833572388 9.268366814 1.802209377
-8.355039597 10.3210392 2.262270212
-8.44137764 10.53991699 2.671534061
-8.271720886 10.25938702 2.999877214
-8.303791046 10.36996269 3.405071735
-8.310700417 10.43654251 3.811443806
-8.804424286 11.17553329 1.150931954
-7.913466454 9.45071125 1.478886127
-8.092906952 9.841651917 1.847308278
-8.319773674 10.4318018 3.029726505
-8.448169708 10.73982811 3.488789797
-8.454352379 10.80749321 3.909832716
-8.500641823 10.95289612 4.368410587
-7.942511559 9.577417374 1.482179284
-7.828208923 9.399198532 1.807337642
-8.29916954 10.37461281 2.26084733
-7.792265415 9.416118622 2.480107307
-8.47353363 10.82193661 3.103107691
-47.00576782 86.63885498 1.488880396
-7.803066254 9.423272133 1.806357503
-8.208883286 10.27340794 2.244708538
-8.425814629 10.81315994 3.095780134
-46.66174698 86.70070648 1.47116518
-7.817252159 9.479784012 1.473078847
-7.934923172 9.761196136 1.831277966
-8.049459457 10.0354805 2.211840391
-7.749530315 9.480070114 2.482092142
-8.374739647 10.79710484 3.08704257
-46.31783295 86.76119232 1.453461766
-7.785545349 9.491274834 1.47119081
-8.026358604 10.02331734 1.849751592
-7.91111517 9.8357687 2.183829308
-7.745792389 9.548404694 2.488920689
-8.365288734 10.86571789 3.09531498
-45.92969894 86.73067474 1.435418844
-7.760010719 9.515187263 1.46984005
-7.81409359 9.672254562 1.817881465
-7.998809814 10.09419155 2.211385727
-7.677533627 9.485098839 2.474634409
-8.319408417 10.85996723 3.088704348
-7.754593372 9.580302238 1.470243812
-7.766898632 9.653310776 1.813334346
-7.876518726 9.923969269 2.187115192
-7.66136694 9.528402328 2.477456331
-8.392799377 11.10251045 3.131581783
-8.161600113 10.67191601 3.436002016
-45.24303436 86.84456635 1.40010643
-7.745279789 9.638293266 1.470320106
-7.78497076 9.768844604 1.819730163
-7.644948483 9.571699142 2.480264425
-8.498360634 11.41682053 3.18848896
-8.096632004 10.62316036 3.418437958
-44.85650253 86.80937958 1.382172465
-7.753822803 9.734137535 1.471968651
-7.740261078 9.755079269 1.815614581
-7.72973299 9.778755188 2.162420273
-7.568107128 9.487957954 2.46289897
-8.443252563 11.395401 3.178608418
-44.47297668 86.81578064 1.363533139
-8.13535881 10.61737633 1.506383061
-7.710403442 9.776089668 1.814174294
-7.660739899 9.717064857 2.151320219
-7.542560101 9.515611649 2.463065863
-8.088562965 10.73587799 3.042495012
-7.9332757 10.45882607 3.367198944
-44.11215973 86.86754608 1.345062375
-8.001578331 10.42655087 1.495694041
-7.750858307 9.946848869 1.824733257
-7.59057045 9.651381493 2.139822006
-7.531885624 9.575510979 2.468322277
-8.048439026 10.74406528 3.038654089
-8.008559227 10.7109623 3.42118001
-43.74277878 86.8600769 1.327340603
-7.933605194 10.36804867 1.490711331
-7.720996857 9.96536541 1.823198438
-7.564239502 9.674809456 2.139127016
-7.516551018 9.62214756 2.471664906
-8.012491226 10.75665379 3.035967827
-8.014075279 10.81426811 3.439783812
-43.37730026 86.85834503 1.309672594
-7.886285305 10.35269928 1.487539768
-7.70192337 10.00733185 1.823530555
-7.532817841 9.687314987 2.137145996
-8.025304794 10.81801987 2.655198812
-7.975699425 10.76731777 3.03292942
-7.941736221 10.74661732 3.418065071
-7.916138649 10.7496109 3.812890291
-43.0089798 86.84783173 1.292022824
-8.354275703 11.45753193 1.53001225
-7.657725334 9.994848251 1.819543004
-7.639648914 10.00383282 2.170939445
-7.756655216 10.31622219 2.572241545
-7.955836773 10.81555939 3.037258863
-7.913009167 10.77498627 3.41901803
-7.870010853 10.7388792 3.803601265
-42.67272186 86.90496063 1.274550915
-8.257798195 11.34351635 1.522587061
-7.6268363 10.01124001 1.817854881
-7.435556412 9.635835648 2.124250412
-8.047558784 11.05412865 2.683037996
-7.928487301 10.84759521 3.038418293
-7.904723644 10.84976959 3.430855274
-7.852920532 10.79363918 3.812330961
-42.32337952 86.93161011 1.257035732
-8.352938652 11.65158749 1.53220129
-7.620384693 10.08212852 1.820447803
-7.395375729 9.627903938 2.119945526
-7.685337067 10.33356762 2.566478968
-7.893818378 10.8633461 3.036417007
-7.764808655 10.62551022 3.37276721
-8.066950798 11.44614983 4.411088467
-41.96127319 86.92765808 1.239495397
-8.34236908 11.72872925 1.532441735
-7.441345692 9.8144207 2.138316154
-7.905011177 10.92304325 2.653658867
-7.848059654 10.85371208 3.029515982
-7.805720329 10.81297016 3.410958767
-7.65707016 10.53089809 3.728148699
-8.032486916 11.46794415 4.410628796
-41.60452271 86.93320465 1.222004652
-8.17346096 11.44958401 1.518518567
-8.049973488 11.23191547 1.903981805
-7.783922195 10.74073219 2.621053696
-7.795384884 10.82761097 3.019477367
-7.727894306 10.72775173 3.38556695
-7.656310081 10.62254906 3.747098684
-8.006946564 11.51085663 4.416800022
-41.28944397 86.9497757 1.20630455
-8.282625198 11.78816605 1.52938211
-7.994403362 11.19325733 1.898001313
-7.745206833 10.73620701 2.616470337
-7.768906116 10.85223103 3.019776344
-7.703033447 10.76011181 3.38786602
-7.620528221 10.62349606 3.741942883
-8.017689705 11.63004208 4.447489262
-23.13151932 46.05072403 1.146171093
-8.196522713 11.6993742 1.522919893
-7.931385994 11.15119839 1.89130497
-7.399012089 9.970179558 2.146299362
-7.735658169 10.81390095 2.623911858
-7.723250389 10.84642696 3.013491869
-7.638061523 10.70741081 3.369935751
-7.960698605 11.60460186 4.43197155
-22.9503479 46.08553696 1.136610985
-8.035257339 11.43386078 1.509646058
-7.98647213 11.38393688 1.905775905
-7.67160368 10.76398468 2.61175704
-7.670065403 10.82226181 3.003730297
-7.632544041 10.79080105 3.383802652
-7.555281162 10.66880894 3.74171567
-7.987505913 11.78147793 4.479387283
-22.95668221 46.53757095 1.127764702
-8.007930756 11.47174644 1.508381486
-7.79110384 11.02493954 1.874987006
-7.695617199 10.85599041 2.240851879
-7.669353008 10.85547733 2.621501207
-7.607486725 10.76982784 2.988862276
-7.634723663 10.89415836 3.402219772
-7.671740055 11.04953384 3.838545799
-7.88129282 11.63040829 4.425356865
-22.72049141 46.42269516 1.118522048
-7.997503281 11.55007553 1.50865984
-7.749623775 11.0252676 1.871831417
-7.642525673 10.82672215 2.233820677
-7.655136108 10.91963768 2.627030134
-7.51005888 10.63148499 2.957680941
-7.56059885 10.81301212 3.37816453
-7.625409603 11.03758335 3.829250574
-7.801405907 11.54109573 4.390683174
-17.85164452 35.22445297 1.107061863
-7.962677002 11.57129669 1.506731749
-7.723508835 11.06227398 1.871476769
-7.617795944 10.86521626 2.234548569
-7.769915104 11.29894066 2.680428505
-7.574357986 10.88648987 3.001565456
-7.543703556 10.87105846 3.386151314
-17.79925537 35.4368782 1.100171208
-7.903286934 11.53330994 1.502561808
-7.773872852 11.28556919 1.885199308
-7.659128189 11.06566334 2.253649473
-7.727703094 11.29938984 2.67611742
-7.477590084 10.74758625 2.970423222
-7.529369831 10.93637085 3.39577961
-7.565506935 11.09419346 3.832428455
-7.756959915 11.6471796 4.409532547
-17.60142136 35.29774857 1.093276262
-7.866207123 11.54866982 1.500427485
-7.681200027 11.16197777 1.872681141
-7.773044586 11.44903946 2.293319464
-7.65374136 11.22066021 2.65986824
-7.449121952 10.77638531 2.971220493
-7.500179291 10.96534348 3.397086382
-17.30234146 34.88840103 1.086895347
-7.829825878 11.56575203 1.498360038
-7.624810219 11.12040234 1.866562247
-7.522309303 10.93054008 2.231039762
-7.628031731 11.26113701 2.661681175
-7.480974197 10.95274925 3.000148773
-7.446485996 10.93233109 3.38428998
-7.430855274 10.96064186 3.784916639
-17.17484665 34.91402054 1.080090523
-7.81910181 11.64130116 1.498598576
-7.585474491 11.12560081 1.863820553
-7.424960613 10.78756714 2.211364508
-7.625713348 11.3561058 2.671895266
-7.455287457 10.99077511 3.00262928
-7.347939491 10.7780323 3.344271183
-17.06509399 34.98377228 1.073252201
-7.832652092 11.78450584 1.501167417
-7.626137257 11.33288765 1.876125216
-7.380573273 10.77109241 2.206162453
-7.587828159 11.36703682 2.669246435
-7.398746967 10.94977093 2.990243912
-7.300850868 10.75895596 3.334842443
-16.93522835 35.00292587 1.066446781
-7.786636829 11.77916241 1.498236537
-7.632676125 11.45697498 1.882155776
-7.389143467 10.90040016 2.216923475
-7.506354809 11.26512527 2.649745464
-7.363724709 10.96366596 2.988230705
-7.263387203 10.76959801 3.33194232
-17.04855537 35.66307449 1.058541298
-7.759143353 11.82651615 1.497097731
-7.630773067 11.56708145 1.886934996
-7.346042633 10.95993519 2.599842072
-7.279343605 10.85288334 2.962676048
-7.258011818 10.85998535 3.347316504
-16.86397552 35.54586792 1.051805019
-7.68640852 11.82377815 1.902594209
-7.295558929 10.93280983 2.591767073
-7.25713253 10.8995533 2.966881275
-7.101480007 10.54712296 3.271854639
-16.59362793 35.18260956 1.045856118
-21.46139908 47.94565201 2.786334515
-7.650227547 11.83772659 1.900516033
-7.292134762 10.96164417 2.213172197
-7.305731773 11.06685925 2.60764122
-7.213039875 10.88273621 2.959476471
-20.71216202 47.83655548 13.46735096
-16.46628761 35.20744705 1.039028168
-7.792190552 12.25512791 1.504348993
-7.523721695 11.61690903 1.881169677
-7.212574005 10.85571671 2.198001146
-7.237653732 10.98680305 2.591970205
-7.475586891 11.70401478 3.107630491
-20.85826683 48.38237381 11.74349308
-20.53762436 47.84264755 13.44451523
-16.36345673 35.29737091 1.032072186
-21.09648705 47.94745255 2.76371932
-7.466902256 11.57864475 1.875222683
-7.161004066 10.81776714 2.190567493
-7.186814308 10.95727539 2.583641052
-20.67086029 48.38391113 11.72041321
-20.38524055 47.93520737 13.44328117
-16.28652382 35.45827866 1.024936199
-20.91856194 47.97131729 2.752987862
-7.457893372 11.66934681 1.878638268
-7.115836143 10.80702496 2.185821533
-7.160540581 10.99456501 2.585191727
-7.418262005 11.78229904 3.112563133
-20.48133087 48.40436554 11.70057392
-20.33657265 48.34689331 13.52445507
-20.70882416 47.91328049 0.9886205196
-20.72698212 47.98252106 2.741267681
-7.386257172 11.58945847 1.869732141
-7.069816113 10.78796577 2.180364609
-7.129616737 11.0249815 2.585535288
-7.015442371 10.77162266 2.921335936
-20.29102516 48.39519501 11.67546463
-20.18478394 48.44617844 13.52502918
-20.52171516 47.90901184 0.9793820977
-20.54924202 47.97946167 2.730239868
-7.361819744 11.63876438 1.870153308
-7.046721935 10.83240986 2.181857109
-7.107353687 11.06896019 2.588258266
-6.993479252 10.81948185 2.925863266
-20.12219048 48.41923141 11.65905952
-20.0057888 48.441082 13.49973774
-15.73972511 35.07411957 1.005600333
-20.36822891 47.99186707 2.719209194
-7.331066608 11.67110825 1.86934948
-6.960803509 10.6942234 2.163672924
-7.088964462 11.13036919 2.593321562
-6.968634129 10.8598671 2.92900753
-19.94126892 48.43452835 11.63972187
-19.82755852 48.46399307 13.48067951
-15.61119556 35.09015656 0.9988478422
-7.296165466 11.69207478 1.867732763
-6.932826042 10.72957993 2.164058208
-7.066296577 11.18054485 2.596728563
-19.74077415 48.41872787 11.61254406
-19.64110374 48.48917007 13.46115494
-15.48863697 35.14178085 0.9916502237
-7.441267014 12.15582371 1.481434822
-7.248793602 11.68343258 1.863866568
-6.925189972 10.81879997 2.170416117
-7.058871746 11.2819252 2.607362986
-7.277682304 12.00266647 3.129174709
-19.5626812 48.439991 11.59486866
-19.4586525 48.49782181 13.43876648
-18.11707306 44.8412056 14.20786095
-15.44643497 35.40634155 0.9840610623
-7.43930006 12.27723598 1.482809186
-7.239743233 11.77961731 1.867571235
-6.882460117 10.81265545 2.166310787
-7.027776241 11.30957222 2.607464314
-19.47946548 48.40752029 9.762683868
-19.37636185 48.46345901 11.57672405
-19.26195526 48.49020004 13.41114616
-18.05539322 45.17232513 14.2818346
-19.60818481 47.95706558 0.932694912
-7.380854607 12.23612499 1.478704929
-7.230708599 11.87775993 1.871373415
-6.934903622 11.07662296 2.19152689
-19.38703537 48.32270432 7.949821949
-6.914857388 11.17109776 2.96857214
-19.19929886 48.45820999 11.55463219
-19.08995628 48.500103 13.3906889
-17.97850227 45.4632988 14.34372139
-15.07995605 35.11741638 0.9716655612
-7.332355022 12.22314548 1.475562453
-7.247728825 12.05542374 1.880700111
-6.933438301 11.19066906 2.200394869
-19.21117401 48.34713364 7.935752392
-19.11495399 48.42000961 9.725362778
-19.02024269 48.47372055 11.53616238
-18.91457176 48.52697372 13.37357616
-17.83976936 45.56737518 14.3500576
-14.90311718 34.96589279 0.9659245014
-7.298582554 12.25356674 1.473864436
-7.2189641 12.09253502 1.880301833
-6.906292439 11.22924232 2.2011621
-19.03102112 48.35773087 7.919792652
-18.9430275 48.42805481 9.708210945
-18.83767891 48.47737122 11.51525497
-18.74867439 48.5541153 13.35789394
-17.38745499 44.65755463 14.05747128
-14.775177 34.95787048 0.9596551657
-7.290491581 12.35534954 1.474629521
-6.803115845 10.95220661 1.798124194
-6.849879265 11.17256165 2.19196558
-18.85132217 48.34039688 7.900801182
-18.77544975 48.44861221 9.693443298
-17.43039894 44.60839081 10.64948463
-17.33364296 44.63182831 12.32832909
-17.23461151 44.6799736 14.04158688
-14.85107517 35.59188461 0.950294137
-7.253790855 12.37170601 1.472582221
-6.785946846 11.01883984 1.799926877
-6.822581768 11.20463181 2.19222784
-18.68761635 48.37145996 7.888847828
-17.35449409 44.54851151 8.970837593
-17.2563591 44.58942795 10.62570667
-17.16623688 44.63374329 12.30726051
-17.07244492 44.69883728 14.02364159
-14.50449467 34.95375824 0.9461004138
-7.211791039 12.38544083 1.470180154
-6.753172398 11.04424191 1.798724771
-6.786073685 11.22073555 2.190471649
-17.26627159 44.47860718 7.315598011
-17.18300056 44.56290436 8.954936028
-17.0831604 44.59841537 10.60721016
-16.99424934 44.64676285 12.2881422
-16.89931297 44.70851135 14.00201225
-14.40642643 35.05665588 0.9390064478
-17.32139587 44.20892334 2.485159636
-7.04573679 12.09062481 1.867704391
-6.745316505 11.223423 2.187312126
-17.09381866 44.48833847 7.300559998
-17.01453209 44.55912781 8.9367733
-16.91367531 44.59117508 10.58631229
-16.83336639 44.66782761 12.27231407
-16.73448944 44.7169075 13.98137093
-14.31494713 35.16120529 0.9322034121
-17.16591644 44.21657562 2.475749016
-6.774248123 11.35396481 1.81443429
-6.7093606 11.22861195 2.184759617
-16.94016647 44.50395203 7.288011551
-16.85848045 44.56738663 8.921760559
-16.75656319 44.59587479 10.56911373
-16.67341232 44.66356277 12.25123596
-16.5741024 44.71120453 13.95792484
-14.20857048 35.24065781 0.925163269
-17.01291847 44.23130417 2.466587305
-6.686485767 11.19957542 1.801061034
-6.675161839 11.23938084 2.1828053
-16.78079224 44.50006104 7.272784233
-16.69207191 44.56801605 8.904634476
-16.60295105 44.61125565 10.55435848
-16.50989342 44.67412567 12.23305225
-16.41008949 44.72021866 13.93784332
-14.1547575 35.49180984 0.9171918631
-16.84300613 44.21726227 2.456042528
-6.651745796 11.214571 1.799268603
-6.617174625 11.17822742 2.173190355
-16.61628532 44.50552368 7.258206844
-16.52976608 44.58124542 8.889879227
-16.43954468 44.62094116 10.53755188
