# .PCD v0.7 - Point Cloud Data file format
VERSION 0.7
FIELDS x y z
SIZE 4 4 4
TYPE F F F
COUNT 1 1 1
WIDTH 1299
HEIGHT 1
VIEWPOINT 0 0 0 1 0 0 0
POINTS 1299
DATA ascii
21.06063652 -9.69214344 3.632073164
19.80046463 -9.146587372 4.224705219
16.66954994 -8.040818214 0.5084115863
19.90184402 -9.333163261 1.962977052
19.55576706 -9.163481712 2.686701059
19.27752304 -9.02702713 3.397541046
19.62011337 -9.151943207 4.200926781
19.33491135 -9.008566856 4.904734135
20.86629295 -9.924363136 0.4402540028
19.53617096 -9.25876236 1.945585847
19.61675453 -9.274093628 2.698228598
20.93607521 -9.812227249 3.628981113
19.91619682 -9.358359337 4.260143757
13.68595028 -6.879261971 0.5612489581
19.51812553 -9.335771561 1.948956013
19.0585289 -9.114569664 2.649081469
19.32772446 -9.211507797 3.417436838
19.73405647 -9.366500854 4.23647356
20.08564949 -9.492806435 5.083008289
13.70529556 -6.944726944 0.5623309612
19.51591301 -9.415740013 1.953078985
19.46611214 -9.370868683 2.694265604
18.76494408 -9.047250748 3.347140074
19.65691566 -9.414761543 4.23072958
13.70059776 -6.999835014 0.5638109446
19.51885796 -9.498220444 1.957537055
19.47089195 -9.453867912 2.700148106
18.69795799 -9.095844269 3.344310045
15.37936783 -7.811403751 0.5379655361
19.44848061 -9.548365593 1.95761168
19.39702415 -9.502295494 2.698325872
20.56727219 -10.0007019 3.606906176
18.66411781 -9.361561775 0.4864661992
19.96439362 -9.857098579 1.992861032
19.80667496 -9.766765594 2.744268179
19.32469368 -9.531769753 3.443198919
16.98874664 -8.673755646 0.5152410865
19.93289375 -9.926650047 1.995414138
19.5739212 -9.744703293 2.726837635
19.2902832 -9.593218803 3.444797277
20.0008812 -9.893140793 4.322730541
20.26417732 -10.25778008 0.4648122489
19.82668495 -9.962064743 1.993437529
19.9883709 -10.01183605 2.773333073
20.29821396 -10.13270283 3.590700865
20.18476486 -10.06062984 4.363513947
15.23567581 -8.000747681 0.5464777946
19.81477165 -10.04032421 1.997196794
19.38803291 -9.820075035 2.719282389
20.26016998 -10.20086098 3.592552185
19.93244553 -10.27388573 0.4741977751
46.4612236 -22.5262661 3.634416819
20.28671074 -10.29890347 3.603398561
19.62865448 -10.21478176 0.4809963405
55.1422348 -26.8561573 2.050049305
55.28701019 -26.86905479 4.187867165
20.26428795 -10.37453651 3.607505083
19.97667122 -10.46542358 0.4776207805
54.93946075 -26.94021606 4.179165363
19.76134491 -10.24788284 2.774109602
19.55785942 -10.34893608 0.4861389697
46.46200943 -23.1212635 3.666614532
19.73379326 -10.31926632 2.777199268
19.59672737 -10.45216179 0.4875652492
67.09386444 -33.3436203 2.357409716
46.34613037 -23.26486969 3.670260429
19.72380257 -10.39490604 2.781795025
19.31529808 -10.17859364 3.496423006
19.40539169 -10.44284153 0.4925027788
46.28905869 -23.43681145 3.677594423
17.17768288 -9.425834656 0.5282478929
46.29009247 -23.64748001 3.689161777
13.28159332 -7.55038023 0.5884494781
19.2314682 -10.61275768 0.5012311935
14.94386482 -8.513315201 0.5666301847
19.23095703 -10.78572273 0.5053403974
19.31179428 -10.91259289 0.506167233
76.52565765 -40.19323349 5.677675724
19.50895691 -11.10127831 0.5053299069
19.38483238 -11.12265778 0.5091521144
76.16009521 -40.6795845 5.691932201
19.23607826 -11.13014984 0.5133023262
19.53870392 -11.37865162 0.5110348463
19.40362358 -11.38915539 0.5148814917
85.16568756 -46.61304092 2.959429264
19.421381 -11.48646832 0.5166734457
19.49840164 -11.61241341 0.5175490379
19.68663025 -11.80537128 0.5170173645
19.44231796 -11.76331425 0.522530973
48.68143463 -27.90153122 2.063844204
37.64331818 -21.69135094 4.78601408
19.27713394 -11.75943947 0.5268216729
48.6007576 -28.07897186 2.070640564
36.84634018 -21.4193821 4.713857651
16.07810974 -9.949389458 1.859800816
18.78269196 -11.65424442 0.5374929309
36.87703323 -21.82302284 3.256579161
37.12946701 -21.91794395 4.769496441
20.92064285 -12.97522354 0.5112480521
36.94913483 -22.03472519 3.271252632
36.86524963 -21.93860054 4.753944874
20.1074543 -12.59963608 0.5241309404
36.99253464 -22.23121262 3.28409338
36.4511528 -21.87132645 4.72213316
20.38052177 -12.85384178 0.5227264166
36.71738052 -22.24366188 3.2754426
36.14307022 -21.86236 4.70160532
14.24976349 -9.328845978 0.6040029526
29.38964844 -18.16058159 1.596688747
36.64900208 -22.38396645 3.281275511
35.96418381 -21.93513107 4.695632935
14.6325779 -9.624274254 0.6006371975
28.56743813 -17.81880188 1.57976377
16.52746201 -10.66730309 1.916690469
35.77667999 -22.00182533 4.688694
21.82655144 -14.01072407 0.5109421611
29.096632 -18.26271248 1.599729419
16.37994766 -10.6535511 1.910903215
14.95244694 -9.787396431 2.42313695
21.55316925 -13.94906521 0.5167232156
47.5818367 -29.50632668 2.124375343
15.39386082 -10.13941383 1.847552061
14.8663702 -9.803085327 2.418848276
12.64915276 -8.622525215 0.6300570965
29.90646172 -19.03009415 1.633874893
15.25218105 -10.13058662 1.842273593
14.68858242 -9.769942284 2.40498209
21.74384308 -14.27787971 0.5191297531
15.08682632 -10.10261631 1.835086346
14.64730644 -9.81844902 2.406108618
20.03983498 -13.32622433 0.542335093
29.80800438 -19.25607681 1.642720222
15.07152462 -10.16560841 1.838296652
14.63290596 -9.879840851 2.409955025
15.6147089 -10.46106434 3.164702654
21.38714981 -14.26504421 0.5281617641
29.73181152 -19.35253716 1.646383405
14.88116169 -10.12031174 1.829273224
14.60459423 -9.929271698 2.41201067
15.57931328 -10.51434898 3.166541815
20.39949036 -13.74709225 0.5423561931
68.07292175 -43.47544479 2.767309666
14.94193649 -10.23028278 1.837822676
14.55762196 -9.970631599 2.412277937
15.58752823 -10.59472656 3.175085783
20.28027534 -13.77104855 0.5459948778
67.94406891 -43.72536469 2.777079582
14.92946243 -10.29507542 1.841267467
14.74324989 -10.15786266 2.438598633
14.98029232 -10.28983212 3.089140892
20.07186127 -13.73720837 0.5506647229
28.79250336 -19.18985939 1.636438966
14.89817715 -10.34811878 1.843401313
14.76625347 -10.24794674 2.44711566
14.95726299 -10.34828854 3.09271121
19.31251526 -13.34677601 0.5617375374
15.06857491 -10.53006458 1.859900594
14.58733654 -10.20618725 2.432641029
14.86038876 -10.36352158 3.08526206
21.34122467 -14.75437069 0.540230453
15.0599699 -10.59504414 1.863517165
14.47919559 -10.20491028 2.425797939
14.93053913 -10.47793961 3.102962494
20.03082275 -14.00335121 0.5576166511
15.27366543 -10.82533264 1.247004628
14.91707516 -10.57686615 1.857747436
14.41133881 -10.22899055 2.423487425
14.80353165 -10.46594048 3.090115309
20.03679466 -14.10726357 0.5597500801
15.24224567 -10.8807354 1.249179602
14.62241745 -10.45842552 1.840991259
14.92051697 -10.63261414 2.487179995
14.71498108 -10.4817276 3.083565474
20.3188324 -14.395051 0.5587816834
15.18559361 -10.91951561 1.250590086
14.49529457 -10.42759323 2.444512844
14.74588299 -10.57534027 3.095686197
20.24839401 -14.45028877 0.5618107915
15.1105442 -10.94584942 1.25143075
15.49333382 -11.18267059 1.91311872
14.45681381 -10.47473812 2.445913315
14.79781628 -10.68349361 3.111199141
15.22595406 -11.17456055 0.6196700931
14.61408138 -10.68026638 1.854169726
14.30552101 -10.45379543 2.434924364
15.13775444 -10.99197674 3.172959089
15.19996452 -11.23437405 0.6216437817
15.30486488 -11.23750877 1.264112234
14.40264797 -10.61174107 1.843183517
14.30497074 -10.52580452 2.440694094
14.3828125 -10.56148815 3.061300039
22.00093079 -15.96425629 0.5497145057
15.14964294 -11.2098465 1.262474895
14.28109074 -10.59883118 1.838491559
13.84430695 -10.28627396 2.393150568
14.28636932 -10.56928349 3.053366899
21.46920967 -15.71048355 0.5578576922
15.03288841 -11.20347023 1.261844397
14.25364971 -10.6530571 1.840933561
13.73239326 -10.2805624 2.38586092
14.28350449 -10.63659859 3.059916258
22.73293304 -16.6994648 0.5468760133
14.35420895 -10.79558468 1.85289073
14.31949329 -10.73454857 3.073091984
21.20976448 -15.75098515 0.5653824806
14.82642746 -11.17645168 2.525308847
22.89677811 -17.05135727 0.5502796173
14.52668095 -11.06476688 1.874950886
14.24674129 -10.84855747 2.463409662
14.03206158 -10.68210602 3.041998386
22.95606995 -17.21339989 0.5522513986
14.64439392 -11.22344589 1.888481498
13.96743298 -10.72991467 2.436824799
13.91322327 -10.67166233 3.030327559
5.984632015 -5.082445145 2.542059422
22.89782143 -17.29855156 0.5555642843
54.21971893 -39.47819901 2.557227135
15.17597008 -11.6815691 1.933616042
14.04818439 -10.8602581 2.452415466
14.44032669 -11.12105846 3.123450041
5.985721588 -5.114418983 2.547559023
21.89002991 -16.69271278 0.5682564974
54.15288925 -39.71593094 2.566960096
13.99374104 -10.89525032 2.45204258
13.90061092 -10.81217098 3.043689489
5.954931259 -5.123960972 2.543706417
22.72106552 -17.40695953 0.5623810291
15.33039188 -11.94902134 1.955092072
14.04101944 -11.00323582 2.463816166
13.84316063 -10.8443203 3.04193902
21.92417526 -16.94521523 0.5727766752
14.75853729 -11.61541748 1.916441321
14.11511803 -11.13152313 2.478893757
14.95697117 -11.71969318 3.231160879
21.98078918 -17.10467148 0.5747318864
14.7080574 -11.6573658 1.91749835
14.22406769 -11.28262997 2.49796176
13.91733742 -11.04200077 3.06905365
5.63920784 -4.980887413 2.72362566
21.96305084 -17.21610069 0.5775449872
43.58386993 -33.07090759 2.258649111
15.14730453 -12.06401157 1.956601977
14.18414116 -11.33341694 2.499842644
13.85586166 -11.07522202 3.06713891
22.22019005 -17.53373718 0.5777657628
15.38183117 -12.32405853 1.980186939
14.11045456 -11.35915565 2.497650385
13.8628664 -11.15882969 3.076530218
6.043078423 -5.348853111 2.597084522
22.27702904 -17.6978569 0.579795897
15.23306274 -12.29630756 1.973866701
14.07210064 -11.40706444 2.49942255
13.85059071 -11.22481441 3.082412004
5.983598709 -5.337414265 2.584789753
22.77895164 -18.2012558 0.5777464509
15.08946896 -12.271245 1.967887282
14.99451065 -12.17741108 2.618526697
13.80156422 -11.26344872 3.082235098
20.64393616 -16.69366837 0.5998077989
15.33578587 -12.54098892 1.992483497
14.82635403 -12.13223362 2.604869127
13.82358265 -11.35569382 3.093924761
23.71284866 -19.17273331 0.5746477246
15.26323509 -12.57013035 1.992128134
14.75049496 -12.15603828 2.60246563
13.81042767 -11.42178726 3.09981966
24.17670059 -19.6648922 0.5733013153
28.54973412 -22.92032242 1.791072607
15.33301353 -12.70850468 2.003044605
14.58783531 -12.11275482 2.589329243
5.597772121 -5.166606426 2.751196623
17.21749687 -14.36054611 0.6370008588
15.39253807 -12.84017181 2.013236284
14.60037708 -12.20372009 2.597817659
5.556663036 -5.166097164 2.742839575
17.15788078 -14.41064453 0.6395359039
17.21125412 -14.36839867 1.400698185
15.32077694 -12.87040043 2.013011217
14.69251823 -12.35731602 2.616281986
5.396562576 -5.087575912 2.190042257
6.5017066 -5.927547455 3.082533836
17.15781784 -14.4233923 1.402899027
16.19176102 -13.642066 2.088521481
14.7133112 -12.45637894 2.625979662
5.279883862 -5.02671957 2.164234877
16.54597282 -14.01455784 2.123001814
5.448517323 -5.189219952 2.212905169
23.56068611 -19.85438347 0.5926302075
16.61523819 -14.1386137 2.879875898
14.09300423 -12.11148834 3.198172808
5.381171227 -5.166773796 2.199973345
5.403558254 -5.170081615 2.713099241
23.39809418 -19.85842133 0.5967575312
16.464674 -14.13833523 2.128563404
16.76973152 -14.36251831 2.908055544
14.08912563 -12.18900013 3.206274986
5.353756905 -5.161250591 2.70146966
22.97388458 -19.64787483 0.6029580832
16.81847 -14.51968861 2.163642645
16.82613182 -14.50469589 2.923597336
6.240987778 -5.913155079 2.729273081
23.27147865 -20.02631187 0.6033515334
17.09244347 -14.84060383 2.192476034
17.06079292 -14.79318905 2.961982965
6.212053776 -5.923959732 2.726339817
23.86559868 -20.65444565 0.6015141606
17.31039047 -15.11925411 2.216940641
16.53111649 -14.4533844 2.90245676
16.29791641 -14.24135399 3.616410255
5.237021923 -5.173134804 2.180799961
5.520596504 -5.396996021 2.516270161
23.05917549 -20.12291718 0.6105805635
16.47771454 -14.53195858 2.154469252
16.43438911 -14.4703474 2.898502827
16.24791718 -14.2954855 3.618196964
5.45810318 -5.377958775 2.502418756
23.1313858 -20.32027626 0.6128240228
16.29343033 -14.47561359 2.145447016
18.32104683 -16.13591003 3.150300503
16.16417694 -14.32159424 3.614113808
5.28375864 -5.273134232 2.202905893
5.488717556 -5.435269356 2.517839193
24.98025513 -22.0213604 0.6018865108
16.09292603 -14.4040308 2.134974241
16.33035278 -14.5822525 2.902515173
6.029849052 -5.93580246 2.125802755
6.398043633 -6.225961685 2.811661005
5.859205246 -5.767704964 2.92365551
24.95517921 -22.14987373 0.6051127315
16.03185272 -14.44844913 2.136124134
16.15452003 -14.53125095 2.888237
6.034740448 -5.975785255 2.131706715
6.537089348 -6.380482197 2.862691641
5.147717476 -5.207391739 2.670550823
24.97656059 -22.3188343 0.6080102324
16.01778221 -14.5327034 2.141249418
15.92616558 -14.43409061 2.86698842
6.104122162 -6.070645809 2.152077913
6.49194479 -6.379480839 2.855066538
5.138350487 -5.230211735 2.673449278
24.85025406 -22.3613987 0.6119676232
16.12759399 -14.72351742 2.156931877
15.78724289 -14.40651703 2.856871128
5.713877201 -5.774607182 2.069491148
5.414023399 -5.509967327 2.258176327
6.505145073 -6.429698467 2.866407633
4.871925354 -5.035033703 2.581722021
24.8039341 -22.47290039 0.615350008
16.48556328 -15.13042736 2.193923712
15.80614662 -14.51858807 2.867873192
5.677260399 -5.777761459 2.06593442
5.370987892 -5.505825043 2.251657963
5.102255344 -5.268435955 2.423745632
4.857278347 -5.051935196 2.582421303
24.63225174 -22.47498703 0.6195880175
21.03748322 -19.21513748 1.616187334
16.5381031 -15.27682686 2.205078602
15.42159653 -14.28142834 2.825650215
5.669020176 -5.805226803 2.068773508
5.343541145 -5.516449451 2.24963069
5.064731598 -5.267117977 2.417374849
4.893655777 -5.112737179 2.602059841
24.54707527 -22.55979156 0.6233685017
20.39601326 -18.78852844 1.596603155
16.46865082 -15.32279396 2.206162691
15.3108139 -14.28404617 2.819831848
5.630065441 -5.807774544 2.064910889
5.333821297 -5.542357445 2.252467871
5.042651653 -5.28047657 2.416245461
5.794520378 -5.925071239 2.943860054
24.42424774 -22.61103439 0.627386272
20.28081703 -18.81941414 1.597726226
16.3092823 -15.28922749 2.199464321
15.23307419 -14.31497383 2.818372488
5.601540089 -5.819207668 2.063402653
5.015477657 -5.296318054 2.170009613
5.013229847 -5.287337303 2.412742853
5.771482468 -5.942373276 2.943113089
28.24524879 -26.18419838 0.6058568358
20.23900795 -18.90862465 1.601505876
15.45164299 -14.62888432 2.131614923
15.96469688 -15.05847931 2.924828053
5.591594219 -5.845198631 2.065901518
4.856058121 -5.186760426 2.130926609
5.360739708 -5.624538422 2.531566143
5.744952679 -5.954762459 2.940696239
20.42639542 -19.30786514 0.6586044431
20.22659683 -19.02445412 1.606493354
16.30891037 -15.48754597 2.2126472
16.10051346 -15.27969646 2.952087164
5.558846951 -5.849241257 2.062955141
4.761888027 -5.133378029 2.109683275
5.377465725 -5.672801495 2.543255806
5.720743179 -5.967311382 2.938776255
20.37837029 -19.39379883 0.6614775658
19.98374939 -18.92666626 1.601847529
16.30967712 -15.59103966 2.219574451
16.06482315 -15.34898758 2.956423521
58.67392349 -53.56934738 11.49220371
5.554623127 -5.880395889 2.066804647
5.181164742 -5.536849499 2.231106281
5.717167377 -5.999966621 2.94502759
28.46788025 -26.91607857 0.6150162816
19.92066002 -18.9962368 1.604757667
16.21382141 -15.60757351 2.218036413
20.12515259 -19.12158394 3.515553713
5.545863628 -5.907614708 2.069641829
5.651842594 -5.977352619 2.927958488
28.79789162 -27.40254784 0.6166764498
19.9340229 -19.13575745 1.610831738
16.12248802 -15.62764549 2.216873407
19.98591232 -19.12936592 3.508824587
5.500509739 -5.901691437 2.064018488
5.046057701 -5.481550217 2.204154968
5.629583836 -5.993079662 2.927152872
28.63339424 -27.43625641 0.621308744
19.85818291 -19.20048904 1.613523245
16.08994675 -15.70131016 2.220929861
15.89883232 -15.50396156 2.961623669
5.481441021 -5.919468403 2.06448245
6.050325394 -6.431696415 2.492421865
5.652823448 -6.050193787 2.943715334
29.53203011 -28.46114159 0.6198765039
20.41436577 -19.83852005 1.642112494
19.59149742 -19.04868507 2.541378975
16.77666283 -16.41858482 3.091545105
5.456514359 -5.931831837 2.063589096
5.580686569 -6.020356655 2.923905134
29.3938961 -28.51506424 0.6242564321
20.009161 -19.59300613 1.630823612
19.50771332 -19.09167099 2.542006731
16.71762657 -16.46723366 3.092876434
5.854741096 -6.345080376 1.877334952
5.44690609 -5.956543446 2.066043615
5.378810406 -5.885724545 2.314357758
4.812689304 -5.354232788 2.393260956
6.683516979 -7.072881699 3.354921103
29.37441063 -28.69028854 0.6281621456
19.89021683 -19.60578537 1.631207466
15.76611042 -15.70611572 2.212481737
6.166432381 -6.673148632 1.93978858
5.283650875 -5.839542389 2.032570601
5.389306545 -5.928843021 2.322856665
4.809113979 -5.380686283 2.397738457
6.622195721 -7.059363365 3.340683937
30.10060883 -29.58691788 0.6283245087
19.77793503 -19.63723755 1.632420301
15.71305466 -15.76508427 2.215048313
6.14944458 -6.699727058 1.941551805
4.997019768 -5.60617733 1.969891071
4.75713253 -5.371974468 2.148204803
4.785405636 -5.391561985 2.396098852
6.655489922 -7.136102676 3.363450289
30.2110424 -29.8939476 0.6316813827
19.62122917 -19.61916733 1.631417036
15.65227604 -15.8115015 2.216572523
6.104621887 -6.697906494 1.937854052
4.976157665 -5.619465828 1.969607353
4.747677326 -5.396044731 2.150981188
5.368715286 -5.976038933 2.59930253
30.73591995 -30.61465836 0.6332013011
19.53514481 -19.67425537 1.633709908
19.79480743 -19.89635658 2.604202032
6.083217621 -6.720180511 1.938799381
4.710563183 -5.392262459 2.145552874
5.363445759 -6.006717682 2.604382753
5.605654716 -6.228802681 2.973716021
30.5862236 -30.67707825 0.6379802227
62.51110077 -61.39294434 3.513508081
19.48425102 -19.72949219 2.58462882
58.37243271 -57.03985214 14.76655865
4.835138798 -5.545035362 2.187158108
6.316097736 -6.957816124 2.935645819
5.59791851 -6.25888586 2.978897095
30.53409386 -30.84493065 0.642475307
62.2171936 -61.55165863 3.520092964
19.37347794 -19.76029205 2.583814621
5.916044235 -6.642020702 1.916754723
6.727764606 -7.419934273 2.405557156
5.256442547 -5.985067368 2.315059185
6.595107079 -7.269789696 3.039139271
5.561380386 -6.263237 2.973232031
30.92610168 -31.44173241 0.6447221637
61.81092072 -61.57777405 3.520752192
19.34726906 -19.86681175 2.590408564
5.936957836 -6.702739239 1.925509691
5.078328133 -5.856489658 2.013822556
5.293207169 -6.056582928 2.331795692
6.57121563 -7.291311264 3.039638996
6.413667679 -7.128334999 3.317765951
31.016222 -31.73441124 0.6482389569
51.73304749 -51.94998169 5.63128233
5.915151596 -6.721977711 1.926119804
6.622456074 -7.406050205 2.392845392
5.275026321 -6.074953079 2.332581282
30.98199081 -31.91600609 0.6525472403
60.88034821 -61.48340607 3.515556812
51.98303223 -52.55615234 5.679349899
56.56953049 -56.93228149 11.71976185
6.592541218 -7.422124386 2.392125845
6.071280479 -6.895521164 2.572517157
31.0341835 -32.18578339 0.6565015912
51.49427032 -52.33746719 8.211826324
5.177472591 -6.058536053 2.052897215
5.032272339 -5.889318466 2.795433521
31.11434364 -32.48621368 0.6603756547
6.301910877 -7.231728554 2.01590395
5.160702705 -6.077913761 2.05401206
4.995554924 -5.887734413 2.788546801
31.0361557 -32.62745285 0.664917469
58.8532753 -60.6211853 6.411127567
6.255974293 -7.229671955 2.012211323
4.967778206 -5.919393063 2.011735678
31.03400612 -32.84742737 0.6691685915
58.60765457 -60.78885651 6.416473866
5.395343304 -6.397471905 1.848323703
4.842346191 -5.827044964 1.985815287
4.998746395 -5.970934391 2.541644096
5.962252617 -6.936499596 3.194565773
31.01681328 -33.05337524 0.6734954119
11.39973831 -12.63221836 1.888123751
11.08429337 -12.29149628 2.415621519
5.441430569 -6.485259533 1.862283826
4.863546371 -5.883340836 1.996120453
4.96453619 -5.971622944 2.536649942
5.924728394 -6.940689564 3.188906193
31.02344513 -33.28560257 0.6777552366
57.34462738 -60.32286453 6.352323055
5.654301167 -6.742361546 1.908977509
4.818573475 -5.871934414 1.990006447
5.709825039 -6.77162075 2.806957722
31.09362793 -33.58637238 0.6818224192
11.27457237 -12.66672516 1.887379646
11.13297081 -12.49854565 2.437660217
5.626904488 -6.754865646 1.908462167
4.366474152 -5.437270641 1.881824017
6.279114246 -7.411985397 2.686913967
5.73225975 -6.836118221 2.823147535
31.05908775 -33.778965 0.6862722635
11.21270084 -12.68426323 1.887061
11.06617928 -12.50989437 2.435458899
6.133030891 -7.32612133 2.014695168
4.350508213 -5.452430248 1.882483125
5.373440742 -6.512176991 2.419744253
4.72738266 -5.830265999 2.473187685
6.261590004 -7.419662952 3.356137514
31.04957008 -33.99944687 0.6906573176
11.07957745 -12.62609959 1.879708052
10.98713779 -12.50790691 2.431404352
6.128163815 -7.366122246 2.019184589
4.925982952 -6.090566635 2.032642365
5.337468624 -6.513807774 2.415619612
4.428741455 -5.551416874 2.373213053
6.230565548 -7.433013916 3.353801727
31.02528572 -34.20560074 0.6951056123
56.6003418 -61.29939651 3.503688335
11.08492088 -12.71410275 1.885989308
10.89870453 -12.49537182 2.425901651
6.02260828 -7.299417973 2.003391266
5.442952633 -6.675406933 2.169255972
5.297524452 -6.51098299 2.410253286
4.232196331 -5.376349926 2.309127808
6.228624821 -7.47695446 3.363498688
31.08139801 -34.50009537 0.6993428469
56.6532135 -61.78022766 3.525060892
11.01495171 -12.72200489 1.884829164
10.87431049 -12.55070114 2.430018187
6.051527023 -7.375336647 2.014731169
5.429358959 -6.701496124 2.171798706
5.153562546 -6.380438328 2.927671671
30.89093399 -34.52880096 0.704284668
56.71149063 -62.27102661 3.546896935
10.98708344 -12.77496147 1.887864232
10.90104675 -12.66145706 2.441936731
4.840000629 -6.115781307 1.773500919
4.037923336 -5.245559216 1.821559668
6.108877182 -7.461415768 2.674741507
5.24140358 -6.521623611 2.687752724
5.148630619 -6.413758755 2.934477568
30.77479553 -34.63784027 0.7090055943
10.96572304 -12.83521843 1.891580343
10.87324333 -12.71399021 2.445654392
4.836441994 -6.148620129 1.777261496
4.034660816 -5.272607327 1.825268507
6.056512356 -7.451003551 2.666602612
5.064568996 -6.370294094 2.631397724
5.100353718 -6.400578022 2.923211336
30.76835632 -34.86803818 0.7134534717
10.45395947 -12.34245777 2.389810324
5.929535389 -7.379721642 2.006490946
4.016612053 -5.283710003 1.825196862
5.899921894 -7.328900814 2.626327991
4.924530506 -6.248477936 2.858237267
33.22870636 -37.85521698 0.7125772834
10.41380501 -12.37879848 2.391411781
4.077318668 -5.382868767 1.84580183
5.629407883 -7.077478886 2.549650669
4.49873209 -5.829851151 2.43974185
4.903373718 -6.264977455 2.8584795
33.29140472 -38.18574905 0.7172852159
48.85531998 -55.21782303 5.787222862
10.33689404 -12.37836742 2.387731075
5.127693176 -6.585002899 1.851660013
4.068150043 -5.404332638 1.848148823
6.031960964 -7.568124771 2.684326649
3.939466 -5.249239922 2.240890503
4.941292763 -6.344625473 2.883357286
33.78477478 -39.00500107 0.7211917639
48.52407074 -55.23000336 5.780243397
10.26479149 -12.37870789 2.384369612
5.057483196 -6.538769722 2.111999989
5.982299805 -7.559943199 2.67699194
3.928012133 -5.26722765 2.242938519
5.079156399 -6.536026478 2.951037407
34.14064026 -39.67804337 0.7255221009
10.21526432 -12.40397644 2.384505987
4.63869381 -6.115890503 1.759192109
5.031087875 -6.54897356 2.111055136
5.930034637 -7.54608202 2.668361425
3.905609369 -5.271482468 2.240624905
3.850866556 -5.203769684 2.434908152
30.12182045 -35.3551178 0.7372915745
9.696563721 -11.89322376 2.310559511
4.630861759 -6.143877983 1.762115836
5.016430378 -6.572342396 2.113210917
5.004592896 -6.548870564 2.381917953
3.900489092 -5.296639442 2.245079041
5.004747391 -6.532346725 2.937776566
34.3884964 -40.51337051 0.735290885
9.839537621 -12.1381216 2.341102123
5.854699612 -7.576086044 2.025490046
4.667535305 -6.215307713 2.026665211
4.988855839 -6.572978973 2.384384632
5.103221893 -6.694515228 2.703328133
34.66096878 -41.12388992 0.7403326035
20.63818741 -24.67718697 2.958568335
9.617364883 -11.96216679 2.313631535
4.983266354 -6.624938965 1.846503615
4.168865204 -5.682954788 1.899642944
4.977879524 -6.600597858 2.388054132
3.922308683 -5.385664463 2.266552448
4.890365601 -6.483924866 2.907496929
19.61694908 -23.66082001 2.86256814
10.06142044 -12.5589447 2.392533779
4.150749207 -5.695935726 1.899944425
5.928398609 -7.739311218 2.702741146
3.985863209 -5.492272854 2.297563791
4.722955704 -6.331118584 2.84395957
5.008669376 -6.806976318 0.5119535327
19.54888153 -23.74267387 2.866865158
9.529906273 -12.0214777 2.3154459
4.925200462 -6.640804768 1.844489694
4.124886036 -5.699887753 1.898169875
3.964129925 -5.498053074 2.295740843
4.964632511 -6.794511318 0.514046371
4.966252327 -6.786413193 0.7830503583
19.5064621 -23.84678078 2.873356342
9.499290466 -12.06051445 2.317896843
4.688880444 -6.40231657 1.798404932
4.078145504 -5.677538395 1.890477896
9.953134537 -12.54067707 4.031678677
3.933565378 -5.493420601 2.290537357
5.211369038 -6.975897789 3.076353788
4.93894577 -6.805673122 0.5151078105
4.97291708 -6.801001549 1.052703738
19.43635559 -23.92681313 2.877514124
9.465946198 -12.09643841 2.319931507
5.745675087 -7.687522888 2.031948566
9.571156502 -12.1896286 3.388197899
3.833101273 -5.408006191 2.258811474
5.126296997 -6.919302464 3.049110651
4.905825615 -6.80989933 0.5165575743
4.908691406 -6.803331852 0.7846534848
4.947397232 -6.814567089 1.05331552
4.969254494 -6.832696438 1.325084329
4.950206757 -6.799877167 1.593255401
5.162361622 -7.03571558 2.197267771
9.808386803 -12.53948879 4.014946461
4.882672787 -6.823904037 0.517470777
4.894680023 -6.830528736 0.7854614258
4.911628246 -6.81572485 1.053371429
4.919365883 -6.817090034 1.32284987
4.925930023 -6.814879417 1.593654633
5.018465519 -6.909404755 2.164847851
4.95085907 -6.818026066 2.424248695
4.949014187 -6.807302475 2.705480576
4.946822643 -6.795975685 2.990784407
4.878470898 -6.861019611 0.517329514
4.873968601 -6.847567558 0.7862334847
4.882034779 -6.822020531 1.053659797
4.885938168 -6.818809509 1.322234154
4.895039082 -6.819736481 1.592761397
4.907154083 -6.826299191 1.866650462
4.92313385 -6.83737278 2.145177603
4.936262131 -6.842720032 2.427102804
4.933137417 -6.830422401 2.708190918
4.031134605 -5.739304066 2.591191292
4.872812271 -6.896624565 0.5172616243
4.860773563 -6.873840809 0.7870030403
4.868921757 -6.848283768 1.05484724
4.86773634 -6.838885784 1.323283315
4.865438938 -6.825984955 1.592071772
4.886338711 -6.843338966 1.867423773
4.892228603 -6.842295647 2.143177509
4.891198158 -6.822088242 2.700748205
4.855681419 -6.874529362 1.056035399
4.849455833 -6.858903408 1.324331522
4.849680901 -6.849058151 1.593676329
4.877990246 -6.875646591 1.87097764
4.868830681 -6.856225491 2.143255472
4.04513979 -5.840209484 2.143923283
28.51839066 -36.44273758 0.7931721807
4.85868454 -6.913003922 1.328450441
4.847590923 -6.88909626 1.597581267
4.530205727 -6.48952198 1.798804879
4.084385872 -5.93272686 1.930401802
4.027736187 -5.854239464 2.14456296
4.105464935 -5.942594051 2.408577681
3.656456232 -5.38473177 2.446445227
28.38300514 -36.52794647 0.7977063656
20.03660011 -25.90174866 1.911306739
8.871061325 -11.95573616 1.780806422
9.322134972 -12.50224972 2.353911161
4.546589851 -6.549990654 1.80760324
4.060502529 -5.93923378 1.929311514
4.879742622 -6.938457012 2.723911047
19.81014061 -25.94618034 0.7978577614
8.793789864 -11.93821049 1.777877688
9.286405563 -12.54085255 2.356231689
10.50157261 -14.04608536 3.156180859
5.155316353 -7.343395233 2.244322062
4.002919674 -5.896544933 2.149616241
4.824532986 -6.902183533 2.997073889
19.70411491 -25.99155235 0.8010115027
8.646194458 -11.83109474 1.766941905
9.218396187 -12.53881931 2.353097677
10.41830635 -14.03108788 3.148842096
4.398714542 -6.437648773 2.036723852
3.978891134 -5.900552273 2.14772296
3.755614758 -5.613342285 2.291832924
4.81052494 -6.927904606 3.001152277
19.48612022 -25.89294052 0.8040570021
8.639953613 -11.9019413 1.771973968
9.233725548 -12.63803005 2.363733768
10.4077301 -14.11236572 3.158602238
4.365818501 -6.435904026 2.033596277
9.341638565 -12.72229671 3.996587753
4.603591442 -6.718817234 2.640408993
3.588040113 -5.429026604 2.446545124
9.392720222 -13.03522301 0.7970831394
8.635766029 -11.97603035 1.777294874
9.245577812 -12.74225044 2.374741793
5.112330437 -7.437898636 1.958287477
4.232195377 -6.305308819 2.001550913
8.518042564 -11.76203823 3.728872776
5.04587698 -7.326091766 2.828818083
4.634737968 -6.791958332 2.940831661
9.336028099 -13.05368519 0.7986553907
9.360463142 -13.012537 1.332122087
8.621894836 -12.04225636 1.781848073
9.278370857 -12.87025738 2.38905549
4.736052513 -7.002876759 1.878062606
4.2497015 -6.368927956 2.013068199
8.470172882 -11.77921963 3.726901293
9.32418251 -13.05302429 1.333985448
8.581648827 -12.07064915 1.783094645
9.309171677 -12.99705505 2.403179169
4.713408947 -7.017752171 1.878544211
4.018705368 -6.109275818 1.952373743
9.12931633 -12.71076679 3.971508741
9.041250229 -12.58032703 4.481197357
8.931982994 -12.42248058 4.978836536
30.80289459 -41.57912064 0.8344272375
9.286520958 -13.09181499 1.335775733
8.588504791 -12.16075325 1.789844275
9.276404381 -13.0420351 2.406365395
4.684705257 -7.02467823 1.877623677
3.990802765 -6.110713005 1.950229526
4.534925938 -6.810570717 2.377158403
9.128918648 -12.77933025 4.535562992
4.300264835 -6.488833904 2.815385342
33.26992798 -45.15697479 0.8438283801
19.22200394 -26.31705856 1.930617094
8.522563934 -12.15562057 1.788121939
9.298721313 -13.15982723 2.419253826
4.20921278 -6.443290234 1.772188187
4.055934906 -6.234274387 1.975312352
8.947607994 -12.64479733 3.939782143
9.094078064 -12.82021141 4.53994894
4.295696259 -6.523574829 2.823267698
18.79467392 -25.93318939 1.913459897
8.471148491 -12.16930199 1.78808701
10.18536377 -14.42653942 2.584793329
5.306931973 -7.93937254 2.035589457
5.267790318 -7.878023148 2.33820796
8.894436836 -12.66022015 3.937051296
4.855785847 -7.312195778 2.801263571
36.67867279 -50.40662766 0.8621834517
18.97944832 -26.36393547 1.932948947
25.12321091 -34.56201553 3.772770643
9.089014053 -13.06338596 2.400782585
19.5406456 -26.93264389 7.744133949
4.871675491 -7.382580757 2.818614006
4.395818233 -6.739013672 2.891615152
18.89067841 -26.43966293 1.936483145
9.168849945 -13.27634335 1.883690476
9.034501076 -13.07898808 2.400146723
20.46920204 -28.36943817 8.112399101
4.254364014 -6.592610359 2.83420229
19.30042076 -27.17540169 1.969707131
8.775615692 -12.83253098 1.843102813
10.13226795 -14.65883636 2.606336594
4.399082661 -6.864630699 1.838963509
4.359713554 -6.803320885 2.091292858
17.43151474 -24.45636177 7.056221485
3.321438074 -5.377378464 2.393538237
18.64618683 -26.62703705 0.835298121
19.36984062 -27.46376991 1.98282063
8.727938652 -12.85497952 1.843826294
10.10755634 -14.72116852 2.611724377
4.352396965 -6.844756126 1.833497047
5.686292648 -8.655620575 2.497049332
17.94252968 -25.32532883 7.273795128
5.063867569 -7.785283566 2.930905342
3.294227839 -5.373404026 2.388540506
34.70869827 -49.14083481 0.8825492859
19.25936317 -27.50683784 1.98490417
9.082963943 -13.43287659 1.893585443
8.748105049 -12.9506588 2.375428677
4.317548275 -6.840644836 1.830833793
4.336687565 -6.858963966 2.09831953
17.29761505 -24.62116623 7.073631287
5.012127876 -7.765226364 2.920051575
16.45570374 -23.40288353 8.826025963
34.50997162 -49.21930313 0.8881790042
19.06015587 -27.42612457 1.98142314
18.12008858 -26.08517647 3.007695436
20.73727036 -29.67422867 4.573224068
4.797275543 -7.549255848 1.953166962
4.264986992 -6.803785324 2.083611012
17.18466759 -24.64925003 7.067392826
3.396246195 -5.586955547 2.240134716
5.127585888 -7.965126514 3.305370569
18.97897911 -27.51849556 1.985746741
18.02630806 -26.14966583 3.010686398
9.334640503 -13.95421505 2.502028704
8.55752182 -12.83583546 3.402835846
5.071222782 -7.964396477 2.651176453
3.363036871 -5.577258587 2.233900785
5.129467487 -8.022736549 3.32011795
21.38393974 -31.12500381 2.148290873
8.289213181 -12.60240555 1.816602349
18.31303787 -26.70796776 4.171628952
4.732121468 -7.561529636 1.950875759
4.053534508 -6.598927975 2.033505678
4.269985199 -6.892746449 2.365179777
3.346848726 -5.591063976 2.234969854
4.576770306 -7.305081844 3.05973196
21.3861866 -31.35311508 2.158756256
8.422652245 -12.87924004 1.839763522
22.46894073 -32.80000305 4.963952541
4.795465946 -7.700920105 1.973100185
4.007370472 -6.575996399 2.026101828
4.263569355 -6.928296566 2.371339321
4.777928352 -7.645937443 2.864905834
4.608635426 -7.397707462 3.087677717
20.5080986 -30.50153351 0.8627159595
20.95963669 -30.96841812 2.141634226
8.403532028 -12.94122601 1.844032526
8.02324295 -12.3771925 2.287699223
4.807923317 -7.7694664 1.982929587
4.017931938 -6.633421898 2.036249399
17.10085869 -25.25352478 7.174490452
4.72513485 -7.621229649 2.853016853
4.595647812 -7.42779541 3.09343648
18.57774353 -27.75092316 1.996919632
9.052087784 -13.96738529 1.932817101
19.77098656 -29.39088058 4.5061059
4.025889874 -6.687757492 2.045702934
5.089879036 -8.204221725 2.699018478
4.681456566 -7.60896349 2.845019102
3.217552423 -5.505124092 2.410659313
21.88183975 -32.95981979 0.8759317994
18.43743134 -27.74798203 1.996977806
8.117897987 -12.70690918 1.821209073
20.92094612 -31.27407455 4.745884418
17.02066422 -25.57943726 5.067869186
4.001068115 -6.69523716 2.044967175
16.78783607 -25.16751862 7.126811981
21.94035339 -33.28764725 0.8803220987
18.35028839 -27.82199669 2.000509262
8.926715851 -13.98070717 1.931510687
19.52601433 -29.46217918 4.504146576
8.6755867 -13.57493973 2.981914043
3.979579687 -6.707487583 2.045283556
17.39748764 -26.23796082 7.393549442
3.965956688 -6.669639111 2.549715757
15.932621 -24.03974342 8.91213131
21.55830383 -32.96398926 0.8828220963
19.01319885 -29.00482368 2.054014921
23.35910225 -35.38397598 3.800318956
19.19024658 -29.18278694 4.462305546
18.30919647 -27.84908104 5.445502281
3.680127382 -6.301810741 2.192792177
4.638749123 -7.698996067 2.860049963
16.4232769 -24.9323616 9.208268166
19.62783623 -30.31406403 0.8780740499
18.10269356 -27.86134529 2.002695084
23.3039856 -35.56281281 3.812771082
17.63357353 -27.09513283 4.185773849
18.22673416 -27.93066978 5.451693535
3.916663647 -6.702381134 2.039571047
3.654680014 -6.30710125 2.191337347
3.196778059 -5.623361588 2.224179029
16.85473442 -26.36009216 0.8687278628
20.96106911 -32.36680222 2.206026316
22.06739616 -33.98503494 3.671926498
7.826877117 -12.61634922 2.305145979
18.15569115 -28.03984451 5.462285519
3.88319087 -6.698646069 2.036387205
3.910259008 -6.720956326 2.554666758
4.204386711 -7.149811745 2.967871428
18.75581932 -29.44745064 0.8815529943
20.70994759 -32.22626877 2.199948549
17.86423874 -27.88751221 3.137912512
7.757230759 -12.60042953 2.300894022
20.03375244 -31.07493973 5.976466656
3.87043786 -6.723584175 2.039510489
5.242239475 -8.773331642 2.824105024
4.54507494 -7.707520485 3.157746553
21.95667076 -34.56158066 0.9017081857
19.7890358 -31.06174088 2.147696972
20.09047508 -31.47040558 3.447411776
18.78931618 -29.45381737 4.47574234
18.34394646 -28.74077988 5.567179203
3.836894274 -6.714972973 2.035547256
4.978431225 -8.434286118 2.732746601
4.571297646 -7.808800697 2.876885176
4.417156696 -7.563950539 3.103378296
19.33429146 -30.58286667 2.126345158
18.53845596 -29.3247757 3.258249521
7.966467857 -13.10033226 2.361071348
21.71055794 -34.08950806 6.476661682
3.845577002 -6.772737503 2.045726776
15.42712593 -24.38048363 7.876838207
3.9036901 -6.834640503 2.845806599
15.74127197 -25.40530586 0.8757071495
19.25 -30.68029785 2.131003618
18.52886772 -29.52817154 3.273477554
7.937726498 -13.14496422 2.364724398
18.51099777 -29.41584015 5.667592525
3.876435041 -6.865292072 2.06332922
3.572938204 -6.391042709 2.199875832
4.512108803 -7.821707726 2.873009205
16.21257019 -25.7304039 9.384508133
12.66126823 -20.7705822 0.8611648083
19.24528694 -30.91374588 2.141821146
18.47317505 -29.67295647 3.283498526
7.56351757 -12.66214561 2.300320625
16.47760201 -26.48897743 5.159316063
3.780805111 -6.765244961 2.039646864
4.638143539 -8.072564125 2.944336176
18.59859657 -29.61497688 10.70938301
15.41169167 -25.28329659 0.880459547
19.93956375 -32.24871063 2.202364683
20.61225128 -33.26499557 3.592279911
7.505242825 -12.66623878 2.298665762
7.94491148 -13.33927917 2.909060717
4.790169239 -8.390867233 2.383906364
3.624038935 -6.560175896 2.237863302
15.24005318 -24.65441513 7.917765141
15.47899914 -24.992939 9.095497131
14.93767452 -24.72618294 0.8808461428
21.01248169 -34.20438385 2.290962458
19.97227287 -32.51556396 3.524605989
17.20028305 -28.08246613 4.273834705
7.869382381 -13.32139206 2.902518988
4.779391289 -8.434892654 2.390427828
3.638764858 -6.62945509 2.252868652
15.19896126 -24.7834034 7.942561626
16.53451157 -26.84543228 9.716507912
15.20103168 -25.32569885 0.8855032921
20.82544708 -34.1518364 2.288897514
17.6225605 -29.00239182 3.218284369
17.02406311 -28.00281906 4.259179115
7.870118618 -13.41435051 2.915203094
4.793046951 -8.51225853 2.404301167
15.25361538 -25.04647446 8.008778572
18.24968147 -29.74835396 10.69785309
20.61598587 -34.28502655 0.9247195125
17.81712151 -29.53439903 3.262015104
18.85162926 -31.14642525 4.656714916
7.853438377 -13.48530769 2.923974276
16.14946365 -26.74388885 6.268219471
3.861809254 -7.070894718 2.360522747
17.59066963 -28.96320343 9.16493988
4.221423626 -7.626718521 3.09358573
20.02288437 -33.57912064 0.9250308871
20.60731125 -34.32001877 2.297162056
18.01235008 -30.07489395 3.306425571
18.76336098 -31.24060059 4.66365099
16.07209778 -26.82159805 6.275617599
3.858655691 -7.114159107 2.368798494
15.10981274 -25.19454765 8.02678299
4.200730801 -7.646203041 3.095988512
19.875494 -33.59409332 0.9282844067
19.25860214 -32.37835693 2.209778547
19.31266785 -32.42676163 3.50703907
18.66010284 -31.31080246 4.667557716
7.753578663 -13.5210743 2.92354846
4.005039692 -7.41175127 2.163668156
3.851142168 -7.150818825 2.37538743
15.39684391 -25.85070801 8.20903492
4.294043541 -7.850237846 3.161463022
13.51888466 -23.31423759 0.8862190843
19.15784264 -32.4606781 2.213830948
17.89172173 -30.33772087 3.324574709
19.66808128 -33.2062912 4.904094219
11.90186596 -20.42532921 4.087243557
3.833224058 -7.170823574 2.377748966
15.10136318 -25.56501007 8.111059189
4.261483192 -7.851986408 3.157742262
17.81775093 -30.67549896 0.9214769602
16.03563881 -27.52659035 1.991131067
18.97831917 -32.37265396 3.497581005
19.45459366 -33.12135315 4.887773037
7.683304787 -13.60518932 2.931389093
3.984711647 -7.481516838 2.173928022
17.17817688 -29.22872162 7.96018219
3.617668629 -6.85941124 2.55333972
3.499351978 -6.654247761 2.745743752
17.66364479 -30.66488075 0.9244168401
15.96040154 -27.62284851 1.995789886
17.20310402 -29.66702461 3.262346029
20.93962097 -35.85642624 5.230220318
11.79682636 -20.5690937 4.10150671
18.14721489 -31.11667442 7.143302441
17.05628204 -29.25135422 7.953872204
3.602674961 -6.881886005 2.556919813
16.63124847 -28.46883965 10.15412712
17.41863441 -30.48676109 0.926407218
15.76813221 -27.51154709 1.991054535
17.34052086 -30.12816429 3.299874306
17.02832603 -29.56550598 4.425887585
16.28789711 -28.27309036 5.392935276
18.05609894 -31.20491219 7.151814461
11.5303421 -20.22728348 5.664206982
17.13904762 -29.58871841 9.260025024
15.43037224 -26.68250084 9.531665802
17.45837212 -30.80425644 0.93085742
15.66130543 -27.55356789 1.993273139
17.22193527 -30.17247009 3.301460028
16.58763695 -29.04736328 4.355710983
11.37143898 -20.17196274 4.02498436
17.92321968 -31.23500061 7.147690296
3.755392551 -7.246613979 2.385985851
16.93712997 -29.47788429 9.212884903
15.35833645 -26.77812386 9.547930717
17.96736908 -31.92414284 0.9391281009
15.59123993 -27.6477108 1.997841835
17.16267967 -30.30634308 3.310862541
16.6525116 -29.38468933 4.394066811
11.3257885 -20.24896431 4.033298016
14.92527771 -26.36453438 6.118216991
3.754833698 -7.296693325 2.395974874
15.70250893 -27.60801125 8.648249626
15.22608948 -26.76170158 9.527150154
17.82060814 -31.9072094 0.9417855144
15.56372738 -27.81608009 2.005777597
16.97989845 -30.21626472 3.301176071
16.30526924 -29.01595497 4.34307909
11.49145794 -20.69046974 4.102690697
19.31725121 -34.11003494 7.729629517
3.728390694 -7.30293417 2.394942999
10.1682539 -18.33530426 5.910316467
12.86769581 -22.92391777 8.217945099
11.70848751 -21.43855667 0.8916246295
15.49421215 -27.90213013 2.009979248
16.86730385 -30.25793266 3.302715778
16.15812111 -28.98808289 4.335312843
15.27484322 -27.37365341 6.313013077
3.696226835 -7.296583176 2.390905142
10.07977486 -18.31670952 5.896772385
12.83137894 -23.03981018 8.244287491
18.27718544 -33.22155762 0.9542778134
15.42747498 -28.00459862 2.01494813
15.35816193 -27.84897804 3.094485521
16.03402901 -28.98781967 4.331297874
11.29396629 -20.65967751 4.088581562
17.44306755 -31.37732887 7.139134884
3.936934948 -7.771239281 2.507046461
10.03962612 -18.38855362 5.909399509
10.843997 -19.76331139 7.129907608
14.92991066 -27.52975273 0.9274742007
15.19142246 -27.81895828 2.006890774
15.11778927 -27.65491295 3.075984001
15.92769527 -29.04102516 4.333655357
11.21430683 -20.68872261 4.088690758
17.29464722 -31.37741661 7.129229546
3.94630599 -7.846716881 2.523071766
9.973955154 -18.42331123 5.910788059
10.81783485 -19.87937927 7.157694817
12.34075642 -23.09311295 0.9061793685
14.99693966 -27.70347023 2.002013206
11.84610844 -22.03732681 2.594069481
16.96438217 -31.13095284 4.592406273
11.15203857 -20.74851227 4.09396553
10.56349277 -19.66909027 4.68708849
4.0408535 -8.071490288 2.576454639
3.59837532 -7.277805805 2.648706436
9.95520401 -18.50948715 6.688044071
12.27001572 -23.14827919 0.9084762335
13.69434929 -25.56723785 1.905516505
11.7594986 -22.05579376 2.59426856
11.01076508 -20.68390846 3.274633884
10.78031921 -20.23725128 4.004695415
10.40160942 -19.53383255 4.653336525
3.863302469 -7.810156345 2.508725166
3.590292931 -7.31330061 2.65622139
4.283080578 -8.539837837 3.342899561
14.55341434 -27.5073185 0.934540391
12.37038422 -23.36708069 1.806088567
11.70083141 -22.12456894 2.598779678
14.95165539 -27.9753933 4.187687397
10.71339703 -20.27635002 4.006929874
10.2970314 -19.49927139 4.640589237
4.401594639 -8.841154099 2.762420893
3.622280121 -7.423993111 2.685467243
4.202005386 -8.457316399 3.311166763
14.36623001 -27.39517784 0.9363917112
12.11170197 -23.08945274 1.793808341
11.62376308 -22.16896057 2.601156473
14.85293579 -28.0315876 4.190751076
10.6362772 -20.30491447 4.007239342
10.26059151 -19.59535789 4.654680252
4.356250763 -8.828027725 2.756026506
3.63553977 -7.505053997 2.70588541
4.137856483 -8.406986237 3.290101051
14.42430115 -27.72520065 0.9406118989
11.76107597 -22.63623047 1.773559213
11.57307434 -22.2531395 2.60700655
11.07760239 -21.31333733 3.345045328
10.83785915 -20.84617424 4.09254837
15.0834589 -28.6116333 6.511752605
3.641880989 -7.583641052 2.444499731
9.600517273 -18.48468781 5.887681007
9.588602066 -18.43855667 6.625715256
11.46579266 -22.25952721 1.756745219
11.53605556 -22.35454559 2.614398956
14.24691296 -27.36237526 4.099527359
10.53656483 -20.44633865 4.022344112
15.00963211 -28.69588661 6.521508694
3.630698442 -7.616239548 2.450237989
9.906294823 -19.18936539 6.084309578
3.32733655 -7.035872459 2.826556444
11.41056919 -22.47143364 0.9143173099
9.248333931 -18.2670002 1.575801849
9.21154213 -18.17632103 2.257558107
14.07918453 -27.26027298 4.083368778
10.43031979 -20.40424538 4.011482239
10.56247807 -20.6258564 4.85100317
3.623029947 -7.655726433 2.457681656
9.642836571 -18.85310555 5.978972912
9.47964859 -18.52490807 6.636406422
15.44809723 -30.35173798 0.963162303
9.195079803 -18.31326294 1.578143954
9.154783249 -18.2153492 2.259850502
13.98402023 -27.3150444 4.086522102
10.27562618 -20.27778816 3.986551285
10.323349 -20.34264183 4.787151337
9.618307114 -18.96678734 6.003549099
9.947789192 -19.55187035 6.967599869
10.45614147 -21.01399994 0.909311831
9.122800827 -18.33086395 1.579201221
9.092986107 -18.25223732 2.261922836
9.714014053 -19.40607262 3.096277714
9.378265381 -18.74382401 3.729447365
10.06463909 -20.02493668 4.716169834
9.707549095 -19.3143959 5.327168465
9.508509636 -18.91261673 5.980118275
3.325791359 -7.192867756 2.868825674
11.6587019 -23.51956749 0.9264070392
9.098680496 -18.43350029 1.584113598
9.02304554 -18.26609612 2.262102604
9.628469467 -19.40792656 3.093987703
9.294596672 -18.73595238 3.724533319
10.22593212 -20.4976368 4.807861328
9.577074051 -19.23014259 5.299631596
9.804841042 -19.64082527 6.181647778
3.2715137 -7.143144131 2.849221468
11.70622444 -23.80763817 0.9301190376
9.012373924 -18.42402458 1.583949685
10.45016956 -21.1854229 2.508855104
9.168989182 -18.67634964 3.000535488
10.0525856 -20.36452675 3.988637924
10.15073872 -20.52079964 4.8072505
9.689646721 -19.60505676 5.385429382
9.7022295 -19.60417557 6.163191319
3.273391485 -7.200425148 2.864994049
11.65785789 -23.91077805 0.9327014685
8.985039711 -18.51429367 1.588297844
12.77050877 -25.90332794 2.9078269
9.104865074 -18.7046032 3.001802683
10.17988873 -20.77276802 4.052047253
10.06741619 -20.52792358 4.803406715
9.52085495 -19.43007851 5.336366653
9.453437805 -19.2741642 6.061038017
9.51086235 -19.36024666 6.866514206
12.43391323 -25.65626717 0.9457831979
9.03799057 -18.77197838 1.600278378
8.871870041 -18.42167282 2.272389889
9.05366993 -18.75055504 3.005402327
9.965869904 -20.52396011 4.007335663
9.940463066 -20.44877052 4.781990051
9.4414711 -19.43514442 5.331313133
9.422161102 -19.37242317 6.081601143
9.498995781 -19.49734306 6.902574062
8.834255219 -18.64390564 0.9024507403
8.977297783 -18.80693817 1.602137685
8.704051971 -18.24036598 2.256091118
9.015650749 -18.83856773 3.014019012
10.1995039 -21.13324165 4.916522503
9.42580986 -19.57407761 5.358789921
9.567131996 -19.82856369 6.204216957
3.228283405 -7.276899338 2.880867958
8.776713371 -18.68358231 0.9041790962
8.893769264 -18.80387878 1.602284908
8.41945076 -17.82064056 2.219647169
8.957201958 -18.87872124 3.016819
10.07986641 -21.10621643 4.094928741
10.14775276 -21.20726013 4.926332474
9.333889008 -19.55424118 5.347744942
9.430128098 -19.72128868 6.165910721
10.04104424 -20.90403748 7.345928669
8.682096481 -18.64761734 0.9054023623
8.816643715 -18.79737282 1.602251053
8.406971931 -17.94464493 2.229257107
9.25158596 -19.63335419 3.108153582
12.17645931 -25.51322174 4.811927795
10.0711689 -21.23178864 4.926093102
9.248954773 -19.53940201 5.338306904
9.441291809 -19.90147018 6.210191727
9.854189873 -20.70500565 7.271309376
8.679457664 -18.80016327 0.9078775644
8.686551094 -18.68972206 1.597627997
8.349053383 -17.97739983 2.231154919
9.178714752 -19.64240837 3.107168913
12.08136177 -25.53762817 4.811333656
10.08644199 -21.44324684 4.963907242
9.249063492 -19.71322823 5.374344826
9.415464401 -20.01750946 6.235756874
10.26484776 -21.71321106 7.591682434
8.497774124 -18.59026527 0.9079746604
8.56901741 -18.61346245 1.594448924
8.290631294 -18.01678276 2.233582258
9.088905334 -19.6328907 3.103695869
10.16163826 -21.81714439 4.199631691
9.960731506 -21.37726593 4.945084095
9.248861313 -19.8890667 5.410832405
9.425479889 -20.21707153 6.284714699
8.974422455 -19.267416 6.783139229
8.407988548 -18.56889725 0.9093253016
8.440077782 -18.51134682 1.590092421
8.188893318 -17.96606827 2.228414774
8.982075691 -19.58713341 3.095781088
8.295243263 -18.13651848 3.595904589
9.876623154 -21.39572716 4.943485737
10.06374168 -21.74728394 5.856698036
9.302571297 -20.14483452 6.2563591
9.518499374 -20.56433105 7.197105408
8.363348007 -18.63430023 0.9111970663
8.371649742 -18.52621269 1.591054797
8.227647781 -18.20158386 2.247463465
8.966159821 -19.72234917 3.110349178
8.265422821 -18.22953987 3.607960224
9.80291748 -21.42634392 4.944658756
8.982753754 -19.67608452 5.347157001
9.250689507 -20.21015358 6.267561436
9.245757103 -20.17325783 7.060933113
8.294640541 -18.64887047 0.9127120972
8.479385376 -18.91506958 1.609076738
8.266561508 -18.44117546 2.266848803
8.285801888 -18.45208168 2.951613665
8.351759911 -18.5694294 3.660160303
9.731642723 -21.4620266 4.946903229
9.046431541 -19.98074341 5.415249348
9.212589264 -20.30509758 6.287197113
9.227223396 -20.30913353 7.096511364
8.191483498 -18.58876991 0.9136881232
8.196757317 -18.47366524 1.589237094
7.938485146 -17.89889336 2.220319986
8.109727859 -18.23594856 2.92305088
8.29059124 -18.60013962 3.662065029
9.635174751 -21.44403648 4.938344955
8.947740555 -19.94481277 5.400717735
9.13104248 -20.30885124 6.281033516
8.397302628 -18.72480583 6.573619366
8.138895035 -18.63722801 0.9154285192
8.157118797 -18.54928017 1.592981815
