# .PCD v0.7 - Point Cloud Data file format
VERSION 0.7
FIELDS x y z
SIZE 4 4 4
TYPE F F F
COUNT 1 1 1
WIDTH 1322
HEIGHT 1
VIEWPOINT 0 0 0 1 0 0 0
POINTS 1322
DATA ascii
7.77850771 -37.65404129 2.517845869
7.772659779 -37.57831192 3.828506947
7.765434742 -37.46426773 5.136827946
7.894583702 -38.02248001 6.552203655
7.114375591 -35.5447998 1.184400678
7.669572353 -37.77478027 2.524566412
7.663825512 -37.69876099 3.838567972
7.653986931 -37.57069778 5.148599625
7.791493416 -38.17924881 6.574659824
6.992630959 -35.56547928 1.18649745
7.560305119 -37.89715576 2.531377316
7.550645828 -37.80131912 3.847170115
7.539852619 -37.69950485 5.16302681
7.684216499 -38.32024765 6.594714165
6.858968258 -35.5574913 1.188346863
7.44416666 -38.02246857 2.538393736
7.431565762 -37.91068649 3.856368065
7.428577423 -37.81305313 5.175718307
7.769869804 -39.45660782 6.769152641
6.74483633 -35.61653137 1.190871477
7.33218956 -38.13831329 2.544924021
7.320973873 -38.03209686 3.866584063
7.31584549 -37.92236328 5.187943935
7.65767765 -39.59962463 6.789569855
6.631515503 -35.68108368 1.193456411
7.22023344 -38.25775146 2.55163765
7.210380077 -38.15710449 3.877123117
7.202042103 -38.02939987 5.199934959
7.557810307 -39.81025314 6.820520878
6.519665241 -35.75510406 1.19614923
7.104198933 -38.35919189 2.557514429
7.098238468 -38.27787018 3.887336254
7.090938568 -38.15364838 5.214009762
7.442081928 -39.94491196 6.839738846
6.4109869 -35.84843063 1.199066997
6.98426199 -38.39242554 3.897059679
6.980875969 -38.28733826 5.229243279
7.334605217 -40.12781906 6.866484642
6.304552078 -35.95717621 1.202167392
7.057056904 -39.58498764 2.617699623
7.022870064 -39.34592056 3.976395845
6.866008759 -38.39921951 5.241922855
7.222708225 -40.29295349 6.890523911
6.186326981 -36.00257492 1.204516768
6.941561699 -39.71942902 2.625206709
6.904527664 -39.46031952 3.986163378
6.925933838 -39.48836517 5.370715618
7.11568737 -40.49085999 6.919690609
6.076725006 -36.09881592 1.207467198
6.791057587 -39.65871811 2.623484612
6.788207531 -39.59006882 3.997231245
6.803148746 -39.58255005 5.381355762
7.000870228 -40.6515007 6.943133354
5.969175816 -36.21048737 1.21060288
6.673184395 -39.78448868 2.630604744
6.667012215 -39.69590378 4.006341457
6.66699028 -39.60194778 5.3831563
6.884320736 -40.80792999 6.965974331
5.857690334 -36.30210876 1.213498592
6.557145119 -39.92567825 2.638470888
6.551809788 -39.84066772 4.018708706
6.547609329 -39.72076797 5.396803856
6.76712656 -40.96596909 6.989118099
5.751036167 -36.42694092 1.216795325
6.437281132 -40.04878235 2.645494223
6.429809093 -39.94970322 4.028138638
6.433624744 -39.87646866 5.414869308
6.655641079 -41.16464615 7.018602371
5.640768051 -36.53368759 1.219875813
6.320481777 -40.19518661 2.653638601
6.310946941 -40.08197021 4.039524555
6.301357269 -39.96821594 5.425365448
8.532429695 -53.66664886 8.95181942
6.185287476 -40.27523041 2.658705711
6.191218853 -40.21389008 4.050908566
6.179070473 -40.08199692 5.438537598
8.382568359 -53.97842026 8.998478889
6.074887276 -40.427742 2.667110682
6.067611694 -40.32574463 4.060655594
6.059089184 -40.21503448 5.454036236
8.89229393 -58.44865417 9.688555717
1.34753263 -10.04483604 0.5772336125
5.952162266 -40.55135727 2.674217463
5.945686817 -40.45298767 4.071707249
5.947504997 -40.36239243 5.471288204
8.644477844 -58.17400742 9.644628525
1.305685759 -9.980219841 0.5793294907
5.82806778 -40.67064667 2.681133032
5.821208477 -40.56801987 4.081773281
5.825470448 -40.49277115 5.486551762
8.399273872 -57.90225983 9.601251602
1.26903224 -9.949087143 0.5806444883
5.704926014 -40.80140305 2.688610077
5.698822498 -40.70240021 4.093474865
5.699508667 -40.6011467 5.49924612
8.170119286 -57.72735596 9.572947502
1.233199596 -9.933872223 0.5816152692
5.578735352 -40.91596603 2.695330143
5.574445248 -40.82851028 4.104518414
5.566988468 -40.71795273 5.512978077
7.934086323 -57.49281693 9.5355196
1.197226405 -9.90443325 0.5828713179
5.445320606 -41.03503418 2.702343941
5.444684029 -40.9729538 4.117144585
5.445484161 -40.86880875 5.530801296
7.69205761 -57.27433014 9.500617981
1.15939641 -9.871088028 0.5842343569
5.323390484 -41.19234848 2.711135149
5.31781292 -41.09235382 4.127690315
5.309463024 -40.97098923 5.542890072
7.45999527 -57.04179382 9.46369648
1.125624895 -9.855248451 0.5851622224
5.668077946 -45.04766846 2.896683693
5.183141708 -41.21224594 4.138339996
5.189176083 -41.14471436 5.563515186
7.223176956 -56.83506775 9.430814743
1.08921361 -9.829548836 0.5863318443
5.493289471 -44.90255356 2.891171455
5.511691093 -44.9858551 4.452758312
7.000183582 -56.64577866 9.400767326
1.059779644 -9.821017265 0.5870227814
5.318757057 -44.68642807 2.882190228
5.340854168 -44.80390167 4.438358307
5.712219715 -47.71865082 6.343858719
6.783073425 -56.41129303 9.36386013
1.022779942 -9.787107468 0.5883585811
5.172996998 -44.76613998 2.887436152
5.170894623 -44.68356323 4.429141998
6.559552193 -56.19085693 9.329174995
6.569679737 -56.1897316 11.33001041
1.142016172 -11.10546398 0.917830646
5.022467136 -44.87600708 2.894212723
5.028610229 -44.79623795 4.439334869
5.432599068 -48.25117874 6.407443047
6.326426506 -55.95688629 9.292464256
6.355793953 -56.04010773 11.30014706
1.107906699 -11.12329865 0.9185345173
5.227549553 -48.05931854 3.048192263
4.88296175 -44.88468552 4.447543144
5.296611309 -48.53808975 6.441763401
6.116958141 -55.74343491 9.259061813
6.126020432 -55.73734283 11.24120712
5.078312874 -48.22218323 3.057571888
5.097794056 -48.33175278 4.735332012
5.903014183 -55.56364059 9.230918884
5.910283566 -55.54307175 11.20306778
4.924906731 -48.35476685 3.065517664
4.944224834 -48.4680481 4.747655392
5.689377308 -55.37319183 9.201216698
5.73176384 -55.68997955 11.23007202
4.773027897 -48.51071167 3.074603796
4.772040367 -48.42733765 4.745274067
4.876319408 -49.30479431 6.533868313
5.472780704 -55.13865662 9.1647892
5.603857517 -56.34656906 11.3543148
4.621272564 -48.6781044 3.08425951
4.615384102 -48.54273224 4.755924702
5.261537552 -54.9406662 9.134090424
5.456532478 -56.85037613 11.44953251
4.467107296 -48.83109665 3.093242884
4.462052822 -48.70127106 4.770204544
5.051009655 -54.73399353 9.102132797
4.304240227 -48.99228668 3.10272336
4.299993515 -48.86800766 4.785261154
4.443274021 -50.28890991 6.652347088
4.834723473 -54.55097961 9.073914528
4.140080452 -49.15095139 3.112103701
4.143646717 -49.01560974 4.798706532
4.274799347 -50.45698166 6.672987938
4.618491173 -54.35135269 9.043219566
4.172324657 -51.49769974 3.226825953
3.994101524 -49.15406418 4.811366558
4.14044714 -50.83881378 6.719009876
4.423604012 -54.16314697 9.014352798
4.012710571 -51.61670685 3.234238148
4.013160706 -51.53790283 5.01142168
3.575121403 -45.8350563 6.125320911
4.227037907 -53.93681335 8.979665756
3.848591805 -51.80360031 3.245033979
3.846855402 -51.69451904 5.02578783
3.419410944 -45.86883163 6.130063534
4.02802515 -53.77943802 8.955720901
3.683646441 -51.99594879 3.256115913
3.679789782 -51.8545723 5.040480137
3.26321888 -45.89810181 6.134319782
3.207679749 -45.05327606 7.608137608
3.514395714 -52.14390945 3.265075922
3.511650801 -52.01407623 5.055167675
3.107820034 -45.94070053 6.140210152
3.628011227 -53.38360214 8.895536423
3.345712185 -52.31523895 3.275186777
3.344773293 -52.20882416 5.07283926
2.953199625 -45.99861908 6.147970676
2.881477594 -44.82157135 7.573280334
3.167351246 -52.49453735 3.285798311
3.166711807 -52.38964462 5.089464188
2.788958073 -46.03468704 6.153230667
2.825811386 -46.54398727 7.840018749
2.987719059 -52.67321396 3.2964046
2.995248556 -52.54943848 5.104302406
2.623798609 -46.05825424 6.157059669
2.631591797 -46.10383606 7.772698402
2.824317694 -52.83832169 3.306189537
2.825741768 -52.76438522 5.123794556
2.347649574 -43.90534973 5.902040005
2.49966526 -46.45151138 7.827119827
2.651359081 -53.01534653 3.316668272
2.177348375 -43.61359406 4.359984398
2.208949327 -43.99798965 5.914031506
2.242226601 -44.55675125 7.535056114
2.337183237 -46.3078804 9.440177917
2.477954149 -53.20775986 3.327917814
2.021886349 -43.4933815 4.35123682
2.057169676 -43.98737717 5.913838863
2.089171648 -44.56404114 7.537013054
1.112761021 -24.10619354 5.20971489
2.302009821 -53.3716507 3.337805748
2.084046602 -48.30261993 4.755112648
1.907948852 -44.03178787 5.920239449
1.931627393 -44.47009277 7.523384094
1.031227708 -24.10779762 5.210372448
2.126401663 -53.57088089 3.349435091
1.698414803 -42.87688065 4.302310944
1.774119973 -44.46064377 5.97244978
-34.703022 21.92704582 0.7813803554
-32.73093414 20.66443443 2.03196311
-27.06820488 16.81125069 2.846991062
-25.77864265 15.99146175 3.697505951
-27.13692284 16.95985031 4.868317127
-26.44577789 16.5435276 5.752339363
-29.64639473 18.71208382 1.93175447
-28.61865425 17.98607254 2.962635994
-25.88051033 16.1750145 3.712278366
-26.85179329 16.88604927 4.828268051
-26.72449684 16.85326576 5.816645145
-32.63864136 20.89974594 2.024846315
-26.96994781 16.98484802 2.841058493
-25.65821648 16.13724327 3.689229488
-26.75518417 16.93991852 4.818284512
-30.2745533 19.43053627 6.546702862
-32.47010803 20.93312836 2.017396212
-26.91377068 17.0668869 2.837579012
-27.27745247 17.37358665 3.881583214
-26.71059227 17.02951431 4.816642284
-26.31351662 16.80786133 5.748731613
-32.22623444 20.91300583 2.007572651
-26.23293877 16.71438026 2.787730217
-27.39134789 17.57654381 3.898098469
-26.14584923 16.75505829 4.731621742
-26.25154495 16.88364029 5.743978024
-32.0254097 20.92128944 1.999123931
-26.71718788 17.17193794 2.824382305
-26.47001457 17.05328751 3.793296099
-26.10833168 16.84716606 4.731061935
-30.03770447 19.6830101 6.526077271
-32.79128647 21.611763 2.021085978
-26.75005341 17.31642151 2.827534437
-26.15857124 16.9530735 3.759871006
-26.22724342 17.05062866 4.755702496
-26.37100601 17.2085743 5.784439087
-32.91271973 21.85194206 2.022698641
-27.69806099 18.11281776 2.898724079
-26.48819733 17.30773735 3.80173707
-27.80910492 18.30329132 5.016137123
-26.28205109 17.26607704 5.774350166
-32.58775711 21.77382278 2.010304213
-27.18196678 17.87063599 2.861104965
-26.2902813 17.28716087 3.781654358
-27.85451508 18.46523285 5.029516697
-29.85607529 19.97417831 6.517159462
-30.52672386 20.43800926 1.943742394
-27.15993118 17.98028755 2.860219717
-26.24274254 17.37401962 3.779265642
-27.66660881 18.46526146 5.005583763
-29.73212051 20.02512741 6.501238346
-27.63350487 18.48143196 1.851469755
-27.70591164 18.50988579 2.90165925
-26.25470924 17.51050758 3.78407979
-27.6053009 18.55014038 5.001806259
-29.82262421 20.2400856 6.53004694
-27.46893311 18.48987389 1.844485044
-27.26600266 18.31716728 2.869694233
-25.80854797 17.30478859 3.734665394
-27.95705795 18.93970108 5.065027714
-27.37680626 18.54432297 1.839848399
-27.34009743 18.49983597 2.876001835
-27.97988129 19.02718925 3.994487047
-28.04054832 19.1344223 5.084934711
-27.38895035 18.6824913 1.838339448
-27.15514374 18.48490715 2.862977982
-28.24696159 19.35938644 4.029705524
-27.7546196 19.05423737 5.044867516
-27.29644775 18.74299431 1.833586454
-27.05219078 18.53647232 2.856105804
-28.34647369 19.56928635 4.045179844
-29.41129303 20.42915535 5.320837498
-27.3984623 18.95008278 1.834812999
-26.96350861 18.59835243 2.850301981
-27.93092346 19.4480114 5.086230755
-28.29413223 19.7889576 6.261324406
-27.95918846 19.50795555 1.850073457
-26.88581276 18.66828156 2.845322371
-27.88488197 19.49085999 3.997830153
-28.11826134 19.72659111 5.123455048
-28.11395073 19.78856659 6.233447075
-27.79263115 19.51540184 1.842982054
-26.78888893 18.72332382 2.838912249
-27.8847332 19.62602043 4.001554012
-28.12797546 19.87115669 5.131772041
-28.42584991 20.16727257 6.308348656
-28.15496635 19.92994881 1.852033138
-26.79464531 18.85713196 2.840176344
-27.85400963 19.73825645 4.001675129
-27.66373825 19.6488266 5.062443733
-28.60773849 20.44900322 6.356381893
-27.5533905 19.59988976 1.831685305
-26.87071991 19.04629898 2.846707106
-27.78196526 19.81868935 3.996897459
-27.40126419 19.58645058 5.026404381
-28.09395027 20.16509247 1.845964074
-27.71622467 19.84559441 2.910833836
-27.81285477 19.98670769 4.004627228
-27.24566841 19.599226 5.007539272
-27.38308907 19.7430687 1.822382927
-28.34477997 20.47765732 2.958761215
-28.32415199 20.52886581 4.069687843
-27.07769394 19.60789108 4.986952782
-27.86914253 20.29637527 6.232057571
-27.30302811 19.82177925 1.817828774
-28.24328804 20.54523468 2.952148438
-28.27244568 20.63631439 4.067714214
-27.0480442 19.71918869 4.988847256
-27.7872982 20.37783051 6.225438595
-27.40551758 20.03972626 1.818861604
-28.03747749 20.52198029 2.937680483
-28.1973381 20.71812057 4.062759399
-26.93736267 19.77243996 4.977731705
-27.32957077 20.10886383 1.814612031
-28.01717186 20.64655876 2.937108994
-28.09755135 20.77280045 4.054653645
-27.52504349 20.37782288 5.081676483
-27.90205574 20.68772316 2.929391623
-28.66300964 21.37555122 4.12678194
-27.35873222 20.38191414 5.061202049
-28.17318344 21.05086136 2.950696707
-27.91846848 20.91210175 4.04134798
-27.29415321 20.4615345 5.057263374
-28.13983727 21.16753006 2.949185848
-27.87933159 21.02300644 4.040795326
-27.20566368 20.53536415 5.050094128
-28.03170967 21.2299099 2.94211936
-28.63240051 21.80028343 4.136189461
-27.04422188 20.54111671 5.030408382
-28.01132011 21.35786438 2.941598892
-28.49227524 21.83207512 4.123620987
-27.7121582 21.25209236 2.920132875
-28.23349571 21.76298523 4.096674919
-27.84579086 21.50078392 5.179376602
-27.65939331 21.35218811 2.917187691
-28.13942719 21.83159065 4.089668751
-27.69538689 21.5193882 5.161824703
-27.79615974 21.61409187 2.928514719
-27.80716705 21.77054024 2.930396795
-27.57195282 24.63275337 0.5722091794
-27.35852051 24.58677864 0.5701324344
-27.18247795 24.57636833 0.567268014
-26.97015953 24.5281353 0.5652626753
-26.80620384 24.52711105 0.5621951818
-26.65934181 24.54237556 0.5587554574
-26.47360992 24.5167675 0.5562525988
-26.3189106 24.52179909 0.5530471206
-26.14230156 24.50294876 0.550396204
-25.96886063 24.48604965 0.5477041602
-25.84115982 24.50792313 0.5442578793
-25.64917946 24.4689579 0.5420912504
-25.55598068 24.53420258 0.5374541283
-25.36473083 24.49348259 0.5353354812
-24.89233208 24.48133278 0.5262089372
-24.76182747 24.50214767 0.522610724
-24.54611397 24.42695808 0.5213674903
-24.43741608 24.47014999 0.5172155499
-24.27576637 24.45288467 0.5145543814
-24.16719437 24.49495316 0.5104141831
-23.87150764 24.48687172 0.5044255853
-23.66309166 24.40231705 0.5036289692
-23.53177643 24.41448593 0.5002313852
-23.40320206 24.42908096 0.4967669845
-23.25676537 24.42162895 0.4938656092
-23.17209816 24.48715401 0.4890745282
-22.82783508 24.41368484 0.4846317768
-22.700243 24.42501259 0.4812358618
-22.57532501 24.43884659 0.4777691364
-22.410429 24.40224266 0.4756367803
-22.33250427 24.46460915 0.4710255861
-22.14745903 24.39202881 0.4700157046
-21.85755539 24.36056709 0.4646575749
-21.76094818 24.40533257 0.4603353143
-21.67479897 24.47186852 0.4552475214
-21.46689796 24.37929344 0.4545133114
-21.32037926 24.36513519 0.4516352117
-21.05861092 24.3494091 0.4459996223
-20.84353638 24.3844986 0.4390884936
-20.58943748 24.3945179 3.483551264
-20.55217552 24.4345665 4.507666111
-20.54252815 24.41567612 1.445181012
-20.53341484 24.39040565 2.460210562
-20.47947884 24.41561127 3.474808693
-20.40385246 24.31396675 0.4314036369
-20.38630676 24.38054085 1.438705087
-20.41818619 24.41231537 2.452812433
-20.33728027 24.39373398 0.4259904623
-17.66262817 24.23202133 0.3616498113
-7.531129837 9.010944366 3.396288872
-7.524936199 9.045063972 3.74334693
-7.513725281 9.004958153 3.058619976
-7.496315956 9.015673637 3.391622066
-7.475442886 9.016438484 3.727742672
-7.500777721 9.004823685 2.728330135
-7.464808941 8.977163315 3.046832561
-7.459536076 9.012574196 3.385075808
-7.444652557 9.025570869 3.724430084
-7.503984928 8.99677372 2.082736254
-7.474544048 8.978035927 2.398293734
-7.454362869 8.981905937 2.719254732
-7.437215328 8.988848686 3.04486084
-7.430995941 9.022571564 3.382539749
-7.425507069 9.058818817 3.72892499
-7.470774174 8.956389427 1.759990215
-7.434237003 8.967181206 2.392671347
-7.427053928 8.997724533 2.717977285
-7.407328606 8.999379158 3.042384148
-7.39766407 9.026176453 3.377960205
-7.411139965 9.102437973 3.736754179
-7.453129768 8.949650764 1.130199671
-7.455511093 8.952334404 1.444012642
-7.426920891 8.938047409 1.755732059
-7.415861607 8.956215858 2.07135272
-7.403530598 8.975748062 2.390188932
-7.392007828 8.9974823 2.713515043
-7.385007858 9.025671005 3.043703556
-7.382670879 9.068175316 3.384156942
-7.429098129 8.927544594 0.8169881105
-7.404918671 8.922026634 1.128428221
-7.416054249 8.942777634 1.44139564
-7.399760723 8.953607559 1.754255533
-7.381733418 8.957463264 2.068220139
-7.379656315 8.998482704 2.389981747
-7.368866444 9.021974564 2.71400094
-7.367575169 9.062507629 3.047544956
-7.399025917 8.89622879 0.5058642626
-7.38660717 8.914831161 0.8162419796
-7.371722221 8.92478466 1.126773238
-7.376712799 8.933045387 1.438785791
-7.369952202 8.963680267 1.752339721
-7.359087944 8.986168861 2.068232536
-7.355672359 9.021147728 2.389768362
-7.364089966 9.085570335 2.722241879
-7.368521214 8.904262543 0.5046514869
-7.343925953 8.897644043 0.8157135844
-7.345457077 8.941843033 1.125165701
-7.347295284 8.947246552 1.437084079
-7.336693764 8.966438293 1.749842525
-7.345348835 9.030315399 2.070248604
-7.338868618 8.913980484 0.5033047199
-7.315701008 8.906665802 0.814309895
-7.31226635 8.944356918 1.123512149
-7.321490765 8.961809158 1.435617566
-7.319622993 9.003343582 1.750097871
-7.304914951 8.914577484 0.5026289225
-7.289309978 8.968461037 1.12191999
-7.310370445 9.011322975 1.435488582
-7.27780056 8.929478645 0.500878334
-7.273638248 8.966198921 0.8098254204
-7.264119625 8.97322464 0.4969634116
-7.279969215 9.053599358 0.8055144548
-5.850732327 8.856231689 0.4716281593
-10.22690964 24.03753662 0.9574102759
-5.819629192 8.852766991 0.4709539413
-5.789682388 8.853013992 0.469979614
-5.76303196 8.864660263 0.4680939019
-8.755455971 23.96381569 0.8832697868
-8.666724205 23.9448719 0.8790601492
-8.58206749 23.94316673 0.8746911287
-8.489006042 23.90206337 0.8707171082
-8.411309242 23.93099976 0.8660489321
-8.327724457 23.93227005 0.8616573811
-8.244168282 23.91282845 0.8577037454
-8.165561676 23.916605 0.8535096645
-8.077893257 23.89541054 0.8493688107
-8.000786781 23.92687798 0.84465307
-7.918996811 23.93451691 0.8401951194
-7.752514362 23.9331913 0.8314665556
-7.330166817 23.8568821 0.8107966781
-5.45980835 23.76288605 0.712480545
-5.386172771 23.84324074 0.7067399621
7.530171871 62.75320816 14.70904064
8.840816498 61.11639786 5.538530827
8.88739109 60.96175766 3.373717308
8.964595795 60.95396423 1.224760175
1.034718871 19.64035606 3.819227457
1.040304661 18.53283691 4.966488361
1.019104362 18.20153618 4.893807888
1.114395618 18.3188076 4.919539928
1.062576413 18.03965759 4.21498394
1.005480766 17.67223167 4.777825356
1.082478642 18.02937508 3.577635765
1.148419023 18.12125206 4.229343414
1.148854136 18.03863525 3.577965498
1.155690193 17.7746582 4.800553799
1.365033388 18.59197998 3.656960964
1.153820157 17.54232788 4.749811649
1.435671329 18.60785103 3.658278465
1.007514119 16.94392967 4.014339924
1.364334226 18.06518936 4.86474371
1.810189247 19.6986351 3.814864635
1.277532458 17.68095016 4.147919178
1.398148537 17.95857811 4.841673374
1.412813544 18.06359863 3.577853918
1.223454595 17.27482605 4.073902607
1.471733212 17.99098778 4.849145889
1.566633344 18.38258553 3.623082638
1.41734314 17.73814392 4.157839298
1.567493558 18.10842323 4.875301361
1.607014298 18.09809303 5.533343792
2.922028065 23.49088478 1.057412982
1.531841993 17.91043663 4.188947201
1.67437315 18.24893951 4.906597137
1.676363707 18.11265755 5.538224697
2.995740891 23.45105743 1.053150296
1.689991355 18.35351753 3.617258072
1.661175132 18.12745094 4.228213787
1.43589735 17.10901642 5.280556679
3.079898119 23.44747353 1.048817039
1.282662153 16.90896225 2.816088438
1.467392206 17.39487648 3.47827363
1.719993949 18.10619545 4.224254608
1.373182535 16.8344326 4.597238541
1.515754104 17.16860962 5.297104836
3.164678335 23.44548988 1.044477224
1.347619295 16.92299843 2.816309452
1.529455423 17.40341568 3.478846788
1.500412822 17.17869186 4.055787086
1.457690001 16.92170525 4.616939068
1.855771661 18.07034492 5.530979156
3.245019674 23.44244957 1.040354729
1.980355144 18.94139481 2.368154049
1.967331171 18.758255 3.011557341
1.634832382 17.5518322 3.49960494
1.553073406 17.15883255 4.052166462
1.529961705 16.96749878 4.62758255
1.910190821 18.04592896 5.525969982
3.320781708 23.42381287 1.036273479
2.050007582 18.95581245 2.367173433
1.593017936 17.21466637 3.450393677
1.616294146 17.17263412 4.054694653
1.602433562 17.00280762 4.636006355
1.952130556 17.97232819 5.508383751
3.408624887 23.43048286 1.03190124
2.126110554 18.96803284 2.365841866
1.486625791 16.80200768 2.799779892
1.668918371 17.25773239 3.456003666
1.699085712 17.22764206 4.064749241
1.639742613 16.91764641 4.618058205
2.011532545 17.95408058 5.505144119
3.4963696 23.42222595 1.027352333
2.171032906 18.89145851 2.358417273
1.535723805 16.7555542 2.793571949
1.760871291 17.3495388 3.46866107
1.755914807 17.20999908 4.061650753
1.745064259 17.05300331 4.648561478
2.022581339 17.78793907 5.463747501
3.581091166 23.43136215 1.023179054
1.640506744 16.90202713 2.808103561
2.082332134 18.14786339 3.583056927
1.797634244 17.15557671 4.051905155
1.824122429 17.11432838 4.662817001
2.064867258 17.71964645 5.447675228
1.725133419 16.97328186 2.814554691
1.934115887 17.50262642 3.489684582
1.917171001 17.32851028 4.083494186
1.747841954 16.69689369 4.57194376
2.220909834 18.00219727 5.522287846
1.677008986 16.64809227 2.778811455
2.006862164 17.5291996 3.493033171
2.023234844 17.46622849 4.108720303
1.913525462 17.01786995 4.643360138
2.048930883 17.70508003 2.268070698
1.729326248 16.62273026 2.775020838
2.004321814 17.32998848 3.463927031
2.041841507 17.33166695 4.084547997
1.29756546 15.02144527 4.205309868
3.939412594 23.47984505 1.00570035
2.110612392 17.69532967 2.265541315
1.557525873 15.93143082 2.700355768
1.965473056 17.02775955 3.420044422
2.346592426 18.03852081 4.213257313
1.369613171 15.07190704 4.217298508
2.177402735 17.70047951 2.264060974
1.62717092 15.96488667 2.702919006
2.013264656 16.98469353 3.413483381
2.412027836 18.03541565 4.213057041
1.417648077 15.05175686 4.21380043
2.609995604 18.35698128 5.621435642
2.27886939 17.79690361 2.268817186
1.662133813 15.89643478 2.694662809
2.069903851 16.96770477 3.410706043
1.464808106 15.02137089 4.20814085
2.659718275 18.30532265 5.610063076
1.718263626 15.8815279 2.692080259
2.09239769 16.85326004 3.393948555
2.369514942 17.52741051 4.121622562
1.506249189 14.99066639 4.202351093
2.723548889 18.29377365 5.609140396
1.7757442 15.88698769 2.691777945
2.310606956 17.30211067 3.458227158
2.515232325 17.76281357 4.164865494
1.548199773 14.96168423 4.196976185
1.9955827 16.10125351 5.042525291
2.614857674 18.20685959 2.291815758
2.963214874 19.06842613 3.028634071
2.437660456 17.48661041 3.484518051
2.667247295 18.0104332 4.210381508
1.620519638 15.00904179 4.208512306
2.937801361 18.5258007 5.673457146
1.892332315 15.90100384 2.691558123
2.527098179 17.55387115 3.493971586
2.681998968 17.87564468 4.186425209
1.656374574 14.96316338 4.199492931
1.418932438 14.22387791 4.558946133
2.02748251 16.11062431 2.712918282
2.211903334 16.51319695 3.344204664
2.786708832 17.97855568 4.205757618
1.718244314 14.98060417 4.204527855
1.466647387 14.21096802 4.557373047
2.14220047 16.25971031 2.727860928
2.256625652 16.46760368 3.337512255
3.467635393 19.62756538 4.506361961
1.776858211 14.98861408 4.207530499
2.171206713 15.93990707 5.00851202
2.198445082 16.24773598 2.725747824
2.375349283 16.62055397 3.359386206
2.713994026 17.42617798 4.106638908
1.840447307 15.00921154 4.213357449
3.021409512 18.01474953 5.550132275
2.22460556 16.15542793 2.715153456
2.33762145 16.35565186 3.321238518
2.681168318 17.16724014 4.060249805
1.879045844 14.96367741 4.20463419
2.736682653 17.09860611 5.314268589
2.177289486 15.86302185 2.683377981
2.461395741 16.51898575 3.344667435
2.708086252 17.06045341 4.041612625
1.945971012 14.98472786 4.210723877
2.139849663 15.39842606 4.874104977
2.252416849 15.91134453 2.687770128
2.568546057 16.6354084 3.361387014
2.769361496 17.06057358 4.042395592
1.994670749 14.97266865 4.20940733
2.210908175 15.43187618 4.885032654
2.157951593 15.60534191 2.100734472
2.321208239 15.93420124 2.689449072
2.622739077 16.62119293 3.359361649
2.690330505 16.69405174 3.976486444
2.046938419 14.96955204 4.210107803
2.600190639 16.27359962 5.106558323
2.204427481 15.58113098 2.097717762
2.613739491 16.53613853 2.752378464
3.264558315 18.10108757 3.572095871
1.849305272 14.4169054 3.562464952
2.09055233 14.9444046 4.205976009
2.57510066 16.06458855 5.054397106
5.211551189 23.36983681 0.9408454895
2.597476006 16.34393692 2.731387854
2.063819647 14.91187286 3.113818407
1.853753567 14.29885864 3.541689396
3.038396597 17.16122055 4.698025703
2.561812162 15.88833809 5.010772228
2.355528831 15.67229271 2.101121902
2.335306644 15.53816032 2.645646811
2.311115265 15.38773441 3.182314157
1.942319512 14.39124107 3.559291363
2.910140514 16.69175529 4.595851898
1.90089488 14.12219715 4.552168369
2.411810398 15.67154026 2.099729061
2.39964819 15.55127144 2.646394253
2.147151232 14.83862305 3.103519678
1.921555877 14.20647621 3.526442528
3.049816132 16.87666321 4.638649464
2.635632038 15.77355576 4.98587513
2.497994661 15.72958088 2.10218215
2.209182262 14.85227394 3.105640173
2.169134855 14.67030716 3.61196661
2.737468481 15.87308216 5.014509678
2.585851192 15.70820427 2.66170764
2.762406588 16.04641533 3.277512789
2.240528107 14.70740795 3.619674206
1.933484912 13.88981438 3.980339527
2.797443151 15.86349964 5.014831066
2.502336264 15.3617897 2.624611378
2.773111105 15.92429829 3.260192156
2.403096914 14.96058083 3.666871309
2.00689292 13.9381485 3.992711782
2.882956266 15.92095947 5.032628536
2.6657269 15.69796658 2.095919132
2.529596329 15.28600216 2.616083622
2.492650747 15.1135273 3.143872976
2.470505714 14.98400211 3.672183514
2.450440645 14.85313129 4.197533607
2.954377413 15.94406128 5.041506767
2.56726265 15.23586369 2.610284805
2.542898417 15.0947752 3.141459942
2.126028538 14.04428864 3.501565933
2.13088131 13.97796535 4.004999638
3.379234791 16.78228569 5.264171124
2.605432272 15.18746662 2.604695082
2.601576567 15.10239506 3.142852783
2.176463366 14.03593063 3.501078606
3.114771128 16.03498459 5.071055412
3.119358301 16.24962044 2.716076851
2.862457991 15.56895065 3.210315704
2.251431227 14.08983135 3.511956692
2.513951302 14.61172676 4.149487972
3.160357475 15.99659538 5.064005852
3.202989101 16.29613304 2.720490217
2.947533131 15.63175201 3.219718218
2.340242624 14.16766453 3.527312756
2.267305613 13.92642403 3.998951912
4.087290287 17.94553947 5.57905817
3.360399485 16.51656723 2.743247986
2.982779264 15.57332993 3.211728096
2.948577881 15.41967106 3.757571936
2.248017073 13.76821327 3.965543985
3.626929998 16.76320839 5.271679878
3.324370384 16.28905296 2.718870401
2.814935207 15.06678772 3.139239073
3.053975344 15.52002907 3.777258635
2.32017684 13.80940914 3.976663828
3.865626335 17.15127373 5.377010345
3.354124784 16.2194252 2.711153984
2.845527172 15.00349712 3.130589247
3.08280015 15.45560551 3.766746044
2.377455473 13.82271576 3.981521606
2.822670698 14.72263145 4.740831852
10.54339504 32.50502014 0.7882380486
2.663444281 14.54824257 2.535048008
2.913471937 15.02321911 3.133921146
3.247315407 15.68254948 3.809739828
2.344736338 13.63348007 3.941333055
3.083518982 15.16214275 4.859744549
10.56179714 32.2514534 0.7843574286
2.359204769 13.75520992 2.451357841
2.878352404 14.81729412 3.104781151
3.35488081 15.78131676 3.829312086
2.260515451 13.33612061 3.876985312
1.814062238 12.30809593 4.10993433
10.58850098 32.02000046 0.7803401947
10.28664875 31.18695259 1.948424101
5.038099289 19.46151543 3.050798893
3.069022655 15.03152275 3.693230391
2.449044228 13.62727642 3.944097757
1.875261307 12.33586311 4.11988163
10.34703541 31.04077911 1.94000423
2.975926638 14.8504858 2.565895081
3.27206707 15.40943527 3.191251993
3.137469053 15.05012703 3.69812274
3.214161396 15.13533688 4.283493042
1.915042043 12.31764698 4.117737293
10.43012333 30.94533348 1.933040142
4.742387772 18.49540138 2.948560715
3.147648811 15.01475811 3.134985209
3.310784578 15.28956127 3.743630409
2.591449022 13.69989491 3.964683294
1.972392678 12.33614254 4.125345707
10.52159119 31.02948952 0.7720028162
10.41442204 30.63961029 1.920310497
4.905737877 18.68293953 2.967951059
3.205285072 15.00981236 3.134922266
3.313241243 15.16654778 3.722604752
2.604582548 13.61375523 3.947638035
2.035855055 12.36664391 4.136191845
10.50569534 30.73663139 0.76936239
10.40185738 30.3717289 1.909134269
3.08296442 14.7085228 2.550261497
3.244343519 14.97833443 3.130993605
3.130096197 14.66620541 3.632107973
2.543222427 13.38049221 3.897517204
2.088781595 12.38474464 4.143530846
10.46063995 30.38637352 0.7674713135
10.40995693 30.12467003 1.898185015
3.147608757 14.72639656 2.551948547
4.271213055 16.97832298 3.420329571
3.193707466 14.68191814 3.636517525
10.44435978 30.08844185 0.764803648
4.326111317 16.95649719 3.417983294
3.667956352 15.52901554 3.794163704
2.827957869 13.7464838 3.984179497
5.18594265 18.44725037 5.758779526
10.41679478 29.78441429 0.7626165748
3.656005621 15.38363075 3.769066811
2.905302286 13.79623699 3.997677803
5.272187233 18.46826172 5.768911839
10.45705223 29.61156082 0.7586810589
3.718724251 15.38384819 3.770915747
3.157446623 14.18811703 4.08830452
2.796743393 13.40217018 4.425853252
10.48659039 29.41903114 0.7550417781
2.845914364 13.45206451 3.925380945
2.849044085 13.39814472 4.428134918
4.254260063 16.10665512 4.525974274
2.901389122 13.3939085 4.430415154
4.066034794 15.61762333 4.41866827
2.976115227 13.43268108 4.444226742
2.348996162 12.18130684 3.646172523
2.993254185 13.36518669 4.429554939
7.892408848 23.3423233 0.8100116849
4.109385014 15.53288078 3.80810976
2.386281729 12.16234875 3.644170523
2.798570633 12.88999271 4.306060791
7.970557213 23.30242729 0.8058163524
4.243711472 15.66585445 3.834835768
2.43460536 12.15960884 3.64599061
2.396572113 12.03101349 4.079614639
10.41425991 27.84309959 0.7405094504
4.326458454 15.69862938 3.84307456
2.505070925 12.1982336 3.657215834
3.04880929 13.15949917 4.385320663
10.40923309 27.60458565 0.7380484343
3.349437714 13.80116844 2.97087121
2.974556446 13.04031849 3.352147818
3.179940939 13.36359024 3.923777819
3.630506754 14.13801575 4.651524544
10.53477192 27.61784172 0.7322086096
4.139173031 15.23840237 2.605038643
3.468305826 13.9157486 2.988511086
2.999032974 12.98508835 3.343750954
3.638260841 14.10862541 4.095592499
2.926844358 12.73338413 4.278299809
10.65777111 27.62524414 0.7264302373
11.08064651 28.30246162 1.798766732
4.222064018 15.273386 2.608809471
3.518872738 13.90692329 2.988232136
4.448655128 15.55859375 3.823844433
2.601180792 12.09670925 3.641911983
2.942579746 12.66993904 4.264726162
10.77256203 27.62754631 0.7209914327
11.18171978 28.26218605 1.793922186
4.334077358 15.36710453 2.618764162
3.621975422 13.98904991 3.001247406
4.46776247 15.47900677 3.811262846
2.635351896 12.07175827 3.638757229
5.316188335 16.87479973 5.400365353
10.89217663 27.6268692 0.7152959108
11.31885147 28.2883625 1.790770292
4.86316824 16.28990364 2.100140095
5.117422581 16.68245125 2.757010937
3.646528244 13.92625332 2.993246078
3.312427759 13.26295853 3.401153564
5.257731915 16.71670341 4.698112488
2.985567808 12.5562315 4.241546154
11.01386929 27.62919426 0.7095417976
11.41612148 28.24019432 1.785751939
4.873562813 16.18205643 2.092155218
5.646837234 17.51451302 2.844568014
3.342977285 13.21715641 3.394671202
3.669145107 13.7424984 4.024656773
3.02706027 12.53586483 4.239833832
11.11463165 27.59240723 0.7043507695
11.4949894 28.16976166 1.780386209
4.919034958 16.1389904 2.088400602
3.823717594 14.03753281 3.011717796
3.361715555 13.15062046 3.384348392
3.557697535 13.44568253 3.960024118
2.982157707 12.36731911 4.197941303
11.24158001 27.61383629 0.6985728145
11.60069466 28.14807129 1.7762537
4.954860687 16.08504486 2.084007978
4.693818092 15.54758835 2.638450384
3.443932772 13.20217991 3.395977974
3.721583605 13.57796097 4.529024124
11.35911369 27.61723709 0.6930463314
11.7092123 28.11984444 1.771781921
5.042207241 16.12332344 2.08560586
4.037939548 14.20916653 3.039150476
4.440145969 14.85948849 3.707614183
3.542459249 13.22307777 3.915394783
4.033267498 14.01939869 4.652868271
11.47366238 27.60358238 0.6874781847
11.81968021 28.09467506 1.767398119
4.726214886 15.37439823 2.620767355
4.195425034 14.37789822 3.065062046
3.939763069 13.87487888 3.526012659
3.652899027 13.31630039 3.939931154
4.092549324 14.01734829 4.656825542
11.60600948 27.62078857 0.6814165711
11.93410397 28.07602501 1.76318562
5.109501839 15.99614429 2.075573206
4.543906212 14.93981075 2.575396299
4.204709053 14.28603172 3.053020954
3.999723911 13.87498283 3.528398275
5.062523365 15.57579899 5.08453083
11.72875786 27.62001991 0.6756164432
12.04858494 28.05690193 1.758971572
5.167025566 15.97489166 2.073324203
4.830850124 15.32419777 2.616112947
4.073038578 13.95226574 3.005677938
3.846079588 13.50806332 3.462068796
2.44378829 11.05421257 3.427958965
3.114653587 12.14766788 4.157765865
11.82711029 27.5867157 0.6706152558
12.14439964 28.01578712 1.754424334
5.210872173 15.93592739 2.069992304
5.010787964 15.52405262 2.637455225
4.199308872 14.0696516 3.024146318
5.442592144 16.06264687 4.580134392
11.95008945 27.58497238 0.6648063064
12.25689697 27.99233437 1.7501297
5.245082378 15.87462521 2.065196753
5.137268066 15.62345123 2.648287535
4.138345718 13.86189747 2.995203495
4.130616188 13.79518414 3.520661354
4.508776188 14.37246227 4.195944786
5.709040642 16.32022667 5.302990913
12.08131027 27.59650993 0.6587613821
5.627038479 16.4679718 1.471441984
5.58389473 16.33125687 2.093778133
5.542333126 16.19193459 2.708492756
4.654668331 14.62889671 3.108880043
4.229082108 13.8588562 3.535155296
5.628091335 16.06527138 5.239105701
5.680249214 16.50390816 0.8386660218
5.650718689 16.38449478 1.467324615
5.625375748 16.27908707 2.089586258
5.247801781 15.577178 2.644263744
4.731997967 14.65016079 3.113561869
4.191764355 13.69524002 3.506964445
2.566657305 10.94633961 3.414342165
6.610127449 17.56607246 5.654972076
5.655016422 16.33760262 0.8380442858
5.674945831 16.30275917 1.46327436
4.951153755 15.03056145 2.008497477
5.69481802 16.20599747 2.710906982
4.652712822 14.41109085 3.080132484
4.259809017 13.7076664 3.511904955
2.831139326 11.30273819 3.499471903
3.740277529 12.74269676 4.341208935
5.65130949 16.20942688 0.8368303776
5.717243195 16.25190353 1.459972978
5.011678696 15.02001095 2.007083416
4.331120491 13.72482967 3.517789841
3.823350906 12.78600788 4.357646465
5.690165043 16.15340996 0.8344065547
5.605529785 15.95275211 1.451002836
5.070158482 15.00579834 2.005449772
5.373737812 15.44160271 2.631454468
5.022143841 14.80962372 3.141820908
4.770040512 14.33866596 3.636341095
2.875571489 11.21422005 3.485195875
4.729534149 14.15902996 4.738880634
5.736470699 16.11601067 0.831838429
5.645442009 15.90050411 1.447735667
5.14532423 15.01859665 2.00556469
5.423902035 15.41581917 2.629250526
4.726466656 14.22300053 3.057375193
4.153753281 13.24592876 3.432614088
2.927287102 11.22181416 3.489937305
3.881147385 12.70086861 4.343370914
5.794665337 16.09220314 0.828864336
5.700285912 15.87872791 1.445289493
5.549547195 15.56964111 2.040225029
5.451334476 15.34767532 2.622633934
4.778893471 14.20953369 3.057011843
4.246922493 13.30002117 3.445532799
3.056025982 11.34776402 3.522327423
3.86717701 12.59291458 4.318161964
5.862757206 16.09023476 0.8256658316
5.782951355 15.89594555 1.443643093
5.621693134 15.57211304 2.03967905
5.512811661 15.3402071 2.62240696
4.842067719 14.20788479 3.058506012
4.194290161 13.1259861 3.415182829
3.074818611 11.30156326 3.514712572
3.050639868 11.21765041 3.943856955
5.962076187 16.13220024 0.8214840293
13.23341846 27.72245026 1.711005807
5.861012936 15.84665871 2.056594849
5.349443913 14.90900803 3.163557053
5.852933407 15.64785957 3.89605546
3.16055274 11.35685825 3.530873775
3.85917902 12.40304947 4.275335312
13.33104801 27.67085838 1.706191301
7.902970791 18.89011955 2.998239756
5.343830109 14.79309368 3.148374796
4.96838522 14.15130043 3.615351677
3.070765018 11.13749599 3.483182669
3.863291979 12.32227802 4.257816792
10.58688259 23.22836876 0.6816465259
13.43670368 27.64212418 1.702091098
5.944578171 15.74940109 2.04902029
5.662164211 15.24439621 2.614227057
5.375827312 14.7423954 3.142727375
3.050247192 11.03206158 3.461788654
2.943009377 10.82296562 3.847310543
13.44633579 27.56458473 0.5946519971
13.57031536 27.65681458 1.698974133
5.515563965 14.91269493 2.579858065
5.428042412 14.72331429 3.141772509
4.528328896 13.27751255 3.455144644
3.144776106 11.10451031 3.481892824
2.964061975 10.78415012 3.840594769
13.57766342 27.57560158 0.5886731744
13.66345406 27.59727478 1.694024324
5.743906021 15.1639061 2.607071638
5.585482121 14.86052895 3.164058447
5.063973904 14.00858212 3.597236156
3.892475605 12.11890507 4.215563774
13.70956421 27.57631493 0.5825656652
13.77160835 27.56090736 1.689606786
5.57678175 14.79995155 2.569345236
5.740717888 14.99184608 3.18555212
4.33409071 12.79658318 3.369390249
3.912089109 12.06446075 4.205364704
13.83978081 27.56334686 0.5763997436
13.9015789 27.55759621 1.685929894
5.608942509 14.73865318 2.563656807
5.801782608 14.97817421 3.185647488
4.390759468 12.79269123 3.371593952
3.4098804 11.2743969 3.532171011
3.729916334 11.70877934 4.111260414
13.97399521 27.57594681 0.57032305
13.99852657 27.51330757 1.681542158
5.613960266 14.64724922 2.554726839
5.836217403 14.92950726 3.180482149
4.469569683 12.82604122 3.380814791
3.332613707 11.08562851 3.491312742
3.713368893 11.60776997 4.087721825
14.10187912 27.57793808 0.5644345284
14.07790947 27.43227005 1.676192164
5.699234486 14.67691517 2.558630943
5.814279556 14.79177189 3.162228823
4.553094864 12.86555672 3.391275406
3.424098492 11.14516926 3.508937597
3.324932575 10.95595932 3.910459042
14.21247005 27.54296875 0.5589668155
14.20800877 27.4275074 1.672514081
5.86616993 14.82192802 2.574825525
7.40156126 17.0377655 3.498217344
4.639059544 12.90325737 3.401607513
3.602259398 11.33077526 3.556343317
3.321402311 10.87635803 3.892843723
14.36309338 27.56736374 0.5522743464
14.33925247 27.4335556 1.669250965
5.930263042 14.81257915 2.574704647
5.991045952 14.8503828 3.175304174
4.645153999 12.82307148 3.38937211
3.652972698 11.32748127 3.559383869
4.02188921 11.82365704 4.162915707
14.49827194 27.57759666 0.5461537838
14.4630127 27.41768646 1.665344119
8.116163254 17.91625404 2.90473175
6.039578438 14.81762409 3.172732115
4.599462509 12.67277718 3.363503695
6.190356731 14.92732906 4.413372993
3.436733246 10.89968109 3.908601284
14.62037277 27.55760002 0.5403305292
14.59465599 27.42259598 1.662063718
8.13359642 17.8152771 2.895148993
5.905144215 14.52495384 3.131325006
4.666292667 12.68226051 3.368524551
3.454445124 10.89280415 3.46414113
14.74243641 27.54685402 0.5346103907
14.7288866 27.42045403 1.658458352
5.692558765 14.17196274 2.509365082
3.529336691 11.00798702 2.608718395
3.637881041 11.12639618 3.071638107
3.461542606 10.83318138 3.453630924
3.486508131 10.82787037 3.897828102
14.88309002 27.53255463 0.5280072689
14.8724947 27.42107773 1.654737473
5.739930153 14.13202381 2.506155729
3.573093176 10.99225807 2.608221769
3.683825254 11.10907078 3.071439266
3.508005857 10.82255459 3.455137014
3.510349274 10.78532124 3.890972853
15.02824783 27.55353546 0.5215643048
14.99452114 27.40941048 1.651119709
5.708023548 13.99405193 2.492402554
6.204974651 14.6508894 3.15730381
4.904305935 12.76035881 3.393514395
3.529408693 10.78373146 3.449598789
3.538472176 10.75622654 3.887450933
15.15538979 27.54763031 0.5156802535
15.12703896 27.40216064 1.647421718
5.727126122 13.92960167 2.486479759
6.253958702 14.61899948 3.155016184
3.777611732 11.09899426 3.075037241
3.595799208 10.80432224 3.458423615
3.472579241 10.59294128 3.846189499
15.31270027 27.57384872 0.5087466836
15.26319504 27.39920044 1.643817306
8.381817818 17.62097931 2.15967226
5.789819241 13.9219656 2.486673832
6.33752203 14.635355 3.159997225
3.814237595 11.0755558 3.073472977
3.679652691 10.84845734 3.472933531
3.5989182 10.69696522 3.88069582
15.44493389 27.56342697 0.502597332
15.39958286 27.40541267 1.640581012
8.234025955 17.22783279 2.840005636
5.237844944 13.01539898 2.919197321
3.856580496 11.05998898 3.073467731
3.695772886 10.79842377 3.46503377
3.615193844 10.65187454 3.872717619
15.5610466 27.53947639 0.4970549643
15.56533337 27.44181252 1.637780547
8.463005066 17.48956299 2.150453329
8.425841331 17.37969398 2.85746789
6.591622353 14.79062271 3.188405752
3.858725071 10.99283504 3.063309431
3.807347298 10.88273048 3.489093542
3.594842196 10.55373192 3.849897861
15.69354057 27.52791977 0.4908958673
15.73860168 27.48709297 1.635152221
8.303593636 17.09201431 2.828146696
7.991855145 16.60310364 3.463952541
4.444681168 11.717556 3.207587957
4.059867382 11.11232662 4.014461994
15.82618427 27.51576042 0.4847309291
15.90770435 27.5250206 1.63236773
8.53683567 17.29203224 2.850906849
8.045303345 16.56181526 3.460828304
4.456451416 11.65526772 3.198782921
4.144313812 11.1521244 4.031356335
15.9778614 27.52882004 0.4779571295
16.06910896 27.56066322 1.62970829
8.619936943 17.28556633 2.851665497
4.620310783 11.83994865 2.751149654
5.075895309 12.40898228 3.349479437
3.433175325 10.17147255 3.330464363
4.06464386 10.97607136 3.986251593
16.10387611 27.51558876 0.472096771
16.18341637 27.53120804 1.625757337
8.678857803 17.25206375 2.849493265
4.621994972 11.76718426 2.742272854
5.195744514 12.48999691 3.368822813
3.542950869 10.25399876 3.35418129
4.08852005 10.93906116 3.980926275
16.22763634 27.49860573 0.4663081169
16.33820343 27.54595566 1.622506499
8.552380562 16.97124863 2.820867777
5.687980175 13.10493088 2.946965456
5.205454826 12.42372227 3.359385014
3.473415852 10.0952549 3.319975615
4.065550327 10.83710384 3.957231283
16.39203835 27.52567673 0.459114939
16.48133469 27.54395103 1.618927956
8.503798485 16.79114342 2.803095341
8.074634552 16.16474724 3.413223743
4.475587368 11.37808895 3.157978773
3.514140606 10.07949066 3.320472002
4.237718105 10.99070454 4.007117271
13.24578762 23.14403343 0.5588135719
16.61022377 27.52211571 1.614969373
4.528860569 11.37258244 3.160379171
4.158388138 10.81610107 3.962505817
16.67379951 27.51360703 0.4462336302
16.75394058 27.52870178 1.611741781
7.899056911 15.77453232 2.697080851
5.285163403 12.32458591 2.836096048
4.945020676 11.84064007 3.255967617
4.070254803 10.67342377 3.472590208
4.102570534 10.67731476 3.927837849
16.82975197 27.53556061 0.4393936694
16.90620995 27.53583336 1.608348727
8.336565971 16.24030113 2.748581409
8.108064651 15.88770771 3.380868673
4.845353127 11.63825798 3.219570637
3.844479322 10.31447411 3.389816761
3.741025686 10.1462431 3.779675007
16.93952942 27.48660851 0.4339601099
17.06121445 27.54539108 1.605002522
8.288435936 16.06867218 2.731724977
8.060048103 15.71921444 3.358559132
4.976488113 11.72934341 3.241299391
3.842021465 10.2444725 3.377179623
3.53527689 9.819856644 3.690393209
17.08593941 27.48464584 0.4273336232
17.19076538 27.52103615 1.601017714
8.697426796 16.48290253 2.777953863
7.339939594 14.69711399 3.205935955
5.054523945 11.75136757 3.249464035
3.814928055 10.1088028 3.779853821
17.25964546 27.51667404 0.4198101163
17.3253212 27.50240135 1.597149014
8.374094009 15.96173 2.72348547
5.636939526 12.44684029 2.865144253
5.043105602 11.65999508 3.235195875
3.919157028 10.20931816 3.377527237
3.857903242 10.09748077 3.782168627
17.40170288 27.50692368 0.4133193195
17.47517586 27.51192474 1.593985558
8.481019974 15.98924446 2.7281425
5.555070877 12.26619339 2.840075016
5.069416523 11.61667919 3.230468512
3.928161144 10.15473938 3.368691444
3.970235109 10.17532349 3.81030798
17.56411934 27.53154373 0.4062472582
17.59887314 27.47790909 1.58984375
8.792215347 16.27668953 2.760832071
5.646801949 12.29995632 2.847974062
5.092428684 11.57324791 3.225543737
4.023361206 10.1755085 3.816154957
17.65183067 27.45157814 0.401546061
8.741973877 16.10523415 2.744092941
7.626189709 14.67368603 3.215123653
5.392177105 11.86757946 3.288225651
4.756615639 11.04951191 3.597622633
4.007120609 10.09364605 3.797703505
9.355699539 16.76008034 2.816700459
7.685486317 14.65410995 3.215342283
5.189704418 11.54603577 3.227871895
4.796365261 11.03018093 3.597737789
4.021382809 10.0496521 3.790351868
8.89400959 16.08775139 2.7456882
8.751245499 15.86358929 3.40491724
5.246208191 11.54355812 3.231225491
4.332411766 10.39981079 3.446935654
4.057815552 10.03271008 3.790981054
8.770877838 15.8359623 2.72017169
7.769947529 14.57286072 3.209401369
4.914746284 11.07175827 3.140480042
4.367553711 10.37879562 3.446413755
4.350145817 10.32282639 3.882321596
8.829242706 15.79589558 2.717813969
7.296871662 13.89754295 3.108907223
4.834197044 10.90010357 3.110149384
4.460524559 10.41688251 3.461341858
4.460165977 10.38139343 3.906522989
9.210300446 16.14813232 2.758049726
7.345901012 13.86479664 3.107247829
4.767311573 10.75026512 3.083933592
4.812595844 10.76821995 3.553769588
8.190585136 14.72744179 5.202242851
9.17492485 15.99873447 2.743806124
7.366989613 13.80336189 3.101000786
5.212431908 11.20788383 3.180242538
4.79351759 10.67673492 3.536292076
4.578706741 10.39201641 3.922154665
8.971437454 15.60463428 3.384309053
4.860910892 10.72621918 3.086835861
4.580821514 10.36278439 3.462964058
4.46444273 10.19254208 3.869228601
9.470968246 16.14054298 2.763304234
4.33855629 10.08066368 2.528573275
4.685426712 10.45273399 3.035476208
4.572719574 10.2873497 3.449312925
8.671099663 15.00672817 5.313193798
9.545973778 16.12657928 2.763813972
4.356241703 10.03699875 2.524322033
4.695032597 10.40049076 3.028661013
4.620444298 10.28031731 3.452536106
8.74060154 14.98860455 5.317685127
9.644511223 16.13415909 2.766825914
7.477176189 13.57749939 3.079814672
4.431200027 10.03048897 2.957411289
4.694373131 10.29981613 3.462746859
8.460718155 14.57080936 5.202336788
9.170648575 15.48224068 2.69762826
7.496462345 13.51110649 3.073062181
4.422872543 9.954176903 2.945964813
4.94781971 10.51978779 3.523830175
8.509519577 14.53130245 5.200295925
10.01027679 16.38837051 2.077072859
9.093932152 15.28762341 2.678557873
8.225753784 14.25368023 3.193127632
4.788943768 10.30657101 3.021901131
4.773579121 10.22572231 3.911973
8.88055706 14.95003128 2.643547297
8.235349655 14.17147732 3.184162378
4.796892166 10.18719292 3.907203913
16.00864983 23.10627174 0.4347718656
9.098770142 15.09793472 2.661994219
8.272595406 14.12551498 3.180708885
5.175300598 10.6119833 3.092697144
5.254749775 10.66648865 3.57772851
8.27052021 13.98874187 5.065559864
9.089917183 14.99399662 2.652670622
8.21914959 13.973876 3.160825491
5.257614613 10.63943863 3.102511644
5.159294605 10.49637604 3.54006052
7.615324974 13.17464828 4.828174591
9.1189394 14.9281044 2.647664785
8.329833984 14.00560665 3.169868469
5.337920666 10.66054058 3.111317635
4.665304184 9.886246681 3.390399933
6.234147549 11.5750885 4.350495338
9.167733192 14.88433838 2.645124197
8.134904861 13.70011234 3.125624895
4.801352024 9.972732544 3.418041229
7.634522915 13.02645588 4.801801205
9.24458313 14.87133312 2.646015167
8.051143646 13.52413464 3.10158205
7.206879139 12.56122303 3.513870716
4.83797121 9.952852249 3.418333292
4.858736515 9.94365406 3.867443323
5.73767519 10.92920971 2.693216801
6.014784336 11.19467354 3.235648632
4.861186981 9.918418884 3.414928436
4.840744495 9.865006447 3.850112677
9.581687927 15.05215645 2.670625448
5.836041927 10.96571636 2.702300549
7.207033634 12.40844727 3.492715836
5.805956841 10.86374474 2.689365864
5.933064461 10.9689703 3.198347807
5.030138493 9.973958969 3.440862417
7.289260864 12.33737183 4.626949787
5.77219677 10.7622509 2.67632103
5.856809139 10.81850147 3.171893358
5.226533413 10.11878204 3.48426652
7.265208721 12.2371397 4.60486412
5.863852024 10.79077435 2.684246302
4.84250164 9.685217857 2.939337492
5.208161354 10.03904819 3.469404221
