# .PCD v0.7 - Point Cloud Data file format
VERSION 0.7
FIELDS x y z
SIZE 4 4 4
TYPE F F F
COUNT 1 1 1
WIDTH 1275
HEIGHT 1
VIEWPOINT 0 0 0 1 0 0 0
POINTS 1275
DATA ascii
-18.18079948 -14.51977921 0.8680236936
-39.35279846 -37.14914703 6.01322794
-14.86323357 -11.18723202 3.245176077
-15.85575962 -12.2690897 4.07883358
-16.91923332 -13.43135548 5.046784401
-14.39974689 -10.76861 4.893785954
-15.06915665 -11.51117802 5.76224041
-14.88345814 -11.33819294 6.326248646
-13.99667358 -10.02743244 0.4076727331
-18.21922684 -14.45267963 0.8710409999
-40.39268494 -37.9042244 4.259518623
-39.49235916 -37.04375839 6.021625519
-13.11352634 -9.254508018 2.910003662
-16.04392815 -12.37596989 4.115418434
-16.94380379 -13.36185932 5.042537689
-14.12709713 -10.39675999 4.787187576
-15.14588451 -11.50990963 5.778684616
-14.93311691 -11.30922508 6.332528591
-14.02722931 -9.98700428 0.4099074304
-18.33385849 -14.47010422 0.8726904988
-40.57071304 -37.83319855 4.27041769
-44.22729111 -41.75059509 6.657065868
-13.32089806 -9.404639244 2.944380999
-14.309021 -10.46368408 3.691252232
-15.15143681 -11.37805939 4.50706625
-14.11097908 -10.30431938 4.77061224
-17.74949455 -14.18280125 6.807143211
-14.95653152 -11.25227737 6.32685709
-14.07903957 -9.964694023 0.4109603763
-18.36084747 -14.39110851 0.8758580685
-39.56567383 -36.53357697 4.180273533
-15.8650732 -11.98796082 3.416363716
-19.45058823 -15.7575407 4.913451195
-15.1224165 -11.26158714 4.488350391
-16.50265884 -12.73330975 5.583937645
-17.85787773 -14.19061279 6.83215189
-14.71634293 -10.91367054 6.200565338
-14.10332584 -9.910360336 0.4140088856
-18.37752342 -14.29665756 0.8793289065
-39.56344223 -36.2574234 4.175496101
-39.1364212 -35.88736343 5.94009161
-15.93838596 -11.96923828 3.423694849
-19.61560631 -15.80621338 4.941420078
-15.16145229 -11.21263504 4.489070892
-15.28718948 -11.3972702 5.790156364
-15.08278942 -11.20940495 6.349279404
-14.12033844 -9.848882675 0.4174944758
-18.47797203 -14.28771877 0.8815439343
-42.94498062 -39.18627167 2.486481667
-42.93794632 -39.51347733 6.44394207
-16.0725975 -12.01268864 3.442367792
-14.40043068 -10.31689262 3.690613747
-15.2330513 -11.19732857 4.499270916
-15.33754253 -11.35863972 5.794607639
-14.16382408 -9.814331055 0.4192534387
-18.5165329 -14.2158289 0.8846533895
-42.97180176 -38.92066193 2.489837885
-39.15925598 -35.30564499 4.132096291
-39.10283661 -35.46734238 9.536604881
-19.40674019 -15.37995815 5.69423914
-15.41734695 -11.35021496 5.810742855
-14.19595432 -9.779539108 0.4210759699
-18.558218 -14.16302776 0.8871785402
-43.09072876 -38.77676773 2.496188641
-14.09028816 -9.825328827 3.062941551
-15.94368649 -11.7264204 4.04094553
-15.28144169 -11.07758904 4.493323326
-14.95067024 -10.79189205 5.612925529
-14.30545521 -9.814076424 0.4184294343
-18.62196922 -14.12177658 0.8897258043
-43.15792465 -38.56776428 2.500812292
-40.30169296 -35.95985031 4.220844746
-14.09546661 -9.755629539 3.058923244
-19.90838242 -15.63286495 4.967290401
-15.30384636 -11.0163002 4.48993063
-14.97651672 -10.73593521 5.609177113
-14.35126591 -9.78489399 0.4198170006
-18.68276596 -14.07745266 0.8923050165
-43.25712967 -38.40504456 2.50643754
-40.29408264 -35.69561005 4.215957165
-38.4708252 -33.95870209 5.798094749
-15.89619541 -11.50286388 4.013678074
-19.48344421 -15.12831688 5.677725792
-15.03065395 -10.70866489 5.616590977
-14.54158688 -10.2429409 6.02520752
-14.37557507 -9.734567642 0.4225344956
-18.75512695 -14.04953003 0.8945501447
-43.57938004 -38.44805145 2.52006197
-43.21845245 -38.34278107 4.459300518
-43.56591034 -38.75893021 6.471118927
-15.90578461 -11.4025507 3.382140398
-16.05057526 -11.57387066 4.042367458
-15.3151989 -10.86535835 4.474263668
-15.18631649 -10.78682709 5.664360046
-14.57502937 -10.19803047 6.024812222
-14.45084286 -9.737607956 0.4218604267
-18.76987457 -13.96004486 0.8977242708
-43.30659103 -38.15591431 4.462249279
-41.42362595 -36.37659454 6.173186302
-46.376091 -41.33707047 8.96882534
-16.06171608 -11.49760723 4.037055016
-15.41054249 -10.87719917 4.491856575
-15.21336746 -10.73155308 5.661132812
-14.64752865 -10.19204903 6.041795731
-14.47345924 -9.685640335 0.4246510565
-18.81869507 -13.90399075 0.9004244804
-41.02311707 -35.65910339 4.265170574
-39.1854744 -33.93191528 5.863770485
-16.74475288 -12.05622101 3.524765015
-16.07107735 -11.42003632 4.031393528
-15.49492073 -10.87753296 4.50628233
-14.96811485 -10.38585091 4.949136734
-15.20997047 -10.64646244 5.646166801
-14.51932621 -9.652462006 0.4261997044
-18.92646027 -13.90456772 0.9023539424
-41.29670334 -35.6690712 4.284050465
-43.07794952 -37.46176147 6.372399807
-16.10266685 -11.36457539 4.030972004
-15.44331932 -10.7446785 4.482163906
-15.03386307 -10.37089539 4.960006714
-15.25985146 -10.61413383 5.651970387
-14.5372076 -9.596221924 0.4292319417
-19.01093483 -13.87702942 0.9047526717
-41.32608795 -35.44243622 4.282364368
-39.12487411 -33.38915634 5.835993767
-36.98181152 -31.38494301 7.199142933
-15.45289135 -10.67234039 4.475501537
-15.06252766 -10.31563377 4.957935333
-14.54066181 -9.522982597 0.4333079457
-18.00470543 -12.82232666 0.9204853177
-42.74948502 -36.60102463 6.306637764
-37.97507477 -32.11028671 7.36499691
-20.50643921 -15.41357899 5.03393364
-20.0647049 -15.05492496 6.611209393
-14.58128643 -9.488665581 0.434908241
-17.93528557 -12.65692139 0.9245137572
-44.39961243 -37.83585358 4.531852722
-42.89735413 -36.47941589 6.315640926
-37.09105682 -31.02770615 7.189079762
-15.98105621 -10.98871136 3.979643822
-15.4814806 -10.53387833 4.464609623
-14.67154503 -9.780948639 4.805828094
-14.60133266 -9.435132027 0.4377235174
-18.32176018 -12.92302036 0.9228804708
-44.45388794 -37.60316849 4.531810284
-40.61661148 -34.0572319 6.003312588
-17.51805878 -12.35456753 4.325537205
-20.32408333 -15.03687572 5.811069489
-14.66643906 -9.701059341 4.793741703
-14.64901161 -9.407361031 0.4388720095
-18.50629997 -12.99769592 0.9237449765
-44.5645256 -37.43774414 4.536734104
-40.48530197 -33.69008636 5.976203442
-37.91772079 -31.35721588 7.309583187
-16.21531868 -11.03850746 4.018317699
-39.27490616 -32.7504921 11.09076405
-14.66941166 -9.629340172 4.784434319
-14.64658642 -9.333439827 0.4429662526
-18.74601364 -13.12133789 0.9240155816
-44.7067337 -37.30185699 4.544312954
-40.24100876 -33.22135162 5.934393883
-38.1258316 -31.32500648 7.332587719
-16.26843071 -11.00431538 4.023092747
-20.38905334 -14.87458515 5.803988934
-14.66633797 -9.55242157 4.773238182
-14.66740608 -9.281196594 0.4456554353
-18.50239182 -12.80111027 0.9298322797
-57.92539597 -49.20404434 5.643553734
-44.57450485 -36.97896576 6.493966579
-38.06619644 -31.04411316 7.307481289
-38.71922684 -31.70534325 9.142530441
-20.48135185 -14.84936523 5.817183018
-14.69135952 -9.502133369 4.771367073
-14.71791553 -9.25246048 0.4467833936
-18.44634438 -12.6547308 0.9334288836
-44.62999725 -36.76463318 6.490715027
-38.12188721 -30.87130356 7.303231716
-38.18651962 -31.04386902 10.71012592
-14.77699757 -9.234801292 0.4472142756
-18.30856705 -12.4313755 0.9380117059
-58.56905746 -49.09003448 5.685998917
-40.51971436 -33.01415634 13.17700672
-14.84653282 -9.226161003 0.4470441937
-18.39221191 -12.41304207 0.9399831295
-58.89997482 -49.02087784 5.707677841
-14.84107208 -9.394236565 4.225417614
-40.50550079 -32.7622261 13.13999367
-14.87576294 -9.181384087 0.4491866827
-18.56714439 -12.47526741 0.9409931898
-43.35319138 -34.82073212 6.292834282
-37.69481659 -29.91985321 10.49935627
-40.89982224 -32.88093567 13.23588848
-14.90632248 -9.137838364 0.4512338638
-18.60915756 -12.41874695 0.9434161186
-43.98119736 -35.06811523 4.458796978
-43.49213409 -34.70614624 6.301578045
-38.50209045 -30.31651497 7.314450741
-14.94724846 -9.103406906 0.452676028
-18.68928337 -12.40029335 0.9452956915
-37.49388504 -29.26629066 8.74948597
-38.12340927 -29.87845612 10.57011127
-40.18522263 -31.78070259 12.9429493
-14.97749996 -9.05965519 0.4547051489
-18.73253059 -12.34467697 0.9476864934
-47.1562233 -37.42392349 6.756945133
-45.40651321 -35.96291733 8.508454323
-37.32959366 -28.90886307 8.694387436
-38.0220108 -29.57162094 10.51867008
-14.99396992 -9.004062653 0.4574867189
-18.80360031 -12.30848026 0.9499296546
-44.2915802 -34.65710831 6.375982761
-41.32381821 -32.12542725 7.771448135
-37.39628983 -28.7568264 8.691370964
-38.02497864 -29.35889244 10.49600887
-40.09960175 -31.23342323 12.85255432
-15.03771687 -8.96856308 0.4589072466
-18.71287537 -12.13796043 0.9535861611
-44.8032074 -34.90896606 8.369452477
-37.66550827 -28.77070045 8.732822418
-38.88361359 -29.88113976 10.70468712
-40.15584183 -31.0548439 12.84042168
-15.07964897 -8.93488121 0.4602340162
-18.6660347 -12.00188923 0.9569012523
-44.73195267 -34.52349854 6.413005829
-41.23141098 -31.56977272 7.725903511
-37.80168533 -28.67828369 8.745407104
-41.99188232 -32.34796906 11.52276897
-15.13046932 -8.912064552 0.4608803391
-17.84040833 -11.22222328 0.9669889808
-61.47766113 -48.49534607 5.877337456
-40.06144714 -30.30019188 5.803105831
-45.01264954 -34.59634781 8.375992775
-39.20560455 -29.68176842 9.0408535
-39.33908844 -29.84808159 10.78199196
-40.34891891 -30.7802372 12.84393406
-15.15539455 -8.863898277 0.4631175399
-18.97245026 -12.08240128 0.9593518376
-40.83821106 -30.73784828 5.894427776
-39.45028305 -29.67313957 9.076935768
-40.56532669 -30.72859192 12.88178825
-15.17091179 -8.808003426 0.4658445418
-17.85596657 -11.06062031 0.9720031023
-41.06805801 -30.6961174 5.914946079
-40.68920898 -30.49119186 9.332123756
-40.72592545 -30.63965988 12.90337658
-15.14148998 -8.715227127 0.4709716141
-17.96691132 -11.06790257 0.9735091925
-40.46280289 -29.9173069 4.135309219
-49.6434288 -37.63331223 7.00359726
-38.94000626 -28.75359344 7.272118092
-38.8911972 -28.76125908 8.91642952
-39.34920502 -29.19511795 10.71401596
-41.05595398 -30.69262123 12.97859001
-15.17801476 -8.677248955 0.4725022018
-40.08108521 -29.38296127 4.100645542
-49.90011978 -37.57273102 7.026059151
-43.37824631 -32.23016739 8.030776978
-38.85199738 -28.51764107 8.890273094
-38.95741653 -28.65418816 10.58647156
-15.15553284 -8.59118557 0.4771718383
-19.20616531 -11.90979481 0.9680062532
-40.191082 -29.25849152 4.106369495
-40.22101593 -29.33102036 5.781744957
-39.31269836 -28.64093018 7.311480522
-38.94831467 -28.38773346 8.894128799
-39.0814743 -28.54606628 10.59733105
-15.14346695 -8.514194489 0.481238693
-19.39836693 -11.97456741 0.9690474272
-40.54649734 -29.33431816 4.132190704
-39.6905899 -28.78773308 9.039770126
-39.12347031 -28.37029076 10.5864048
-15.18399143 -8.47992897 0.4824845195
-18.28975296 -10.99174023 0.9806236029
-40.77110672 -29.30117989 4.147282124
-39.52899551 -28.49176025 10.67222309
-42.20062256 -30.7349205 13.22230625
-15.14940739 -8.385714531 0.4876663685
-19.32672501 -11.73497391 0.9748426676
-41.11879349 -29.36567879 4.17241478
-40.33691406 -28.78283882 5.772500038
-50.28661728 -36.87303162 9.165978432
-39.24065399 -28.00102425 8.90687561
-39.53696442 -28.28771782 10.65238476
-15.16915417 -8.335258484 0.4899540246
-19.2656517 -11.59653091 0.9778775573
-40.39359283 -28.61605453 5.771820068
-41.51857376 -29.57458878 7.641396046
-39.48119736 -27.98708534 8.94246006
-45.10961151 -32.55949402 12.10443401
-15.13214684 -8.237065315 0.4953331947
-19.33268356 -11.56008053 0.9798942208
-41.54629898 -29.27392197 4.200754166
-44.62310028 -31.76433754 6.298713684
-39.54938126 -27.83418083 8.940499306
-43.64069748 -31.21014023 13.58446789
-15.14972878 -8.185529709 0.4976701438
-19.56573486 -11.64858723 0.9807988405
-47.31220245 -33.65084076 6.629497528
-41.53641891 -29.142313 7.618234634
-39.51954269 -27.60407448 8.917363167
-43.69724274 -31.01213455 13.57150555
-15.16076851 -8.125833511 0.5004805326
-19.59356499 -11.58027935 0.9831148386
-66.46631622 -48.00289536 3.425587654
-41.79088211 -29.02343369 4.214022636
-40.31362152 -27.91278267 5.738201141
-41.68466568 -29.04253387 7.630980492
-39.51209259 -27.38278389 8.898444176
-43.71070862 -30.79243851 13.546875
-15.14936161 -8.052379608 0.5042498708
-19.34750366 -11.29688644 0.9874818325
-40.351017 -27.73456764 5.735349178
-40.32212448 -27.75577164 7.385246754
-40.4874649 -27.93932915 9.092906952
-44.13579941 -30.88439751 13.64819813
-15.17412567 -8.006995201 0.5061405301
-19.38356018 -11.23674011 0.9896620512
-52.9564743 -37.23866272 7.31038332
-40.51755142 -27.69995499 7.406571865
-40.39641953 -27.65011978 9.055853844
-47.55618668 -33.24346161 12.61990452
-44.95869827 -31.29314423 13.87319469
-15.12703705 -7.907240868 0.5116486549
-19.50383377 -11.24056244 0.9912549853
-42.08472061 -28.59590912 4.228145123
-44.60650253 -30.57063293 6.253578663
-40.61865997 -27.5707531 7.411849022
-40.45202637 -27.48618126 9.051435471
-44.93848038 -31.04393005 13.83815098
-15.18800163 -7.889597416 0.5116609335
-19.72338295 -11.31828213 0.9921995997
-42.63567352 -28.80088997 4.269618034
-41.03376389 -27.62750816 5.798173904
-40.38937759 -27.23254967 9.02173233
-41.10693741 -27.8239212 10.89100075
-44.95713043 -30.82600975 13.81534672
-15.22976303 -7.857294083 0.5126346946
-20.14228058 -11.54311943 0.9918889403
-49.43521118 -33.7599144 6.840721607
-43.54687119 -29.37298012 7.884365559
-40.6382103 -27.21649742 9.058990479
-44.79006577 -30.40763092 11.82689667
-15.24415112 -7.804571629 0.5149629116
-20.42481995 -11.66268635 0.992541194
-42.76830673 -28.47117043 4.274032593
-40.76984406 -27.0274601 5.75083971
-42.41576385 -28.30398941 7.680571079
-40.71244431 -27.06758499 9.058849335
-15.20840836 -7.715150833 0.5197511315
-20.69975281 -11.77866554 0.993173182
-42.86538696 -28.34039497 4.278904438
-40.70412827 -26.77536392 5.735422611
-43.83340836 -29.14727211 7.907795429
-45.01681519 -30.08631516 9.962598801
-46.25705719 -31.06022453 12.16220856
-15.22234058 -7.665829659 0.5218935013
-19.65923691 -10.92497444 1.001963019
-48.70486069 -32.43331528 4.746897221
-40.85646057 -26.6859951 5.747220516
-42.67089462 -28.07875633 7.700154305
-41.96945953 -27.60198784 9.295794487
-15.24402905 -7.619165421 0.5237816572
-19.6728363 -10.84863281 1.004184604
-44.64654922 -29.21933556 4.416275024
-41.23812103 -26.76416016 5.78751421
-42.03692627 -27.44277573 9.294011116
-15.23147392 -7.547934532 0.5273216963
-19.301651 -10.49507713 1.008611441
-44.70288467 -29.0398922 4.417619228
-44.92908096 -29.24735641 6.238157272
-15.19255733 -7.458294392 0.5321063399
-19.26971245 -10.38873577 1.010995865
-42.85335922 -27.48626137 4.265670776
-49.02170563 -31.98227882 6.73722744
-44.4875412 -28.80357552 9.781208038
-15.26054478 -7.442161083 0.5318186283
-20.9577179 -11.50073719 1.00399816
-43.01538849 -27.39362335 4.275691032
-46.3706665 -29.8394413 6.400994778
-42.98448181 -27.46231842 7.705650806
-45.71105957 -29.46463013 10.02316189
-15.25993824 -7.377326012 0.5348302722
-20.77085114 -11.27316856 1.007500291
-33.10665131 -20.13485146 3.477015972
-44.21942139 -28.07081413 6.127148151
-15.21826077 -7.287185669 0.5396333337
-20.77383995 -11.18540764 1.009815693
-42.96702957 -26.92298889 4.265566349
-44.25518799 -27.88183594 6.124159813
-48.29511642 -30.88228989 12.5234127
-15.18289852 -7.205160618 0.5439499617
-20.96651459 -11.23428059 1.011026263
-43.0033989 -26.75265503 4.265694618
-44.05542374 -27.53902245 6.092597485
-45.18372345 -28.41251945 9.860910416
-48.41305161 -30.74071503 12.53190994
-15.35262299 -7.261975288 0.5386480689
-16.2652874 -7.905763626 1.036577225
-45.01207352 -27.95379066 4.423757553
-45.16860962 -28.10246086 6.222201347
-48.04182816 -30.24515152 12.41510487
-15.40738678 -7.238772392 0.5388146043
-45.10250854 -27.84070778 6.206721783
-46.63609314 -28.99422264 10.1333704
-48.69075394 -30.46260452 12.55752754
-15.45882702 -7.213037014 0.5391341448
-16.29313278 -7.790759563 1.039851427
-45.5390358 -27.91446686 6.252575397
-45.69291687 -28.11069107 9.918829918
-15.31959343 -7.058675766 0.5483481884
-16.31837082 -7.742774487 1.041373849
-33.65739441 -19.58801651 3.507951736
-44.75084686 -27.16239929 6.148815632
-46.92860794 -28.69528389 8.278409004
-45.76946259 -27.94508743 9.918746948
-49.0659523 -30.23819542 12.60698891
-15.29075146 -6.979793072 0.5523436666
-16.33013344 -7.685820103 1.042945027
-33.60960007 -19.27584076 2.231451511
-33.12966919 -19.07844925 3.463702917
-45.71591949 -27.60313988 6.259677887
-46.20759964 -27.98505974 8.147543907
-45.79643631 -27.7461338 9.908433914
-15.3064785 -6.931023598 0.5542394519
-16.35497665 -7.637746811 1.044445157
-33.68307495 -19.17278099 2.235051632
-32.77789688 -18.69268608 3.433570623
-33.81266022 -19.4121666 4.799686909
-46.57794189 -28.01577377 8.196977615
-46.07606506 -27.71778488 9.950778961
-15.26190948 -6.842684746 0.5588885546
-16.36127663 -7.577489853 1.046012163
-44.38716125 -26.08601952 2.638705492
-32.94079208 -18.65299606 3.444490433
-33.32164001 -18.9321537 4.734726906
-33.68690109 -19.20947075 6.065105915
-15.54313183 -6.967893124 0.5485746861
-16.37735367 -7.523868084 1.047523618
-44.57129288 -26.00218964 2.646745443
-32.91547775 -18.4883194 3.440429926
-33.17142487 -18.68271065 4.711458683
-15.71636677 -7.020567417 0.543276906
-16.39153481 -7.46914959 1.049029589
-32.88270187 -18.3196888 3.435796261
-33.16630554 -18.53051376 4.705922604
-46.89476395 -27.57052422 8.214544296
-15.46321106 -6.797458649 0.5573663116
-16.40045166 -7.411177158 1.050542474
-44.47061157 -25.5293541 2.645122766
-33.30063248 -18.46966743 4.717359543
-46.9274025 -27.37449265 8.208562851
-15.49838161 -6.761197567 0.5583047867
-16.41922569 -7.359714985 1.052004099
-33.67364502 -18.53713036 3.49456358
-34.27426147 -18.94953156 4.830541134
-15.57732964 -6.752607822 0.5572638512
-16.42598152 -7.300715446 1.053496957
-33.72106934 -18.41847801 3.496294498
-33.90592957 -18.56147003 4.780992031
-16.44066811 -7.243783951 1.055021882
-44.86990738 -25.17750359 2.663351774
-46.05458069 -26.12760925 6.244935989
-16.45850372 -7.188971996 1.056521773
-75.69100189 -44.23670578 3.829948664
-46.08010101 -25.89087868 4.470472336
-45.97651291 -25.85930443 6.228446007
-16.46961594 -7.133232594 1.057956934
-46.22439575 -25.79648018 6.25135088
-15.68711853 -6.580731392 0.5624980927
-16.49412537 -7.08589983 1.059336543
-46.77720261 -25.93156433 6.311291218
-46.86034393 -25.7733326 6.314640522
-15.6465826 -6.439991951 0.5690732598
-22.95614433 -10.87127495 1.043412924
-75.11689758 -42.8103981 9.701950073
-15.61723232 -6.364827633 0.5727066398
-23.69496155 -11.2223444 1.043457866
-75.43910217 -42.6619339 9.729799271
-15.80736923 -6.420745373 0.5667946935
-23.62882805 -11.08743286 1.045805693
-77.62947845 -43.29921722 3.913816214
-15.75832748 -6.331082821 0.5713632107
-23.91710091 -11.15811729 1.047307014
-76.60334015 -42.65253448 9.847167969
-15.53505039 -6.143057346 0.5832520127
-23.7622776 -10.97164249 1.049834728
-15.76002121 -6.217569828 0.5758707523
-23.11532974 -10.50096893 1.053473592
-15.90598297 -6.244717598 0.5719115734
-23.99873734 -10.9190464 1.053483844
-15.8197298 -6.138097286 0.5778234005
-19.54330635 -8.275808334 1.065223813
-15.84417915 -6.095215797 0.5790085793
-24.93822098 -11.26242924 1.055682421
-15.86847496 -6.05225563 0.5801849365
-25.03102875 -11.21608639 1.05762887
-15.90658951 -6.016990662 0.580768168
-24.50553894 -10.82420349 1.060724974
-15.97609138 -5.998953819 0.5800331831
-24.70550537 -10.83907223 1.062409759
-15.94396973 -5.92478466 0.5835162401
-24.81115723 -10.80071068 1.064267993
-15.86349964 -5.822021484 0.58906883
-25.00461769 -10.80958748 1.065983772
-15.90795803 -5.790369511 0.5893229842
-25.02620316 -10.71942616 1.0680691
-16.05809402 -5.815045834 0.585237205
-25.04012108 -10.63017464 1.070044875
-24.75139999 -10.38526058 1.0722965
-15.83568382 -5.586159706 0.5983998179
-25.40997505 -10.63728523 1.073423028
-15.91137314 -5.57094717 0.5973238945
-25.7215538 -10.69768429 1.07513392
-15.90898895 -5.51489687 0.5994001031
-25.95722008 -10.72129822 1.076856375
-15.9757328 -5.494496346 0.5986759067
-27.30691338 -11.31998253 1.077443361
-16.25629997 -5.582377911 0.5893911123
-27.15328789 -11.13715363 1.079633832
-16.03426552 -5.414774895 0.6002126932
-25.65070152 -10.2706337 1.082913995
-16.21643829 -5.448424339 0.594984889
-25.23332977 -9.965307236 1.085069537
-17.04639053 -5.80398941 0.5640668273
-26.57584381 -10.53113079 1.086166382
-16.75497246 -5.59960556 0.5776699185
-26.65683556 -10.47090816 1.088024139
-16.98606682 -5.654823303 0.5705496669
-26.93029213 -10.49896908 1.089882851
-17.47223091 -5.834121704 0.553396821
-26.77696609 -10.32921028 1.09172523
-26.77432251 -10.23309994 1.093481541
-26.9611702 -10.22217464 1.09526968
-17.63298225 -5.733743191 0.5530461073
-26.97626114 -10.12928104 1.097085834
-17.96772766 -5.829549313 0.5421052575
-26.71357918 -9.907263756 1.098895073
-17.8041172 -5.693013191 0.5503823757
-27.21237564 -10.03911018 1.100663185
-17.70449257 -5.58429575 0.5562374592
-27.12672806 -9.894918442 1.102511764
-16.48598099 -4.970827579 0.604714036
-27.07679749 -9.767968178 1.104329705
-46.45935822 -18.5638237 2.754722357
-18.64793777 -5.88485384 0.5242663026
-27.331007 -9.783094406 1.106108308
-46.37744141 -18.34653282 2.75210619
-18.60454369 -5.805574894 0.5277968645
-25.93149376 -9.066656113 1.107279181
-46.09579849 -18.05060768 2.741751909
-18.62299728 -5.754019737 0.5289602876
-27.45797157 -9.650037766 1.109388471
-46.09394455 -17.8718853 2.742193222
-16.89070702 -4.936309338 0.5960863233
-25.96937943 -8.90117836 1.110378265
-45.84771729 -17.58706665 2.733198404
-46.37973404 -17.95067215 4.393391132
-43.15428543 -16.22479439 1.121192575
-46.00181198 -17.47790337 2.739630222
-46.35375977 -17.76065826 4.389397144
-28.03765488 -9.590273857 1.114869356
-46.53736115 -17.52249336 2.760797977
-46.77540588 -17.75545502 4.419660091
-17.7069149 -5.1076684 0.5709618926
-47.12850571 -17.57234573 1.129371405
-46.7682991 -17.43394661 2.770207167
-46.57003403 -17.47960472 4.40183115
-29.95654106 -10.18772793 1.119653106
-46.20900726 -17.02130318 2.749074221
-46.74228287 -17.37458992 4.413069248
-18.3872757 -5.273623466 0.5492300987
-27.48646927 -9.054389954 1.119387269
-46.08297348 -16.7937851 2.744651556
-46.65248871 -17.15008163 4.404145241
-18.21084785 -5.140564442 0.5575048327
-49.57967758 -18.04448318 1.140070319
-46.36066437 -16.73393059 2.75581193
-46.75444794 -17.02406693 4.410112858
-18.74101067 -5.296380997 0.5397418737
-49.63430786 -17.87925148 1.14305675
-46.64031219 -16.67308617 2.767042637
-47.09539413 -16.98692131 4.434268475
-95.23908997 -36.76741028 11.60630894
-18.71243858 -5.223193645 0.5425539613
-49.45784378 -17.61163902 1.145923495
-47.38345337 -16.79743004 2.796182394
-47.23700333 -16.86650276 4.443172455
-18.82280922 -5.205759048 0.5402620435
-47.29639435 -16.58475304 2.793228388
-13.82896423 -3.259591818 2.675699711
-18.62643242 -5.066616535 0.5491435528
-40.38206482 -13.66542149 1.14127934
-47.35709381 -16.43166542 2.795975685
-18.05217171 -4.784588814 0.5715978742
-45.87926865 -15.66584682 1.149986148
-47.63201904 -16.37128067 2.806979656
-13.82756805 -3.177067041 2.672482729
-18.17815781 -4.775022507 0.568639338
-47.5521965 -16.16288185 2.80427289
-13.85095787 -3.144347191 2.674524546
-18.04012299 -4.660692692 0.575294733
-13.85463142 -3.101834297 2.673503876
-71.59554291 -24.90301895 3.735630989
-13.86113834 -3.062588453 2.673004389
-72.11553192 -24.82641983 3.756296396
-13.85638905 -3.019136429 2.670811415
-27.41530991 -7.966382027 1.135179996
-72.05490875 -24.53097916 3.754471779
-13.85517025 -2.977160215 2.669170856
-19.33710289 -4.902293682 0.5352274776
-27.31838608 -7.836133957 1.136352658
-72.25572205 -24.33274269 3.762753963
-13.85935974 -2.93729949 2.668365002
-13.78803921 -2.913196802 3.050514698
-18.89304352 -4.678935051 0.5526259542
-72.27566528 -24.06787682 3.764016151
-13.94665813 -2.921500444 1.894099593
-13.8714962 -2.898365259 2.668704748
-13.81793594 -2.883037329 3.054254293
-19.28683281 -4.759593487 0.5402037501
-72.87772369 -24.01256752 3.787813902
-13.94932747 -2.879014492 1.893860817
-13.89688206 -2.864193439 2.279034138
-13.86980057 -2.856491566 2.667037964
-13.83729172 -2.846869469 3.055915594
-73.15250397 -23.83700371 3.798921585
-13.94300938 -2.837530136 1.892984867
-13.89872074 -2.823679686 2.278337955
-13.87352943 -2.816690683 2.666206598
-13.83298683 -2.806275368 3.053308249
-18.88355064 -4.497535229 0.5574466586
-73.1440506 -23.56044197 3.799039602
-13.95034122 -2.798962831 1.89312768
-13.91540241 -2.788511992 2.279331446
-13.87273693 -2.777400732 2.66477561
-13.83102417 -2.764590979 3.051071167
-18.63787842 -4.352259159 0.5675657988
-39.92568588 -11.7445507 1.165207386
-13.95753288 -2.760384321 1.893262744
-13.91694927 -2.748018265 2.278619289
-13.87243366 -2.736335039 2.663364649
-13.83261204 -2.724274635 3.049526215
-14.07054329 -2.722603798 0.3381743133
-14.0565691 -2.719574213 0.7297507524
-14.00445271 -2.705460548 1.119333744
-13.9817667 -2.699382782 1.506344914
-13.95704269 -2.719191074 1.892818093
-13.90894413 -2.704305649 2.276836157
-13.89442158 -2.703098774 2.665325642
-13.83218575 -2.683348656 3.047622204
-19.30539894 -4.45788002 0.5471345186
-13.95451069 -2.649254799 1.50534761
-13.92996788 -2.669009447 1.890362382
-13.87818432 -2.652965069 2.272492886
-13.86634922 -2.650602818 2.659698009
-13.82228947 -2.639271736 3.043955803
-19.30025101 -4.391869545 0.5488401055
-31.67529106 -8.550287247 2.192587376
-13.96186638 -2.637047052 1.89235878
-13.84079456 -2.602974415 3.045568943
-19.71519279 -4.468179226 0.5358346701
-31.64166451 -8.42982769 2.191429377
-13.96089935 -2.595981359 1.891888022
-13.90464115 -2.580223083 2.66276288
-13.86043644 -2.569037676 3.047499657
-19.0555706 -4.189821243 0.5601735711
-13.96605587 -2.555015326 1.891864419
-13.94056416 -2.548029184 2.276898384
-13.89792919 -2.537422419 2.660463095
-13.85439968 -2.524513006 3.04453516
-13.97804546 -2.51836133 1.892380238
-13.93552017 -2.505841494 2.275496483
-13.90986919 -2.500856638 2.66097641
-13.86068249 -2.486198902 3.043992996
-19.41815948 -4.186121941 0.5503701568
-32.28946304 -8.305421829 2.216966867
-13.98231125 -2.479228258 1.892314553
-13.93031025 -2.463725328 2.27408576
-13.91602993 -2.46242404 2.660635471
-13.87619781 -2.450897932 3.045199394
-19.31378365 -4.092202663 0.55532372
-32.01455688 -8.107872009 2.206421852
-13.98453236 -2.439489603 1.892097354
-13.94388103 -2.427731037 2.27479744
-13.90884113 -2.419789553 2.658309937
-13.88596344 -2.41373992 3.04534483
-19.46083832 -4.077643871 0.551600039
-32.12340164 -8.029569626 1.163534999
-31.89161301 -7.96557045 2.201759338
-13.98089695 -2.397982121 1.891440868
-13.91470623 -2.381401062 2.657952785
-13.8862114 -2.373590231 3.043725729
-19.55067635 -4.044451714 0.5498417616
-32.13943481 -7.930605412 1.164749265
-32.12480164 -7.928785324 2.210916758
-13.99558067 -2.364297867 1.892189384
-31.57403183 -7.834280968 4.253745556
-13.92042923 -2.343018055 2.657587528
-13.88197994 -2.334142447 3.041371584
-19.60031509 -3.998475075 0.5494520664
-32.34469223 -7.886399746 2.219552994
-31.29070282 -7.639387608 4.219814777
-13.92734528 -2.307048559 2.657473803
-19.79340553 -3.995360613 0.5441560745
-32.41342926 -7.797119617 2.222317219
-31.10094452 -7.472984314 3.181304693
-31.43260956 -7.575946331 4.233656406
-13.93524837 -2.267393589 2.657399893
-19.55056 -3.858537912 0.5537704825
-32.07720947 -7.581830025 2.209358931
-31.07027626 -7.353200436 3.177972317
-31.49396515 -7.482163429 4.23836565
-13.92348576 -2.223888159 2.654465914
-20.02554703 -3.936882019 0.5388878584
-32.07592392 -7.472980499 2.20939064
-31.21559715 -7.291137218 3.187957048
-30.98529053 -7.224961281 4.179329395
-13.93487167 -2.185403109 2.654940367
-32.0723114 -7.363672733 2.209325314
-32.12488937 -7.451084614 3.255467415
-31.10320663 -7.15469408 4.190544605
-13.94885063 -2.151661396 2.655928373
-20.34059143 -3.905300856 0.5306782722
-32.04137421 -7.246826649 2.208192587
-32.0829277 -7.330420494 3.251326084
-31.13879395 -7.060049057 4.192553997
-13.95944595 -2.114920616 2.65636611
-20.20137405 -3.80280757 0.5366188288
-31.68486214 -7.038711548 2.194411516
-31.76799774 -7.132740021 3.226660013
-31.06886482 -6.935339928 4.182781696
-13.95848656 -2.074892759 2.655097246
-21.15176392 -4.004199505 0.5058420897
-42.64286423 -9.976474762 1.201081634
-31.60839272 -6.911316395 2.191497087
-31.24653435 -6.87972641 3.186492682
-31.264534 -6.885875702 4.202722549
-13.94593906 -2.031705141 2.652121067
-21.24670029 -3.960819006 0.5039765239
-42.67282104 -9.837844849 1.202592611
-31.59690666 -6.80254364 2.191099405
-31.16008186 -6.751186371 3.179065466
-32.44146347 -7.106573582 4.332247734
-21.27317429 -3.901655912 0.5043337941
-31.61395073 -6.701745987 2.191803455
-31.15196037 -6.644903183 3.17753768
-32.33879089 -6.969426155 4.318812847
-21.39216423 -3.867079735 0.5015782118
-31.48517036 -6.556914806 2.186839819
-31.15052986 -6.535447598 3.176475048
-32.22726059 -6.825489044 4.304331303
-21.52659607 -3.835788012 0.4983018935
-31.15701866 -6.43353653 3.176060677
-31.84465981 -6.616131306 4.259766579
-21.55653191 -3.776553154 0.4985028207
-42.2143898 -9.126735687 2.603595018
-32.54301834 -6.692368984 3.279161453
-31.87649727 -6.518198013 4.261447906
-42.27236557 -8.997378349 2.60586977
-32.53649521 -6.582223892 3.277741432
-31.83290482 -6.400770664 4.254748821
-22.62773895 -3.912232876 0.4652913511
-32.31689072 -6.41819334 3.260355949
-31.86400414 -6.302841187 4.256389141
-23.49032974 -4.0553689 0.4379241168
-32.32290268 -6.31244421 3.259898901
-23.72302246 -4.038428307 0.4314638674
-32.44472885 -6.235404968 3.268124819
-24.23959351 -4.088177204 0.4156402647
-55.52321243 -11.60851765 3.120526552
-24.45027733 -4.057967186 0.4099907875
-24.89183044 -4.083940983 0.3966888487
-25.29289436 -4.097506046 0.3847410381
-67.88321686 -13.85671139 3.600434542
-25.5207653 -4.069179535 0.3784876168
-54.17790604 -10.5293026 3.068106174
-26.20924187 -4.141592503 0.3571664393
-54.65704727 -10.45348358 1.256468892
-54.21746445 -10.35221672 3.069572687
-55.02112579 -10.64974594 4.949794769
-26.66022491 -4.157224178 0.3436491191
-54.70159912 -10.27213192 3.088292122
-27.23862267 -4.197067738 0.3259979188
-68.0007782 -12.94380569 1.30057478
-54.63264084 -10.18737221 4.917781353
-27.76867676 -4.222613335 0.3099528551
-66.90264893 -12.47115707 3.561848164
-54.31078339 -9.630418777 3.07280755
-55.07971954 -9.90694809 4.948206425
-54.4764595 -9.479186058 3.079115391
-67.89051056 -11.76597691 3.599565983
-67.74021912 -11.49190617 3.593524694
-68.86308289 -11.47186565 3.636893988
-67.44954681 -10.74220657 3.581569672
-68.03351593 1.023399472 1.319172859
-62.14564514 2.433304548 1.292179585
-62.13855362 2.670164824 3.339740276
-62.19694519 2.77649641 5.398030758
-62.29043961 2.812408924 7.475180626
-68.60491943 6.310629845 3.568906784
-68.72907257 6.550416946 3.572315454
-107.4328079 10.21705246 1.392964244
-107.5948715 10.59749031 1.390142918
-68.1936264 6.970955372 3.549334049
-67.29185486 7.561263084 3.511205196
-67.31993866 7.78961277 3.51090765
-67.36708832 8.020424843 3.511314392
-69.00328827 8.387048721 1.269290209
-67.31198883 8.465925217 3.506442547
-77.92759705 9.933171272 1.286924601
-14.6139946 2.273600101 0.3446552157
-14.63657856 2.282728672 0.7357641459
-14.61902618 2.313435078 0.3435486555
-14.63366985 2.321718931 0.7352638245
-14.62589264 2.353584766 0.3422990441
-14.62666035 2.360179424 0.7348860502
-14.63063812 2.393529177 0.341176033
-14.62546062 2.399410009 0.7343056202
-87.44618225 12.27816296 1.297904015
-14.63299465 2.435184479 0.3401565552
-14.62781334 2.441137552 0.7335637808
-73.77950287 10.68785763 1.26271677
-61.17681885 8.977537155 3.267116785
-14.62361336 2.473271847 0.3399617076
-14.63820267 2.482086658 0.7325755358
-72.48575592 10.75290489 1.256899476
-61.24726486 9.193118095 3.268398285
-60.86212921 9.342382431 3.252566338
-14.61038208 2.550180674 0.3391449749
-14.60316849 2.556004047 0.7324053049
-60.89620972 9.506328583 1.225726128
-59.51221466 9.343673706 3.200558424
-14.60918045 2.596432686 0.7315240502
-59.38372421 9.523962975 3.194378376
-68.73000336 11.14645958 1.237234712
-59.22305679 9.698525429 3.186985731
-60.43581009 10.04701519 1.217260122
-67.63469696 11.43301487 1.229196787
-59.9768219 10.22229195 3.212395906
-59.69963455 10.37827778 3.200603962
-67.33703613 11.85313606 1.222562432
-67.34970093 12.08453751 1.219574571
-77.37752533 13.90432167 3.857466221
-67.57020569 12.35349274 1.216919065
-76.48591614 14.01029587 3.822282791
-67.64009094 12.59682465 1.213929772
-75.81465912 14.15054893 3.795341015
-74.70508575 14.14184761 1.222968578
-74.93112946 14.24662399 3.760510921
-73.91574097 14.24912834 1.218083739
-74.18367004 14.34981823 3.730869055
-73.14063263 14.34124088 1.213428259
-73.39080048 14.45203876 3.699465036
-72.5046463 14.46811962 1.2088449
-72.66475677 14.56198597 3.670571089
-71.67250824 14.55149174 1.203978419
-71.91527557 14.66236496 3.640828371
-71.0405426 14.66991234 1.199445248
-71.2912674 14.78334236 3.61576581
-70.54595184 14.87480927 3.586222649
-69.57312012 14.85120392 1.190155625
-69.86728668 14.97537136 3.559173822
-31.55608749 6.926203251 1.136738062
-31.59874153 6.961868286 2.140366793
-31.55249596 7.027802467 1.135168552
-31.56964874 7.058243275 2.138478994
-31.62680626 7.030622482 3.148897409
-31.6255703 7.057170868 4.161960125
-67.86170197 15.19440269 1.177051544
-67.88874054 15.26220798 3.48028183
-31.58971786 7.125552177 3.146149874
-31.60204315 7.155327797 4.160130978
-31.63645172 7.185052872 5.186098576
-31.65690422 7.21710062 6.222670555
-31.69988441 7.254529953 7.279016972
-67.32373047 15.37030792 3.457518339
-31.66850471 7.296142578 5.19231081
-31.63287354 7.315747738 6.220672131
-31.67574501 7.353546143 7.276941299
-31.65528297 7.371912956 8.336163521
-66.43493652 15.33859921 1.168090343
-66.60683441 15.43966389 3.429164648
-65.85055542 15.43345356 1.163795829
-66.026474 15.53604794 3.405872583
-65.23512268 15.51706409 1.159493089
-65.41120911 15.62026405 3.38131237
-64.70738983 15.61757565 1.155297518
-64.82720947 15.70786762 3.357923985
-64.10717773 15.70809841 1.150871515
-64.30160522 15.8057909 3.336703539
-63.5174942 15.78586864 1.146667719
-63.65193176 15.86939335 3.31093812
-62.86467743 15.83276558 1.142633438
-62.44213486 15.9451189 1.138599157
-62.54712296 16.03312111 3.266618252
-61.89105988 16.03226471 1.134309769
-61.97368622 16.10395432 3.243715048
-61.34278488 16.10552788 1.130234838
-61.47006989 16.18929482 3.223389864
-60.76452255 16.15641785 1.126361728
-60.94533539 16.26561928 3.202308178
-60.29974747 16.24479103 1.122376561
-60.45549774 16.34788513 3.182520628
-59.77140808 16.31267738 1.118388534
-59.87520599 16.40203667 3.159444332
-59.27219391 16.38509369 1.114434838
-59.41846085 16.48667145 3.140899658
-58.82049179 16.47799683 1.11032176
-58.9271965 16.55849648 3.121111155
-58.28506851 16.53346634 1.106409669
-58.3996048 16.61665726 3.100015879
-57.94286728 16.63095474 1.102729201
-57.95868683 16.69632912 3.082095861
-55.26957321 16.05422592 1.098910809
-57.44307709 16.75118828 3.061473608
-53.55591583 15.74215508 1.095344901
-57.04078293 16.83628273 3.044987917
-53.52111816 15.92170906 1.091706753
-56.55435181 16.89334679 3.025460958
-55.98085022 16.86001015 1.087435722
-56.12553406 16.96474838 3.008041382
-55.6076088 16.94509888 1.083646894
-55.64530945 17.01738167 2.9887743
-55.17140579 17.00816727 1.07989502
-55.26073456 17.09673309 2.972987175
-54.69535065 17.0557251 1.076185226
-54.8057518 17.15123749 2.954667091
-52.89550018 16.67726135 1.073222637
-54.38909149 17.21496582 2.937748432
-53.6566124 17.11320496 1.068909526
-53.97830963 17.27785873 2.921056509
-53.46294022 17.24312592 1.065102458
-53.51834488 17.32184601 2.902607203
-53.06581116 17.30467987 1.061441302
-53.14025116 17.38994217 2.887124062
-52.64609909 17.35601616 1.057820678
-52.76229477 17.45559692 2.871658802
-52.27399445 17.42069435 1.054180503
-52.3428688 17.50461197 2.854717255
-51.91149902 17.48622131 1.05054915
-51.97095108 17.56719971 2.839496851
-51.51223373 17.54597855 1.046776652
-51.60863113 17.63064575 2.824634075
-51.09053421 17.59508896 1.043054223
-51.18131638 17.67823601 2.807363033
-50.74554825 17.65921974 1.039462566
-50.81561661 17.7354126 2.792407513
-50.420578 17.71902657 1.036062956
-50.46513748 17.79567719 2.778009415
-49.98749542 17.74682808 1.032632828
-50.13845062 17.85305023 2.764566422
-49.6854248 17.81056976 1.029237151
-49.75264359 17.89584351 2.748933554
-49.96274567 17.91437149 4.489329815
-49.53805161 17.93880463 1.0254004
-49.54512024 18.00229263 2.739665031
-49.59820557 17.96394539 4.463074207
-49.59078979 18.14114952 1.021206737
-49.59753418 18.20514488 2.739643574
-45.63079453 16.66309166 4.173951626
-49.63891983 18.34269714 1.016968966
-49.64909744 18.40854836 2.739572763
-45.58684158 16.81467438 4.17107296
-49.65257263 18.53193855 1.012745023
-49.66994476 18.60109901 2.738391638
-45.2590332 16.85785294 4.147489071
-49.65304184 18.72590637 1.008289456
-49.68629456 18.79251671 2.737034082
-45.18086243 16.99527168 4.142129898
-50.06164169 19.13453484 2.748269081
-45.21095276 17.18313408 4.144701004
-50.07961655 19.32936859 2.74691844
-44.76505661 17.18394661 4.112535
-50.14974594 19.48051834 0.9941717982
-45.1780014 17.55852509 2.571819067
-44.84627914 17.37495041 4.118821144
-50.1162529 19.65564919 0.9897863269
-44.00856781 17.24713135 2.528853178
-44.53876114 17.4189415 4.096750736
-50.16322327 19.85426712 0.9853912592
-43.85882187 17.3507576 2.521807909
-44.52824402 17.57332039 4.096355915
-50.1879158 20.06360054 0.9805459976
-43.98874283 17.57705116 2.524511814
-45.04475784 17.96122169 4.134506702
-50.22277069 20.27798462 0.975618124
-42.40036774 17.08186531 2.46690011
-44.62934113 17.95896149 4.104579449
-50.24349594 20.47775459 0.9709064364
-42.51413345 17.29720497 2.469062567
-43.96304321 17.85699081 4.056345463
-50.2633934 20.67792892 0.9661463499
-43.01800156 17.67152214 2.484959364
-43.26420975 17.72785378 4.005709648
-50.28982162 20.88159561 0.9613173008
-43.13571167 17.88501549 2.48728013
-43.18701553 17.85905266 4.000501156
-50.3264122 21.09046173 0.956404388
-42.89284515 17.94391441 2.476971865
-40.32804489 16.7898941 3.791966438
-42.62781525 17.84063339 5.459890366
-49.66344452 20.99567986 0.9536548257
-40.36304092 16.99470711 2.386922836
-40.25417709 16.9107132 3.786987305
-42.36554337 17.88089371 5.433235168
-50.40784073 21.5046978 0.9466348886
-42.87124634 18.25370407 2.472650766
-40.18640137 17.02636528 3.782439709
-42.47365952 18.09096909 5.448034763
-50.42168045 21.70611954 0.9416363239
-40.72301483 17.46225548 2.396004677
-40.26681137 17.21536446 3.788758755
-42.78800964 18.39426041 5.485908508
-50.45292664 21.91607857 0.9365255237
-39.82810211 17.21618652 2.363125086
-40.26074982 17.36677742 3.788765192
-20.48106766 8.532752037 2.996905565
-50.48869705 22.13878822 0.9310897589
-39.9021225 17.4023838 2.363960266
-40.01770782 17.41144943 3.771444798
-20.44713974 8.588973045 2.994356871
-50.52529144 22.36287117 0.925589323
-39.61248016 17.43091393 2.352077007
-39.80459213 17.47590828 3.756341457
-18.46018219 7.774379253 3.356944084
-50.54283524 22.56928444 0.9203574061
-39.76588058 17.6621666 2.355546474
-38.15436172 16.87645149 3.636073112
-20.0654068 8.563200951 2.954284906
-18.43675995 7.830371857 3.355576754
-38.18548965 17.07889175 2.299134016
-38.11298752 17.00435257 3.633507252
-19.38414764 8.315694809 2.879236698
-38.15604782 17.21265793 2.296405792
-40.62540054 18.33147812 3.817910194
-19.38163376 8.382376671 2.880179882
-19.75872231 8.582840919 3.559777498
-38.27234268 17.41591644 2.298690081
-20.06467247 8.748403549 2.312912226
-19.39861107 8.458536148 2.883324623
-18.07559967 7.850168228 3.307224751
-18.07154846 7.872179985 3.885028362
-50.62238693 23.40727043 0.898853302
-38.18683624 17.5165062 2.294090033
-20.08404732 8.828699112 2.314566374
-18.12474251 7.912669659 2.74153471
-17.91383171 7.835188866 3.284814119
-50.47913742 23.53016281 0.8943257332
-37.78245163 17.46276665 2.278523445
-20.03614998 8.873393059 2.311285734
-18.08355331 7.952690125 2.738019466
-17.95143127 7.912694931 3.292524338
-50.39315414 23.68029022 0.8895263672
-37.70116806 17.57099915 2.273987055
-20.1819706 9.012103081 2.322201014
-17.97266579 7.982684612 3.297781229
-18.80115318 8.439892769 4.652551174
-50.40823746 23.90013695 0.8836813569
-37.67337799 17.70531464 2.271278858
-20.27007103 9.127571106 2.328907728
-18.41613579 8.242884636 2.777804375
-18.00354004 8.064128876 3.304750204
-18.78710938 8.499956131 4.653708935
-50.46582794 24.13170815 0.8778538704
-38.29153442 18.1603756 2.29066515
-20.26312065 9.200645447 2.328668118
-18.13027191 8.165928841 2.746863127
-17.98383331 8.117717743 3.303949594
-18.28424644 8.29268837 3.941523314
-18.89009666 8.618843079 4.68214798
-50.4888649 24.33704376 0.8724092841
-38.43498611 18.38374329 2.293752193
-20.03736877 9.157372475 2.312366962
-19.52997208 8.931163788 2.905766249
-18.24740791 8.335906982 3.937577009
-18.87887573 8.681091309 4.684081554
-18.15774155 8.338835716 5.12100029
-50.5212326 24.5581646 0.8665801883
-42.65845871 20.6600666 2.436115026
-21.03516579 9.732308388 2.385795116
-18.19427681 8.323234558 2.756486654
-18.23022652 8.39228344 3.93760252
-18.38561249 8.494149208 4.573348999
-18.09892845 8.373833656 5.110308647
-18.53542137 8.624427795 5.863737583
-50.56037521 24.77336121 0.8609446287
-37.88424683 18.40176201 2.271393299
-20.24781799 9.405578613 2.328319073
-18.20379639 8.392796516 2.758823395
-18.20185471 8.417283058 3.343846321
-18.22116089 8.449637413 3.939053297
-18.10005188 8.43624115 5.115843296
-37.62615967 18.42814636 2.260686398
-18.28242874 8.475826263 2.184429407
-18.18338585 8.450531006 2.757861614
-18.1438961 8.452558517 3.337320566
-17.65426636 8.224986076 3.833159447
-18.29979515 8.585441589 4.562535763
-18.12929916 8.520054817 5.129737854
-18.42333984 8.700575829 5.841841698
-49.83414459 24.82261467 0.8529071808
-41.64570618 20.66127396 2.39534235
-17.35354042 8.061040878 2.116519451
-17.40975571 8.114419937 2.671737909
-18.02257729 8.454593658 3.321112156
-17.49937439 8.207309723 3.806522131
-17.23733139 8.095216751 4.318204403
-22.5170517 10.83606243 1.744743586
-17.39865875 8.170536041 2.671721935
-17.38369751 8.184247017 3.225650787
-17.52793694 8.285046577 3.815358877
-17.21221924 8.143672943 4.316599369
-18.36471748 8.779780388 5.206386089
-49.87023544 25.27266884 0.8404567838
-17.19607353 8.104494095 2.105449677
-17.37374306 8.222595215 2.670217991
-17.81765556 8.479301453 3.294555187
-16.7905407 7.959589005 3.675957441
-17.11826515 8.158540726 4.299071789
-17.99488831 8.652598381 5.110212803
-22.46678352 10.98744488 1.740848899
-17.20136642 8.171608925 2.106093168
-17.38903427 8.296090126 2.673279762
-18.07656288 8.685216904 3.336777449
-16.79593468 8.025463104 3.680376768
-17.85231018 8.618020058 4.476314545
-17.68411827 8.57768631 5.634366989
-22.52487373 11.10795879 1.7416991
-17.21162224 8.241699219 2.107106447
-17.30404663 8.316104889 2.664992094
-16.83744049 8.111166 3.691855669
-17.42637062 8.45544529 4.380832195
-18.02832413 8.809363365 5.131680489
-17.6238842 8.612935066 5.62229538
-51.4334259 26.71577263 0.8137974143
-22.42772293 11.12826347 1.737519383
-17.19509697 8.285292625 2.106106281
-17.3170414 8.376170158 2.667562723
-17.72338104 8.618857384 3.287136793
-16.91647148 8.205757141 3.710030079
-16.89008713 8.216423035 4.258202553
-17.2479763 8.434872627 4.919602394
-17.62465096 8.668481827 5.628413677
-41.44305801 21.50608063 0.86847049
-22.45867729 11.23064137 1.737490058
-16.99745941 8.239733696 2.09183836
-17.30839157 8.43411541 2.667885542
-17.679039 8.659293175 3.282746315
-17.21105957 8.454581261 4.338421345
-17.28291321 8.51732254 4.934966564
-17.61439133 8.727880478 5.632098198
-17.30125427 8.493052483 2.668393373
-17.64847183 8.707173347 3.280490398
-17.33960724 8.562729836 3.799288273
-16.93644333 8.365027428 4.278029442
-17.19353104 8.531057358 4.915777683
-17.72154045 8.853095055 5.673604012
-36.37602997 19.11300087 2.201701403
-17.27994919 8.544307709 2.667303801
-19.25808525 9.697424889 4.177485943
-16.82324028 8.36360836 4.255734921
-17.10083389 8.542352676 4.895649433
-17.76089478 8.941334724 5.693455696
-51.55116653 27.64973259 0.7875234485
-22.48404884 11.50373363 1.735070586
-17.05251312 8.454889297 2.09666729
-16.91453934 8.403142929 2.627053976
-17.16160202 8.56401062 3.210265398
-17.18113136 8.601066589 3.77538991
-17.14339256 8.606154442 4.336202145
-17.2652359 8.698694229 4.947362423
-40.79283142 21.83118439 0.8524073958
-22.46440315 11.57976437 1.733305812
-16.85386276 8.405457497 2.082324266
-17.05547714 8.567099571 3.196297407
-17.58121109 8.89153862 3.857292891
-16.83906364 8.496294022 4.268596649
-17.22283936 8.738694191 4.941387653
-17.9719429 9.195560455 5.776268959
-40.47406006 21.83051682 0.8491877317
-22.59918976 11.74363518 1.736682653
-16.8866806 8.485600471 2.085009098
-16.71835518 8.415411949 2.607349634
-16.99598694 8.596048355 3.18953824
-16.83798218 8.531799316 3.715268373
-16.93995476 8.616499901 4.297226906
-40.04463196 21.76432991 0.8467749357
-22.70165062 11.89504528 1.738901377
-17.00960541 8.620900154 2.094345808
-16.65970802 8.446220398 2.602059841
-16.72974014 8.534773827 3.69773984
-16.72012711 8.555365562 4.249802113
-17.16185379 8.838536263 4.936800957
-17.72109413 9.189080238 5.710472584
-17.4776535 8.968640327 1.564245343
-17.10751343 8.743249893 2.101850748
-16.63679695 8.49432373 2.60078907
-18.06245041 9.346916199 3.360278606
-16.67959785 8.570773125 3.691616297
-16.72555161 8.620769501 4.255784988
-17.08049202 8.85541153 4.919957638
-17.63406754 9.205340385 5.689775944
-17.87532043 9.377113342 6.406496048
-51.63864899 28.8190403 0.7532281876
-17.42149353 8.997873306 1.561582208
-17.10046768 8.799472809 2.101606607
-16.74918175 8.618201256 2.61493063
-17.421772 9.037396431 3.263309479
-16.73070145 8.659734726 3.70508194
-16.61216354 8.613451958 4.23319149
-16.48337746 8.564121246 4.757509708
-17.02982903 8.911442757 5.500465393
-17.84069061 9.421748161 6.402302742
-51.36809158 28.87427139 0.7486915588
-22.44965172 12.01134491 1.727143764
-17.16038322 8.895054817 2.106298923
-16.79833603 8.759157181 3.7218678
-17.56587982 9.241241455 4.466175556
-16.55653954 8.666368484 4.783716202
-17.04654121 8.986058235 5.513252258
-51.19620132 28.99720955 0.7430890799
-22.69479179 12.2452879 1.734079957
-16.65969849 8.663898468 2.069703817
-16.64029503 8.678509712 2.605245113
-17.89119911 9.444340706 3.341581821
-16.79292297 8.819086075 3.724488258
-16.5581665 8.705880165 4.229789734
-16.93953133 8.958432198 4.89789772
-15.75744438 8.275389671 5.100004673
-51.18912506 29.2173214 0.7362158298
-22.74617195 12.36647224 1.734587789
-16.77667999 8.795604706 2.078619003
-16.59090805 8.711293221 2.600987911
-17.80353165 9.460268974 3.330685377
-16.75344658 8.85877037 3.720409393
-16.51582527 8.742851257 4.224451542
-16.17946434 8.563563347 4.688947678
-51.21541214 29.45826149 0.7290210128
-22.65811157 12.40478325 1.730490327
-16.7559433 8.846123695 2.077389717
-16.57386017 8.763318062 2.600447416
-17.38832664 9.278061867 3.268640041
-17.12641144 9.176247597 4.376110077
-16.28055191 8.68627739 4.723507404
-17.30491829 9.339818001 5.620370865
-51.24230957 29.70075798 0.7217490673
-22.31860352 12.29044342 1.718134999
-16.75380898 8.907948494 2.077535868
-16.71490097 8.911279678 2.618079662
-17.16597557 9.209425926 3.236612797
-17.39800835 9.379224777 3.855764627
-17.12092209 9.2386446 4.379929543
-16.48032951 8.870835304 4.786250114
-17.39356041 9.461519241 5.657252789
-51.29201889 29.95833397 0.7142196298
-22.08082199 12.23530388 1.709147573
-16.72924423 8.956357956 2.076031685
-17.2485199 9.325786591 3.252255678
-17.46416092 9.487026215 3.87292099
-16.53494644 8.943088531 4.243794918
-16.1996212 8.760213852 4.712564468
-17.71389389 9.728280067 5.770447254
-20.25162506 11.34146404 7.359400749
-51.3183403 30.20301819 0.7068014741
-36.61770248 21.26250267 2.183605194
-16.68918991 8.995296478 2.0733881
-16.86724854 9.132170677 2.638553619
-16.53432655 8.951095581 3.143075705
-16.67822456 9.06764698 3.720705986
-18.18389893 10.03203106 4.647148132
-16.2546711 8.856575012 4.734344482
-20.21845436 11.4030304 7.358328342
-21.99967766 12.36372662 1.704115033
-16.5573616 8.977347374 2.063971758
-16.70996666 9.099229813 2.621944189
