# .PCD v0.7 - Point Cloud Data file format
VERSION 0.7
FIELDS x y z
SIZE 4 4 4
TYPE F F F
COUNT 1 1 1
WIDTH 1336
HEIGHT 1
VIEWPOINT 0 0 0 1 0 0 0
POINTS 1336
DATA ascii
4.809638023 12.65567684 2.573879719
4.956475258 13.05412102 3.154046297
4.734380722 12.42134571 3.556102037
6.021366596 16.02448082 4.961152554
30.35873413 84.01858521 2.485052347
5.497951984 14.46023273 1.665067911
4.655076981 12.09087181 2.014092445
4.852343559 12.63412762 2.573139906
5.160553455 13.47825909 3.22883606
4.842553139 12.58487034 3.593379259
5.640759945 14.79095173 4.661555767
30.65341187 83.95519257 2.485825777
5.542633057 14.42505741 1.664105654
4.663401127 11.97988701 2.005067825
4.722606659 12.13657951 2.50955987
5.222740173 13.50201511 3.235783815
4.816945553 12.36874962 3.551880598
5.707629204 14.81443119 4.671971798
30.99642754 83.9773941 2.48848033
5.573345661 14.3437624 1.660572529
4.711417198 11.97937298 2.00649333
4.862046719 12.37729073 2.54358077
4.997785568 12.74108982 3.109251499
4.881557941 12.40994263 3.563804865
5.747898579 14.75617123 4.662481785
31.3267765 83.96260834 2.490457058
5.69363451 14.51445675 1.671436906
4.810763836 12.11052132 2.020494461
4.857178211 12.22257328 2.525358915
5.279624462 13.35706997 3.21719408
4.948130608 12.44814968 3.575351238
5.427318573 13.72614479 4.412231922
31.64203835 83.90532684 2.491642475
5.697698593 14.36169338 1.663835049
4.837865829 12.04518795 2.015912294
4.883275986 12.15356731 2.518479824
5.02450943 12.52480316 3.078364611
4.956501007 12.32982731 3.554237127
5.50596571 13.78205109 4.430812359
31.94458199 83.8132019 2.4921875
5.681033611 14.15676785 1.653232098
4.856126308 11.95745945 2.009211302
5.073868275 12.52082539 2.569525003
5.107395649 12.6033411 3.094803095
5.081539154 12.52182388 3.598077059
5.540192127 13.71917534 4.41998291
32.23474121 83.68823242 2.492129326
5.034809113 12.30438232 1.547785878
4.886616707 11.903265 2.005702019
5.068060398 12.36591053 2.551320076
5.360088348 13.12421894 3.186987877
5.069828987 12.35197163 3.566213608
4.835669518 11.72775555 3.929422855
32.55248642 83.63504028 2.493576765
5.074306965 12.26999569 1.546857357
4.903177261 11.81369591 1.99883461
4.672461987 11.20391369 2.399039507
5.488397598 13.31187534 3.222376108
5.124222755 12.35628223 3.570865393
4.804851055 11.51834106 3.88148737
32.87312698 83.58811188 2.495212317
5.08682251 12.1666317 1.541959405
4.692857265 11.13212967 2.391686201
5.534095287 13.28353882 3.220846653
5.190128803 12.3896265 3.581672668
4.890361309 11.61049175 3.908686638
33.19091034 83.53253174 2.496734858
5.146915913 12.1860075 1.544157267
4.728816032 11.10097504 2.389760733
5.595593929 13.29547691 3.226266861
5.165576458 12.19262123 3.544059515
4.944372177 11.62065887 3.915524721
33.50499344 83.46648407 2.498106241
5.216060162 12.2273941 1.547650576
5.189430237 12.14872169 2.035988331
4.791769028 11.13794518 2.396960497
5.647010326 13.28147221 3.227274895
5.154979229 12.03423595 3.514521837
5.027378559 11.70297909 3.940473318
33.84974289 83.51836395 2.501792908
5.241619587 12.16557789 1.545129657
5.248853683 12.17216969 2.039942503
4.88919878 11.26570606 2.416241884
5.900710106 13.77768612 3.316027641
5.22171402 12.07727146 3.527264357
5.078984737 11.71166611 3.946867466
34.16939163 83.46283722 2.503502131
5.284846783 12.14168835 1.544873714
5.281569481 12.12244415 2.036998749
4.926211357 11.23576832 2.414578915
6.245809078 14.48174095 3.44109273
5.272569656 12.07363224 3.530406713
5.091787338 11.61820221 3.927923203
34.49208832 83.41352081 2.505399704
5.322669983 12.10471916 1.543870926
5.355533123 12.17404175 2.043801069
4.992436886 11.27733898 2.422535658
6.48272419 14.90764523 3.51851058
5.309306622 12.03529358 3.526252031
34.77973557 83.2779541 2.505600452
5.402500629 12.15900898 2.044234037
5.306493759 11.91642094 2.510868073
5.877887726 13.29210472 3.243043661
5.368388176 12.0512495 3.533634424
5.566441059 12.51833725 4.163447857
35.09148788 83.20046234 2.507045269
5.556205273 12.41012669 1.564025879
5.431770325 12.10153008 2.040598631
5.099134922 11.29544163 2.429837942
5.961388111 13.35359955 3.257340908
5.363229752 11.91305542 3.508348942
5.181617737 11.46936893 3.904162407
21.23628998 49.49902344 1.819884896
5.587787151 12.35572624 1.56207478
5.469996929 12.0660305 2.03909421
5.41703701 11.93041706 2.517943621
6.129124165 13.61299896 3.306054115
5.399201393 11.87448788 3.504209995
5.243373394 11.49619675 3.915566206
21.51736069 49.69707108 1.825746298
5.601712704 12.2503624 2.058853626
5.181643009 11.26059723 2.430008173
6.480748653 14.29832458 3.428964376
5.450472355 11.87828922 3.508913517
5.27339983 11.45378494 3.909316778
21.88277626 50.0867424 1.835597873
6.20336628 13.54142284 1.633994102
5.644352436 12.22994232 2.058773994
5.256246567 11.3236475 2.440948009
5.111784935 10.97876549 2.855131626
5.482428074 11.83681965 3.504011154
5.289335728 11.37910175 3.894922972
21.8608532 49.54960251 1.826530576
6.247141361 13.51165295 1.633568764
5.359528542 11.45457458 1.985523462
5.542084217 11.86605358 2.517001867
5.15327692 10.96727085 2.856172323
5.546091557 11.86272717 3.513728142
5.37220192 11.45359612 3.918566465
10.84271431 23.90221786 0.3542571068
10.84479904 23.88890266 1.299099565
6.615123749 14.21616554 1.676396012
5.432837009 11.50519276 1.992364168
5.431067467 11.4922266 2.469022751
6.702331543 14.3896513 3.456798077
5.571365356 11.80027199 3.504612684
5.396921635 11.39387321 3.908262253
10.7774477 23.52027512 0.3604966104
10.79626369 23.54545784 1.2930094
6.338497162 13.44768715 1.632640958
5.500119209 11.54087353 1.997793913
5.454819202 11.42970753 2.463217497
6.872009754 14.62996292 3.503037691
5.630443573 11.81496334 3.512034893
5.426026821 11.34481621 3.90067935
10.7145319 23.15005112 0.366548866
10.72755337 23.16247749 1.286092401
6.393306732 13.43646336 1.633423686
5.519010067 11.46707916 1.992596388
5.546174526 11.51940536 2.478135109
6.453929901 13.54929352 3.318148375
5.765766144 11.99962711 3.555990696
5.423836708 11.22634697 3.875443459
10.64424133 22.76962662 0.3727970719
10.65217113 22.78213692 1.279167056
5.750967979 11.86738873 2.033665419
5.50398922 11.31643963 2.453094006
7.115962982 14.8843298 3.556395769
5.686161518 11.70401859 3.496905804
5.51335144 11.31851673 3.903632879
10.55331898 22.36087418 0.3795793951
10.59664726 22.4407711 1.273090124
6.200611591 12.74789906 1.595614552
5.620898724 11.4692421 1.996743679
5.569396496 11.34782028 2.460129499
6.182033539 12.69266224 3.175696135
5.740626335 11.71379185 3.503185034
6.303945065 12.94283962 4.323506832
10.51040745 22.05298996 0.384588629
10.52804279 22.07645416 1.266524553
6.144229412 12.50580883 1.582622528
5.657248497 11.43511772 1.995460868
5.575498104 11.24901009 2.449409246
6.131958961 12.45930767 3.138578653
5.752364159 11.6242342 3.488326311
6.352631092 12.92267227 4.324112892
10.46380615 21.74205399 0.3896660209
10.46037769 21.72016716 1.260113716
5.909209728 11.87527561 1.546596527
5.619340897 11.23315144 2.450041533
6.291978836 12.68343639 3.182002068
5.803984165 11.62200356 3.492316246
6.44386673 12.99423313 4.348272324
10.38473606 21.36648369 0.3958947957
10.40473843 21.39543724 1.254350185
5.926642418 11.79670143 1.543301582
5.678859711 11.25826359 1.982270837
5.66313982 11.21713543 2.450679541
6.320676804 12.62213707 3.175215244
6.043558121 12.02136421 3.583230495
6.654563904 13.31940269 4.437652111
10.33893681 21.06773949 0.4007874131
10.3316288 21.03880882 1.247906804
6.33586216 12.55107498 1.589668989
5.738950729 11.27626801 1.986145377
5.656950474 11.095047 2.436763763
6.365032673 12.59473801 3.174434662
6.213093758 12.26478386 3.64069891
6.565669537 13.00382519 4.362651348
10.27316666 20.73165703 0.4063518345
10.25702095 20.68477249 1.241503
6.392955303 12.55056572 1.591133833
5.818913937 11.33537769 1.994105935
5.709673882 11.09860229 2.440125942
6.216646194 12.16238785 3.101949215
6.364985466 12.46642017 3.6893332
6.722661972 13.20960426 4.421708107
10.22418594 20.43597794 0.4112184346
10.19476604 20.3621788 1.235746741
6.363490582 12.36323547 1.581514478
5.845923901 11.28272247 1.991075397
5.709239483 10.99100304 2.428191662
6.193220139 11.99186993 3.075909615
6.415277481 12.44667339 3.690290451
6.771452427 13.18620968 4.421896935
10.18216705 20.14993477 0.4159115553
10.1373558 20.05468559 1.230296612
6.41138649 12.34458065 1.581912398
5.887772083 11.25589848 1.99071908
5.663134575 10.79066849 2.403424978
6.075139523 11.63438416 3.016371489
5.700255394 10.85434246 3.348485231
6.820163727 13.16264248 4.422091961
10.16775513 19.94351578 0.4192439914
6.904835701 13.24614525 1.087178349
6.493401051 12.39573956 1.586521268
5.913050652 11.20593071 1.987866998
6.091277122 11.56280708 3.007378101
5.748403072 10.85487556 3.352876663
6.877345562 13.1564064 4.426823139
6.931163311 13.18299007 0.5384881496
6.936647415 13.19269466 1.086727977
6.446483612 12.18963432 1.575598955
6.941183567 13.18671894 2.186817646
5.883430958 11.03862953 2.443504095
6.01397562 11.29712677 2.963952541
5.870711803 11.00030708 3.389215946
6.882155418 13.04981613 4.405276775
6.976051807 13.15635014 0.5387536287
6.991080284 13.17916679 1.087169766
6.492030621 12.16709614 1.575797319
6.243190765 11.665061 2.037919521
5.946072102 11.06075191 2.449611664
6.056779861 11.28251553 2.965076685
5.902863026 10.96682453 3.386310101
7.037382126 13.15035915 0.5386351347
7.043711185 13.16185379 1.087541819
6.547338486 12.16404247 1.577188373
6.016940117 11.09854984 2.457948208
6.084299088 11.22679806 2.959271908
5.942184925 10.94275475 3.38572669
5.986723423 11.02569199 3.891489267
9.928696632 18.76066399 0.4389569461
9.86560154 18.63431549 1.205247283
6.677881241 12.31520081 1.587856889
6.437397003 11.83285809 2.059447289
5.97681427 10.92096519 2.436151266
6.131367207 11.22074509 2.96198678
5.962535381 10.88631535 3.377827168
5.959929466 10.87554264 3.857691288
9.879528999 18.50309563 0.4432500303
9.830181122 18.3966713 1.201216817
6.39070034 11.643507 1.548662186
6.464057922 11.78132725 2.056628942
5.999812603 10.86474419 2.431407213
6.138090611 11.13534355 2.950481892
6.002447605 10.86379528 3.377638578
6.022779942 10.89817715 3.869215012
9.825707436 18.23190117 0.4477817416
9.785923004 18.14528084 1.196882725
6.445654869 11.63780594 1.549966455
6.463498116 11.67193699 2.048141956
6.007061005 10.77850246 2.422468185
6.163820744 11.07774925 2.9443748
6.069459915 10.8889513 3.388241529
6.005619526 10.76463795 3.839963198
9.785364151 17.98270416 0.4519203007
9.750667572 17.90694237 1.192872286
6.497552395 11.63123035 1.551158428
6.513955116 11.65706921 2.049261808
6.042306423 10.74239445 2.420706987
6.239904404 11.12286758 2.956600189
6.148252487 10.94096661 3.404615402
6.066817284 10.77898884 3.849695683
9.727116585 17.71094322 0.456484884
9.713337898 17.67613029 1.188961744
7.546987057 13.53225899 1.66883111
6.456943512 11.44191456 2.030121326
7.182386875 12.82264805 2.716199636
6.267843723 11.07486534 2.952074289
6.185602188 10.9125948 3.403290033
6.120752811 10.78375721 3.856705189
9.70904541 17.51943207 0.4596320391
9.672257423 17.44926643 1.185073495
6.593059063 11.60154915 1.552588463
6.397593021 11.22554588 2.010801554
7.558224201 13.42551517 2.804666519
6.611684322 11.62587357 3.056025028
6.332786083 11.09237003 3.448166847
6.168222904 10.78075027 3.861444235
9.68094635 17.31937408 0.4629528522
9.673295975 17.29712296 1.182852387
6.633739471 11.57321262 1.552501559
6.462876797 11.25181103 2.015819788
7.796225071 13.75307751 2.854865789
6.62232399 11.54644203 3.045814514
6.230575562 10.80054665 3.872545242
9.734098434 17.26608658 0.4636527598
9.749914169 17.28795242 1.183743954
6.499454498 11.21870518 2.014989853
9.754430771 17.28140259 3.357702255
6.591713905 11.38587284 3.02106905
6.499047756 11.20831203 3.484041452
6.294978142 10.82348537 3.884560108
9.806965828 17.24959946 0.4637009501
9.825628281 17.27671432 1.184606314
7.139904499 12.30790424 1.601013422
6.56051302 11.2310524 2.018788338
6.360573769 10.85659409 2.45295167
6.580738068 11.26388264 3.003283024
6.518544197 11.1442461 3.475042343
6.648942471 11.38058662 4.038022995
9.880789757 17.23457909 0.4637267888
9.886738777 17.24581909 1.184997678
6.912528992 11.78143215 1.570333481
6.612201691 11.22562981 2.020815372
9.920105934 17.29323578 3.369546175
6.626680374 11.24787235 3.004797935
6.568690777 11.13704395 3.478755474
6.700467587 11.37912464 4.043703079
9.951467514 17.22100258 0.4637426138
9.959575653 17.22875977 1.185762405
6.922986984 11.6960125 1.56681025
6.689646721 11.27178288 2.027994394
9.986106873 17.26383591 3.370669842
6.64955616 11.19477558 2.999344349
6.443728924 10.81607914 3.411980391
6.746670246 11.36262989 4.04577446
10.03597355 17.22464943 0.4634422362
10.04016304 17.22540665 1.18684423
6.963650227 11.67128277 1.566958547
6.738697529 11.26061726 2.029500961
6.706791878 11.19922733 3.004667521
6.554701328 10.92064667 3.440735817
8.611507416 14.6251421 4.920729637
10.11283779 17.21395874 0.4634017944
10.11694431 17.21472931 1.187781692
6.740608692 11.16918468 1.537552357
6.795520782 11.2631712 2.032437086
8.121583939 13.63190937 2.862849712
6.48285675 10.70004177 2.917581797
6.543906212 10.80530357 3.420193911
6.450152397 10.63374233 3.864462376
10.18189716 17.18901253 0.4636204541
10.18669701 17.19853783 1.188553572
6.803172112 11.18216991 1.540098786
6.842673779 11.24811649 2.03360033
8.189943314 13.64130783 2.868355751
6.511430264 10.65678978 2.914044142
6.254907608 10.19777012 3.288698673
4.425437927 6.951901436 2.886473894
10.25762081 17.18298531 0.4635153115
10.25862122 17.17855835 1.189316034
6.82943058 11.13060474 1.538641453
6.884738922 11.22888374 2.034221172
7.691690445 12.6462307 2.730114937
6.580676079 10.69018269 2.924426317
6.30690527 10.20437717 3.295105696
4.42660284 6.890767574 2.874408484
10.3335886 17.16964722 0.4635337591
10.32755375 17.15308762 1.189971566
6.674858093 10.76815987 1.517653942
6.899184227 11.15642452 2.02951932
7.681518078 12.51948738 2.716078281
6.587495327 10.60896206 2.913933516
6.776290417 10.93521976 3.465684891
4.439981937 6.851695061 2.86824131
10.41058922 17.1577282 0.4635305703
10.40741062 17.1464138 1.191061854
6.7733078 10.84517479 1.524225354
6.746991634 10.79584217 1.995074511
8.425320625 13.70116043 2.890417814
6.593828201 10.52783585 2.903443336
6.617149353 10.56485271 3.387351751
4.430744171 6.773822308 2.851642609
10.48260975 17.13684654 0.4636921287
10.49726772 17.16370392 1.192643523
6.716822624 10.65402317 1.513985038
6.930809975 11.0185442 2.020837784
7.411150455 11.84597015 2.627088547
6.619529724 10.48094845 2.899289131
6.638079166 10.50956821 3.380309582
4.438315392 6.728864193 2.843655109
10.55146599 17.11752319 0.4638401866
10.60970688 17.21153641 1.194995522
6.91248703 10.89590359 1.530993342
6.796954155 10.69992065 1.990469575
7.471435547 11.84750557 2.631368876
6.654003143 10.45391464 2.898608923
6.649790764 10.44358158 3.3705585
7.567894936 12.00656509 4.2730546
10.62852859 17.104702 0.4638648331
10.68295765 17.19164467 1.195844769
7.096655369 11.11887741 1.546810389
6.8554883 10.70705795 1.993973255
7.532821655 11.85048485 2.635903835
6.717412472 10.46695423 2.905881882
6.69104147 10.42379665 3.371618748
7.588719845 11.93997478 4.26249361
10.71082687 17.0931263 0.4638608694
10.75627804 17.16443443 1.19661057
7.436803341 11.59047031 1.578649759
6.973248959 10.80857468 2.007483721
7.510211945 11.7069397 2.619407654
4.617015362 6.848582745 2.559963942
7.606391907 11.8637104 4.249683857
10.79522991 17.08462524 0.4638059139
10.84292412 17.15921974 1.197892427
7.494754314 11.58372688 1.580302
4.657418728 6.850928307 2.238864183
4.647192001 6.835056782 2.560951471
4.598804474 6.660242081 0.3420065045
10.86108589 17.04494286 0.4643168151
4.582605362 6.667496681 1.580006957
4.627995014 6.740584373 1.903217435
4.627305031 6.737598896 2.22102046
4.610235691 6.710622311 2.53649044
4.618123055 6.641444683 0.3424873054
4.597733974 6.644694805 0.651591301
4.6086483 6.660713673 0.9604836702
4.599097729 6.6461339 1.269136071
4.608067513 6.659003735 1.58071959
4.601985455 6.647219181 1.891747952
4.595040321 6.637017727 2.204707384
4.601981163 6.646706581 2.525098085
4.633466244 6.643939972 0.6515263319
4.636030674 6.646301746 0.9607348442
4.634756565 6.645379066 1.27032733
4.643712044 6.658190727 1.582538009
4.654144287 6.673434258 1.898157239
4.646995544 6.663063049 2.212844133
4.653779984 6.672477245 2.534953356
8.585721016 13.06922626 4.609706402
11.10327721 17.0397644 0.4638783038
11.14325333 17.10020065 1.201919675
11.1559391 17.12359047 1.943505049
4.669971466 6.64197588 1.582754135
4.675196171 6.648760796 1.897134185
4.650335312 6.609922886 2.206084967
4.635558128 6.584518909 2.518581629
14.20572758 22.03604698 7.076868534
11.18806648 17.03653717 0.4637571275
11.2228775 17.088377 1.203070521
11.23764992 17.11510849 1.945990562
7.256189823 10.72921181 2.016554356
4.630369186 6.519991398 2.19235158
7.753167629 11.52308941 3.667016983
8.246959686 12.31198502 4.418889999
11.25487328 17.00415421 0.4641663432
11.30574703 17.08129501 1.204349279
11.3066864 17.08598518 1.947178483
7.229793072 10.5976305 2.005645752
4.626105785 6.454762936 1.873765826
4.60667944 6.425276756 2.17766571
7.78988266 11.48611164 3.665070295
6.929000854 10.11513519 3.822100401
11.33336163 16.9901104 0.4642484486
11.38656425 17.07047462 1.205559731
11.40229416 17.09172821 1.95080173
4.581529617 6.326683044 2.162354946
7.296931267 10.60899734 3.467868328
7.016064167 10.16833782 3.843779564
11.41393185 16.97205734 0.4643988311
11.46313953 17.05256844 1.206623197
11.47884846 17.07376099 1.952773094
7.473481655 10.79923058 2.033351183
11.42943192 16.99667931 3.442966938
4.553423405 6.227500439 2.146714449
7.2458992 10.44135094 3.435027838
7.12349844 10.25225639 3.874099493
11.48503876 16.95261765 0.4645949602
11.49319935 16.96203804 1.206002712
11.51002407 16.98495293 1.950169802
7.922724247 11.41271114 2.10181427
8.494335175 12.29892826 2.750816345
7.820447922 11.25429249 3.110258102
7.293796539 10.43387508 3.439225435
7.088246822 10.11280537 3.842648268
11.56578922 16.9409523 0.4646462202
11.56084442 16.93023682 1.206768155
11.5734663 16.95345306 1.95114696
7.992583275 11.42683506 2.106676817
8.531480789 12.25597191 2.749250174
8.859340668 12.76469421 3.40515089
7.377841949 10.47762394 3.455801249
13.96223831 20.63048553 6.773910046
11.64440441 16.92560196 0.4647682607
11.64153481 16.9182682 1.208016396
11.65193462 16.93809509 1.953362942
8.07571125 11.46063232 2.113694191
11.67495155 16.96777725 3.458327532
8.87967968 12.69247723 3.397657871
7.420422554 10.45685005 3.457327843
7.159992218 10.05680275 3.84153676
11.71865749 16.90323067 0.4650215805
11.72356606 16.9146862 1.209403396
11.73154259 16.92407608 1.95569849
8.116452217 11.42910862 2.113742828
8.597466469 12.16296673 2.744870901
8.450191498 11.93740654 3.258738041
7.41568327 10.36836147 3.442621231
7.217367172 10.06566811 3.850967884
11.79642105 16.89261436 0.4650733471
11.79134655 16.88908195 1.210285544
11.81250191 16.91843033 1.958451629
8.137325287 11.37230587 2.110912561
8.730417252 12.2701149 2.765654564
7.880382061 10.98609257 3.081019163
7.584968567 10.54338264 3.490099907
7.236144066 10.01582432 3.844044209
11.87757683 16.88667107 0.4650440216
11.86328602 16.86282349 1.211246371
8.876366615 12.39322758 1.663488865
8.211009026 11.39501667 2.116679907
11.90168476 16.92001915 3.470739841
7.904149532 10.93700314 3.076956272
7.838133335 10.83682632 3.566201448
7.317114353 10.05542469 3.862596512
11.96304321 16.8799572 0.4650253356
11.94524002 16.85120392 1.212573886
8.930401802 12.37381268 1.664713621
8.270390511 11.39113998 2.119790554
11.97567272 16.89660835 3.474087954
7.930824757 10.88814735 3.073235512
7.79220438 10.68089104 3.536084652
7.368004322 10.04934406 3.868429661
12.03625679 16.85465431 0.4653480649
12.03847408 16.85578156 1.214309812
8.955274582 12.31120491 1.663097501
8.391316414 11.47768593 2.132762909
12.0552206 16.88110733 3.478688955
8.001567841 10.90463161 3.082226038
7.850977421 10.68136215 3.543059587
7.341349602 9.928577423 3.841988564
12.11846733 16.8422699 0.4654405713
12.1217289 16.84506607 1.215698957
12.13188553 16.864645 1.968233347
12.15046787 16.8882103 3.486781597
7.972305298 10.77400112 3.062628269
7.924234867 10.70262623 3.555065632
7.349100113 9.859593391 3.83009696
12.20641041 16.83775902 0.4653941691
12.1948595 16.81916046 1.216739774
12.21630573 16.85515976 1.971068501
9.180613518 12.44131374 2.24534297
12.23015594 16.87198067 3.491403818
8.029526711 10.7706089 3.06781745
8.019976616 10.75585365 3.574811459
7.686528206 10.27044487 3.954184294
12.28534698 16.81971169 0.4655977488
12.2759304 16.80446243 1.21807003
12.29283619 16.83382034 1.973146796
9.304116249 12.52058125 2.258028269
12.30083656 16.84235764 3.494046926
8.084573746 10.76371193 3.07237792
8.056934357 10.72307682 3.574079752
7.850477219 10.42456532 4.005990505
12.37118053 16.81115913 0.4656329751
12.3547554 16.78613281 1.219330907
9.416222572 12.58296108 1.691691279
9.314229965 12.4358387 2.252788067
12.37372875 16.81571198 3.497196913
8.236875534 10.89581013 3.104287148
8.415047646 11.15032673 3.683932543
7.919691086 10.44035244 4.018694878
12.44559574 16.78586769 0.4659767449
12.44165611 16.77891541 1.220882535
12.45509052 16.80324364 1.978212237
9.217272758 12.19967842 2.230859756
12.45115948 16.79526329 3.501352072
12.51030636 16.88488579 4.289534092
8.423985481 11.07446575 3.67317462
7.957737446 10.41118813 4.018669128
12.52923107 16.77333069 0.4660928845
12.52442169 16.77186012 1.222370982
12.53858566 16.79068756 1.980980873
9.290408134 12.20650196 2.235671759
12.54386902 16.80258179 3.509466171
8.06962204 10.48701286 3.035851955
8.515503883 11.12024689 3.691402435
7.959953308 10.33560658 4.004976749
12.62379551 16.78215218 0.465829879
12.59566021 16.74817467 1.223467827
12.62139034 16.78321457 1.983945251
9.466726303 12.36214828 2.256810188
12.62294006 16.79009056 3.514603376
12.6119194 16.77392387 4.285784721
10.69260597 14.08899021 4.41752243
7.952711582 10.24744797 3.987645149
12.6952095 16.75806427 0.4661694467
12.67504597 16.73558044 1.224855304
12.69845867 16.76728058 1.986369967
9.53489399 12.36472321 2.261081219
12.69512177 16.7675972 3.518256664
12.69887066 16.77224541 4.294402122
10.70636559 14.00419807 4.40609169
7.967699051 10.19109631 3.979415894
12.77715778 16.74827766 0.466252625
12.75448608 16.72264862 1.226252675
12.77789974 16.75426102 1.989024401
9.536614418 12.27501106 2.25511694
12.77193928 16.75125122 3.522915125
12.77668762 16.75738716 4.300485134
10.72658253 13.92901897 4.396984577
9.959170341 12.86791801 4.759576321
12.85119343 16.71426773 0.466771394
12.8408308 16.69944 1.227687716
12.85294056 16.72190666 1.990769863
9.663286209 12.34787941 2.267724991
12.86030674 16.73108482 3.528189898
12.86065483 16.73774147 4.306649685
10.74367714 13.83399487 4.384490013
9.990807533 12.80144501 4.751996994
12.93392944 16.69831657 0.4669706523
12.92934608 16.69161224 1.229345202
12.93904686 16.71080017 1.993811846
9.643247604 12.22424889 2.258200407
12.94493675 16.71821022 3.533903122
12.93458462 16.71041107 4.31087923
10.67499065 13.63367176 4.345228195
10.0980587 12.84828663 4.776238918
13.01907921 16.68522263 0.4671221972
13.00776005 16.67600441 1.23073411
13.03353882 16.71054649 1.997637272
9.73977375 12.25943279 2.266486406
13.03838158 16.72317314 3.542083263
13.01670361 16.69388771 4.31734848
10.72057819 13.59017372 4.344287872
10.08873749 12.74129677 4.755382061
13.10721016 16.6820488 0.4671012461
13.09046173 16.65939522 1.232210994
13.1198349 16.69864273 2.00070262
13.11089516 16.69296265 2.770234823
13.11608696 16.69996452 3.546322346
10.71443367 13.48225498 3.68075943
10.74942493 13.52951813 4.338676453
10.11722183 12.68118858 4.748673439
13.19492722 16.6713829 0.4672169387
13.17681694 16.64721298 1.233821034
13.19475269 16.67746925 2.002968073
13.19469738 16.67746162 2.77441287
13.19378853 16.67642593 3.550572157
9.857729912 12.23669529 3.437681198
10.88174438 13.60193539 4.366406441
10.28448582 12.80641556 4.796175957
13.26342773 16.63480186 0.4678095877
13.26203537 16.63305092 1.23540175
13.26911545 16.64889717 2.004950285
10.46163559 12.93564224 2.356230021
13.27627087 16.65889168 3.555830717
9.906785965 12.20705414 3.4392097
9.619962692 11.82797623 3.937474728
9.578054428 11.77313232 4.504285336
13.34879589 16.62022781 0.4680054486
13.35095024 16.62327766 1.237116098
13.3615818 16.64385796 2.00860095
10.48553658 12.86742783 2.353238106
13.37081146 16.65678215 3.56359601
9.917487144 12.12695694 3.430546999
9.66159153 11.79134083 3.937262535
9.633601189 11.75528431 4.509402275
13.43544674 16.60685349 0.4681838155
13.43264961 16.60358429 1.238597155
13.44688988 16.62887001 2.011600256
10.51151657 12.80237961 2.350610971
13.45824909 16.6447773 3.569875479
9.969794273 12.10178661 3.433043242
11.03534508 13.49235344 4.369486809
10.35024452 12.59959602 4.768821239
13.51850128 16.58834076 0.4684604406
13.5094862 16.57719803 1.239925385
11.73145008 14.28263474 1.851326704
13.5230875 16.60228539 2.790154696
13.53605938 16.61981773 3.574169159
10.03894711 12.09828186 3.440010309
9.744429588 11.717659 3.936855793
10.43017101 12.60672283 4.782196999
13.61877918 16.59155846 0.4683449566
13.60473061 16.57415581 1.241879463
10.74794769 12.90995121 1.758422256
9.903187752 11.82492352 2.248132229
13.61385727 16.59452438 3.578473568
10.04030895 12.00717735 3.429127693
9.783231735 11.67751694 3.935885906
9.932868958 11.87096596 4.575398445
13.69456959 16.5628109 0.4688173234
13.68777275 16.55493164 1.243435144
10.77255535 12.84254551 1.75696063
9.946135521 11.78878975 2.248545408
13.70633507 16.58763695 3.585786819
10.92997265 13.05085468 3.65110302
9.848492622 11.67123413 3.943450689
9.972149849 11.83025265 4.574170113
13.78395748 16.55101013 0.4689849317
13.77580547 16.54161263 1.245166898
10.80044174 12.77482224 1.755646586
9.929718018 11.67746258 2.24029851
11.88226795 14.15205097 3.203430414
12.16229343 14.5079813 3.960006952
10.19434261 12.01563549 4.03985405
10.01850414 11.79858875 4.575683594
13.87647343 16.53637695 0.46920681
13.86017609 16.52319908 1.246786714
11.93937206 14.10929108 1.853760719
9.976801872 11.64262199 2.241111994
11.29481602 13.30599403 3.074635029
11.6099472 13.70361805 3.803411961
10.1928196 11.92659855 4.026479721
10.09867477 11.80945206 4.589974403
13.96173573 16.52461624 0.4693848193
13.9440527 16.50995827 1.248458147
11.9602375 14.03382874 1.851898432
9.994515419 11.58000374 2.238257408
11.32052517 13.24223042 3.071037769
10.16526413 11.79995537 3.417847157
10.32808685 12.00930977 4.056551456
10.16345882 11.80494785 4.599225521
14.04706764 16.51248169 0.4695738852
14.03729725 16.50169563 1.250390172
12.00580215 13.98948288 1.852262378
10.1231842 11.65541363 2.251494169
11.31351089 13.13321972 3.060474634
11.25745583 13.07002544 3.689186096
10.40717316 12.01610851 4.068048954
10.1963129 11.7559185 4.595742702
14.12795162 16.4881897 0.4699876904
14.11552715 16.47436333 1.251837492
12.04623508 13.93359756 1.852002501
10.31114769 11.79790401 2.272916555
11.53099251 13.30173111 3.094957352
10.23096657 11.70618248 3.413959503
10.32572365 11.82445145 4.029108047
10.22404289 11.70076084 4.590440273
14.21135998 16.46664429 0.4703561068
14.21400356 16.47145844 1.253960252
12.39866257 14.25943184 1.879239798
14.22346878 16.49256325 2.828641653
9.671116829 10.92652607 2.71516633
11.3990097 13.04640102 3.70208168
9.90292263 11.21722984 3.883807421
9.735302925 11.01373672 4.393918037
14.30496693 16.4570713 0.4705105126
14.29354286 16.44493103 1.255471945
12.19745827 13.90784645 1.85773766
11.35515308 12.88660622 2.410862207
9.700762749 10.87900162 2.713516235
10.37833309 11.70787048 3.430571795
9.934831619 11.17060852 3.881319284
9.754143715 10.95277977 4.38630867
14.40123844 16.45013809 0.4706213772
14.37946224 16.42575264 1.257203221
12.29610348 13.92211151 1.862627029
11.38647938 12.82704163 2.409220695
9.759324074 10.86654758 2.717631817
11.92378139 13.48357105 3.812170029
9.997830391 11.16167831 3.888543606
9.831079483 10.9623003 4.400159836
14.49249935 16.43660545 0.4708574712
14.46926594 16.41078949 1.259071708
12.37451553 13.91134644 1.865745068
11.52606106 12.89736271 2.422982931
9.819185257 10.85535049 2.722005606
9.827835083 10.87148094 3.270767927
10.10111237 11.20065689 3.908204079
9.874507904 10.93106174 4.401692867
14.68301392 16.54044342 0.4689542651
14.68661308 16.54686165 1.265096903
12.42728329 13.86965847 1.866641521
11.67395687 12.97602463 2.437850952
9.859930992 10.82109928 2.722628355
9.902880669 10.87802219 3.280023813
10.07855034 11.088871 3.889032841
9.924098015 10.9071207 4.405515194
14.77613926 16.52723503 0.4691940546
14.82104588 16.58247566 1.268424511
12.29790401 13.61295795 1.851795316
10.78873062 11.83345795 2.307132006
10.24425411 11.19248104 2.790453196
9.979357719 10.88569355 3.289609909
10.14659691 11.08520699 3.897834063
10.49691486 11.50127888 4.599361897
14.89661884 16.54553032 0.4688631594
12.48055363 13.72495461 1.863985419
10.0185194 10.84119511 2.193534374
9.557326317 10.30230904 2.649148226
10.04576206 10.88095188 3.29664731
10.18928528 11.05135059 3.898872614
10.61674595 11.55513287 4.627902031
14.96525764 16.50254059 0.4696567655
12.63029671 13.7964716 1.873291135
10.02552414 10.7669487 2.189460754
9.553484917 10.21930313 2.641484022
10.06724072 10.82346535 3.292494059
10.2829752 11.07688618 3.915464878
10.68507957 11.54771996 4.6377244
15.06739235 16.50424004 0.469638139
9.78516674 10.41133213 2.151220322
9.714694023 10.33172703 2.666164875
10.07996655 10.76025581 3.286711216
10.35949135 11.08590508 3.927371025
10.48019886 11.2280302 4.550177097
15.1543417 16.48170471 0.4700677395
12.060812 12.94241333 1.817754745
9.773403168 10.31860828 2.144771576
9.736679077 10.27839088 2.663532734
10.15919685 10.76979256 3.296970844
10.42923927 11.08237362 3.936599493
10.64089775 11.32814789 4.593367577
15.23868465 16.45576477 0.470564425
12.17477322 12.9753418 1.824148893
9.772937775 10.23957729 2.139957905
9.793732643 10.26531506 2.667684793
10.21389294 10.75070953 3.301156759
13.28935623 14.26248264 4.785181522
10.48805046 11.06850433 4.524571419
15.34951401 16.45942116 0.4705256224
15.34995461 16.4629631 1.279639244
15.34451962 16.46598434 2.089867592
9.84852314 10.24726295 2.145690918
9.810095787 10.20587063 2.664056778
10.2555151 10.71658325 3.302147388
10.93897915 11.49350071 4.065958023
10.56024837 11.06703091 4.536233425
15.42199135 16.41919327 0.4712933898
15.41172409 16.41081619 1.280694842
15.42478371 16.4347744 2.092564106
9.985165596 10.32301426 2.159802198
9.885501862 10.21316624 2.67174077
11.2295332 11.73140526 3.530955791
10.94009781 11.40846443 4.054227829
10.91318607 11.38104343 4.647150517
15.50639343 16.39207458 0.4718267322
15.50934601 16.39864922 1.282910228
15.49736595 16.38861847 2.094424725
10.17826939 10.46025276 2.181576729
9.918717384 10.17277336 2.671390295
11.07524872 11.4667511 3.483020782
11.07109833 11.46491337 4.080676079
10.69980049 11.05719948 4.557758808
10.64724636 10.89435768 1.682674527
10.16361809 10.36084938 2.174640417
9.858750343 10.02914429 2.653439999
11.16033936 11.47505951 3.494016647
17.56457901 18.58205795 5.993233681
11.23235226 11.56527424 4.730955124
10.18065834 10.3050375 2.172553301
10.8717432 11.06842518 2.838006973
11.69990063 11.98772335 3.615298986
17.68256569 18.58349419 6.010313988
11.08565331 11.31708336 4.665352821
10.25449753 10.30771446 2.177976608
10.94059277 11.06462193 2.844237089
12.06014442 12.29227543 3.692105532
17.77295876 18.55395126 6.019230366
10.9300642 11.06621361 4.597864628
10.83245659 10.86122799 2.251759768
11.1224041 11.18312263 2.87162447
11.639678 11.74825191 3.581543684
13.24116516 13.49747753 4.672150612
10.93237305 10.98993492 4.585746288
10.88341904 10.83845806 2.254099131
11.32745361 11.32041168 2.902851105
11.71343899 11.7444706 3.589995146
11.37829113 11.38586426 4.113920212
10.90195465 10.8747263 4.561761856
16.04768562 16.27082062 0.4743707478
16.07475853 16.30382919 1.295865417
16.07509995 16.31425858 2.119557142
12.93012524 12.94937897 2.524265766
11.46996975 11.38823795 2.922265291
11.7733326 11.72096634 3.594643831
10.89363861 10.78094196 3.961141825
11.10717106 11.01335526 4.619289398
16.12808609 16.23656845 0.4750697911
16.13463593 16.24765968 1.296964765
16.12260628 16.24503517 2.11963892
13.21826649 13.15965462 2.557292461
10.64974499 10.4301548 2.763010025
16.0294342 16.16504097 4.596370697
10.9930582 10.80591583 3.979037523
11.23218918 11.06411171 4.648904324
16.165802 16.15696335 0.4766009152
16.13930702 16.13322258 1.296338797
13.76452827 13.63535118 1.921570897
13.46557522 13.32324505 2.584694862
10.63717747 10.33824635 2.754160404
12.3705225 12.17799282 3.717034101
11.14534569 10.88592434 4.012154579
10.79334831 10.51708603 4.48520422
16.20868874 16.08308411 0.4780324697
16.18063545 16.05802727 1.29688704
11.39403248 11.04811859 1.72363162
13.47232342 13.23156738 2.579955578
10.65694427 10.28103924 2.751362324
10.57245064 10.19935608 3.282841444
11.04402065 10.69792652 3.971971512
13.82308769 13.62137127 5.506876469
16.18750572 15.94279289 0.4806788862
16.15237427 15.91065979 1.295264482
11.55586433 11.13364697 1.734276772
11.01402283 10.57242012 2.24835062
10.73963356 10.28968143 2.760173798
10.62313461 10.17532825 3.286465406
11.55919743 11.15504837 4.109269142
10.90697479 10.47833061 4.498612881
16.15581512 15.79278851 0.4835062921
16.12733459 15.7736845 1.29380095
11.56853294 11.06314564 1.732699037
11.04967594 10.52968407 2.248567104
10.8012743 10.27978325 2.765426159
10.66966915 10.1468153 3.289132118
12.44960213 11.99398422 4.353160381
10.89693451 10.39322472 4.483287811
16.13712502 15.66322231 0.4859603047
16.11699677 15.64715385 1.292783976
11.44294739 10.85107231 1.719888091
11.11234665 10.51875114 2.252595186
11.01568508 10.42272854 2.798246622
10.73486042 10.14121342 3.296592474
12.6668787 12.13285065 4.403941154
10.90330982 10.32177639 4.473043442
12.79875565 12.14487076 0.5501089096
12.80189705 12.15180492 1.18833828
11.36294174 10.69189835 1.710995555
11.09620571 10.42307186 2.246045589
12.58479786 11.94621944 3.07737875
10.73990917 10.06993771 3.289623737
12.7050209 12.08171082 4.402876377
10.96105385 10.30329514 4.480226517
12.83156681 12.08732796 0.5512427092
12.8262434 12.08573627 1.188580513
11.91236305 11.16811562 1.753059626
11.11031342 10.35882759 2.243526697
10.76398659 10.01844597 3.287160873
12.32856178 11.60991096 4.284284592
10.95185661 10.2165947 4.464942932
12.88952351 12.05523872 0.5519170761
12.87425423 12.04375744 1.189574718
12.69606781 11.87290859 1.813860893
11.25605202 10.42742729 2.258249283
12.35766697 11.54015255 3.022024155
10.78832626 9.963639259 3.284417868
12.83042812 12.02923584 4.414823532
10.98468781 10.1729393 4.463880539
15.99740028 15.06200314 0.4973494112
12.95691776 12.03184414 1.191636801
12.95457077 12.03802395 1.831888318
11.33393574 10.42278194 2.26385808
12.42535114 11.51733685 3.026990175
10.86406326 9.960435867 3.293592215
13.60940933 12.71482277 4.622053146
13.88517189 12.99578571 5.418732643
16.00465584 14.95261955 0.4994666576
16.16430283 15.11581993 1.291026115
13.01310444 12.00177765 1.833768487
11.53211689 10.53693199 2.28508544
16.0123806 14.98624706 3.664215088
12.24558449 11.25282288 3.602962971
12.08066082 11.09753513 4.17992878
11.52311897 10.54800224 4.617906094
15.98851585 14.82095432 0.5019931197
16.13158798 14.96677685 1.289401889
13.0857811 11.97927475 1.836799026
11.63195324 10.5519619 2.293483019
13.51191902 12.4076786 3.207294226
12.1758213 11.09577942 3.5777843
12.36296368 11.28884315 4.247675419
11.03516769 9.983665466 4.443394661
15.95759392 14.68681908 0.5045549273
16.08119392 14.81822681 1.287333369
12.14323807 10.97261715 1.758899689
11.58142376 10.42706299 2.282879353
12.199049 11.04378033 3.575346947
13.90496159 12.71932316 4.66764307
11.10784912 9.987251282 4.456963539
15.94031048 14.56698704 0.5068600774
16.05267525 14.68126678 1.285908461
12.24178505 10.98585701 1.764346004
13.07698917 11.80572891 2.471439123
12.89519119 11.63349724 3.083758354
15.8885479 14.55435753 4.40791893
11.45741749 10.24797153 3.975223303
11.14815903 9.951291084 4.458681583
15.91789532 14.43771839 0.5093467832
16.02357864 14.55027485 1.284511089
12.40459824 11.06447983 1.775023818
11.74245548 10.42972088 2.295367241
12.76374722 11.42402458 3.053981781
13.49886036 12.13877583 3.854075909
11.5198698 10.23123169 3.982700348
11.16829681 9.899533272 4.454391956
15.88633156 14.30604458 0.5118728876
16.00801277 14.42792225 1.283525825
11.83297825 10.44179344 2.302987814
12.93958569 11.50721073 3.078482628
13.55592346 12.10774803 3.858230591
11.79265022 10.4199543 4.048835278
11.31219769 9.96312809 4.490121841
15.87264919 14.18713093 0.5141782165
15.85270214 14.17357826 1.278233767
13.34323406 11.79615211 1.844738722
11.86654854 10.39500713 2.30311203
12.63776016 11.13372612 3.018558741
13.02508068 11.51171017 3.729175091
12.8750639 11.37365055 4.337351799
11.27779007 9.855228424 4.467504978
15.85251045 14.06301689 0.5165811181
15.81647205 14.03445339 1.276650071
13.99913979 12.32313633 1.893938541
11.79863644 10.25235748 2.290339231
14.30813313 12.63001823 3.306172848
13.13608265 11.5264349 3.745022297
11.83839893 10.3032341 4.041203976
14.14532566 12.49712372 5.389083862
15.82845688 13.9309864 0.519138515
15.80425358 13.91902542 1.275827169
13.04466248 11.3357296 1.816088676
11.89006424 10.25682545 2.297702312
14.22772789 12.46060085 3.284885645
11.44139099 9.848011971 3.355924368
11.27970409 9.70050621 3.87838769
12.44341373 10.80348301 4.823195934
15.80729675 13.81303406 0.5214281082
15.78410625 13.79705048 1.274776936
14.44584942 12.55595112 1.923923373
11.92682171 10.21741581 2.298532724
14.19854832 12.34061718 3.272727728
11.47379875 9.807437897 3.356076956
11.35889816 9.70467186 3.891317368
11.73985767 10.065238 4.583584309
15.82478523 13.72656727 0.5231597424
15.80480289 13.71887398 1.275023937
14.49317551 12.51076508 1.925166011
12.04575062 10.25020599 2.309567928
15.83554745 13.76994705 3.551877737
11.40803719 9.672180176 3.333982944
11.34515476 9.618430138 3.878442049
11.82852936 10.07540226 4.601426125
15.91445923 13.71189976 0.5235894322
15.88952541 13.6947813 1.277238131
13.51506615 11.51846123 1.845993638
12.18069267 10.30060482 2.32279253
11.55634785 9.730786324 2.799298286
11.51825333 9.703932762 3.351591349
11.46906662 9.663275719 3.903536558
16.01265717 13.69940281 0.523993969
15.9698391 13.66623402 1.279328823
13.54867649 11.46690559 1.846371531
11.61658478 9.711892128 2.804224253
11.62336159 9.726380348 3.367642403
11.60246754 9.712013245 3.930652142
11.6886301 9.795796394 4.5341506
16.11986542 13.69444466 0.5242682099
16.07238197 13.6574297 1.282115579
16.10597992 13.6939106 2.04329586
12.41015911 10.35326195 2.343658686
11.68710899 9.702041626 2.810939789
11.68383694 9.70374012 3.373402834
11.63074207 9.660344124 3.92881465
13.82253742 11.66110229 5.205238819
16.20002556 13.65935421 0.5251012444
16.17505264 13.64808559 1.28491807
16.19376564 13.67107773 2.047387123
12.45556831 10.3117857 2.345188856
11.72233391 9.659959793 2.8115592
13.00321388 10.81928444 3.657371044
11.63804817 9.593556404 3.921839237
14.01750469 11.74990177 5.254615784
16.28402901 13.6375351 0.525681138
16.26890373 13.63021851 1.287461042
16.29648209 13.6611042 2.052647591
12.47914028 10.25855637 2.344410181
11.80176163 9.657436371 2.819821119
16.28079033 13.67670155 4.37127924
11.74109173 9.616552353 3.941107273
11.96828079 9.825314522 4.590660095
16.3885498 13.62839222 0.5260481238
16.36132622 13.61054611 1.289972305
13.58659077 11.15884304 1.840155602
12.46720028 10.17005539 2.339049339
16.3820343 13.6533556 3.601048708
12.61892414 10.31897736 3.557620525
11.75539494 9.556096077 3.936104298
12.02993011 9.805640221 4.599390984
16.48870277 13.61473179 0.5265023112
16.45532036 13.59172058 1.292544007
13.56855869 11.0585947 1.836550355
12.47123241 10.09625912 2.335726738
12.73596573 10.33488178 2.969127893
12.67692375 10.29197502 3.562783003
11.81938362 9.53981781 3.944449902
12.03908348 9.739271164 4.591544151
16.58595276 13.59790897 0.5270193219
16.54635811 13.56978893 1.295037508
16.58630753 13.61638737 2.067185402
12.65616798 10.18131638 2.3548522
16.56463051 13.61082554 3.617549658
12.48558998 10.04610348 3.513526917
14.4853344 11.80587864 4.645843506
12.08302593 9.703778267 4.594759941
16.66365433 13.56354046 0.5278573036
16.65254974 13.56050205 1.298007846
16.68343163 13.5990839 2.072042942
12.73215675 10.16982555 2.360455036
12.49780464 9.971191406 2.917254686
12.24953938 9.764123917 3.454843283
12.18994331 9.717554092 4.025583744
12.02270889 9.577309608 4.565253258
16.7655468 13.54970741 0.528332293
16.7603817 13.55196095 1.301040888
16.76400757 13.56694126 2.075637817
12.72681904 10.08765888 2.356039047
12.40182877 9.812194824 2.895500183
12.2699585 9.707233429 3.452210426
12.23545647 9.682790756 4.028869629
12.06907654 9.544369698 4.569396496
16.87058258 13.53793621 0.5287764072
16.84558487 13.52333069 1.303393245
16.86881447 13.55519676 2.081105232
13.41192532 10.598032 2.436561346
12.36061287 9.701781273 2.88317585
12.248209 9.614327431 3.440499783
12.23476791 9.608221054 4.019979954
12.09617805 9.494735718 4.567551613
16.96660423 13.51783276 0.5293760896
16.92773438 13.49169731 1.305665255
16.96006393 13.53124142 2.085541725
13.46845722 10.56544113 2.439635754
12.30065918 9.576357841 2.867780924
12.26350212 9.553712845 3.436897039
12.34559727 9.629236221 4.04057312
12.09791183 9.423567772 4.557868481
17.07033157 13.50368023 0.5298753977
17.04347992 13.48804188 1.308978319
17.04982567 13.50553894 2.089875698
13.43064404 10.45288467 2.431181669
12.30964565 9.51040554 2.86412859
12.18363953 9.412781715 3.412850142
12.2876358 9.506383896 4.016749382
12.19431591 9.433032036 4.577716827
17.16956139 13.48513412 0.530459404
17.14102554 13.4683342 1.311747074
17.15795898 13.49479294 2.095622778
13.33731174 10.29463196 2.416018009
12.33655834 9.459824562 2.863545179
12.18300438 9.339840889 3.40599823
12.46157932 9.579703331 4.053884506
12.12863255 9.305372238 4.547273159
17.26425934 13.46223736 0.5311273336
17.2463131 13.45452213 1.314766049
17.2493515 13.46940899 2.10010314
13.38834476 10.25829887 2.418541193
12.36326504 9.40917778 2.862965584
12.26230431 9.334058762 3.416359663
12.12597275 9.225806236 3.957665205
12.37130928 9.436601639 4.612380028
17.36517525 13.4439373 0.5317195058
17.43494225 13.50893021 1.320344329
13.46537304 10.24332905 2.424242258
12.41879272 9.382514954 2.867251396
12.51340008 9.470147133 3.463446379
12.18805027 9.206102371 3.965690374
12.13882732 9.171088219 4.530683517
17.46926117 13.42765331 0.532282114
17.57469177 13.52161121 1.324441314
17.54639626 13.51102161 2.117760897
13.50091171 10.19382191 2.424917698
12.54159451 9.420266151 3.462795258
12.24105167 9.178606987 3.971363068
12.49186707 9.391165733 4.629547596
17.58275414 13.41838837 0.5327262878
17.67444229 13.50065422 1.327329516
17.64439392 13.48888779 2.122761488
13.44085312 10.07231045 3.02769804
12.62613487 9.416513443 3.474178791
12.33803272 9.186853409 3.988464594
17.67306328 13.38964844 0.5335236192
17.79291725 13.49425888 1.330803037
17.7548542 13.47630596 2.1287148
13.55907822 10.08443928 2.424791336
13.43566608 9.990468979 3.021577597
12.66329002 9.373752594 3.475492477
12.73966122 9.441744804 4.084366322
13.55780506 10.11264801 4.936038494
17.77118301 13.36671448 0.5342239141
17.89190483 13.47656631 1.333701491
17.84676361 13.44811249 2.133277893
13.60335159 10.04212284 2.426604509
13.61667633 10.06290436 3.046672583
12.62808323 9.27266407 3.461519718
12.73409176 9.364134789 4.074727058
13.57714844 10.0543642 4.931964874
17.87469292 13.35261154 0.534758985
17.98253632 13.44649887 1.336351991
17.96990967 13.44435883 2.140204191
13.68293095 10.03184605 2.432859898
13.51207542 9.901464462 3.024153948
12.51970863 9.11742115 3.432519436
12.76005077 9.315875053 4.073709011
17.99019241 13.34230042 0.5352485776
18.08413887 13.42467403 1.339351535
18.07979012 13.43439674 2.146255732
13.70677567 9.972967148 2.43225646
13.57274151 9.872841835 3.029069901
12.64390659 9.144987106 3.452393293
12.78911877 9.266540527 4.073138714
12.8833952 9.347927094 4.700560093
18.09955215 13.32640266 0.5358441472
18.19367218 13.40848732 1.342606902
18.16341019 13.3928194 2.150114298
13.79919529 9.968276978 2.439897537
13.65361595 9.859897614 3.037331581
12.63693047 9.064501762 3.444324017
12.82897758 9.222192764 4.074990749
12.83619595 9.237939835 4.676599979
18.18784332 13.28829479 0.5368555188
18.29699898 13.38679504 1.345687509
18.28066635 13.38228416 2.156624079
14.45207882 10.39726162 2.514331579
13.42216587 9.602038383 2.994247198
12.88262653 9.185912132 3.489645004
13.09844589 9.361321449 4.135978222
12.77002144 9.113991737 4.647079945
18.30119705 13.27937126 0.5373253822
18.33245087 13.31187439 1.346712232
18.30973244 13.30256176 2.156547785
14.54587555 10.39334106 2.522176743
13.11196327 9.295906067 3.531692505
13.11966228 9.308341026 4.133811474
12.85818863 9.11137867 4.664295197
18.4108181 13.2617712 0.5379718542
18.39771461 13.26004601 1.348661065
18.39610291 13.27231884 2.160889149
14.566082 10.32800293 2.52108717
14.21389675 10.06316662 3.114118099
13.12841415 9.235738754 3.528826237
13.18431091 9.285422325 4.142359257
12.79718113 8.992826462 4.636618137
18.5316658 13.2520752 0.5384864211
18.51208305 13.24557018 1.352122068
18.51506424 13.26147747 2.167563677
14.5923357 10.26749992 2.520751476
13.79517365 9.66385746 3.040676832
13.17906284 9.201986313 3.533139706
13.24896049 9.262166977 4.15091753
12.88676357 8.990922928 4.654312611
18.639925 13.23203087 0.5391905904
18.63134766 13.23410225 1.355746984
18.61985397 13.23911953 2.173192263
18.62763977 13.25376034 2.995672703
13.89169502 9.661379814 3.051562071
13.20764828 9.151279449 3.532892227
13.30268383 9.230276108 4.156721115
13.1513319 9.121790886 4.724364281
18.73707581 13.20299339 0.5400597453
18.75235176 13.223176 1.35943985
18.72153473 13.21378899 2.178601027
14.70608616 10.19314003 2.527427197
14.02635574 9.687026024 3.068640947
13.25020695 9.111200333 3.535587788
14.59643555 10.13588524 4.475883484
13.19975281 9.086567879 4.729592323
18.85508537 13.18900394 0.5406721234
18.85750008 13.19959641 1.362664223
18.83603859 13.19750023 2.18497467
14.69989109 10.10840797 2.523345709
14.04550171 9.625037193 3.066940308
13.29107189 9.069755554 3.537963629
20.60487366 14.56743813 5.982253551
13.27452564 9.071000099 4.742706776
18.97161293 13.17318153 0.5413242579
18.95789337 13.17187786 1.365758896
18.95065689 13.18058491 2.191366673
14.70127678 10.0297966 2.520205021
14.05643082 9.557124138 3.063954353
13.31598282 9.016358376 3.537078619
20.61883926 14.46637821 5.97403574
20.60103607 14.46393299 6.911474228
19.07538223 13.14721775 0.5421613455
19.07279968 13.15431404 1.369311452
19.06539154 13.16303062 2.197777748
14.69748211 9.947766304 2.516499043
14.14203835 9.544638634 3.073087454
13.47553158 9.062632561 3.563981295
20.83724022 14.51699924 6.017238617
20.85710335 14.54271603 6.973426342
19.19371986 13.1313343 0.5428298712
19.18458748 13.13375854 1.372784138
19.17217255 13.13895893 2.203612328
14.64672279 9.831766129 2.507324219
14.27730083 9.56804657 3.090230227
13.85027695 9.26554203 3.635053635
20.94878387 14.48736763 6.03357172
20.9681778 14.51273346 6.992284298
19.30570793 13.11009693 0.5435994864
19.29887962 13.11947441 1.3763448
19.26771545 13.10608292 2.208631039
19.29997826 13.1389122 3.049514771
14.36459064 9.559282303 3.0998528
14.14686012 9.407848358 3.689831495
21.07673073 14.47465992 6.054587364
21.08448982 14.49157143 7.013393402
19.4169693 13.09279537 0.5442878604
19.41490173 13.10576725 1.379972458
19.3883419 13.09596252 2.215612888
14.80295944 9.792642593 2.519479513
19.37107468 13.10769176 3.899804115
14.71609592 9.748541832 3.800557852
21.21434021 14.46818638 6.077998161
21.21033859 14.47665977 7.037305355
19.52669334 13.07375622 0.5450136065
19.52373123 13.08104038 1.383400798
19.5026226 13.08054256 2.222135782
14.77505112 9.698317528 2.513263464
19.50004578 13.09797668 3.914308071
14.83911991 9.763150215 3.819708586
