# .PCD v0.7 - Point Cloud Data file format
VERSION 0.7
FIELDS x y z
SIZE 4 4 4
TYPE F F F
COUNT 1 1 1
WIDTH 1263
HEIGHT 1
VIEWPOINT 0 0 0 1 0 0 0
POINTS 1263
DATA ascii
-16.45531273 -32.43264389 5.093784332
-16.62250137 -32.71310425 6.410339355
-15.91221809 -31.05472946 1.324490666
-16.50707054 -32.3154068 2.586932898
-16.59713554 -32.44734955 3.845075369
-16.59988022 -32.42644119 5.100625992
-16.76905823 -32.70769501 6.419625759
-16.06585693 -31.07740974 1.325334311
-16.64936829 -32.30583191 2.589248657
-16.73442078 -32.42669678 3.848380566
-16.74742317 -32.42485809 5.108170509
-16.91765594 -32.70513535 6.429512978
-16.21460152 -31.10220146 1.326189399
-16.84284592 -32.40425873 2.597649813
-16.87002945 -32.41543579 3.85238266
-17.06461906 -32.71186066 6.44065094
-21.44216537 -40.82117844 9.513804436
-16.34416771 -31.10279846 1.326587439
-16.99644852 -32.42610931 2.601679802
-17.00403595 -32.41360474 3.857083082
-17.21090126 -32.71621704 6.451463223
-16.48061752 -31.11515236 1.327190161
-17.12772942 -32.41867828 2.603904009
-17.13821602 -32.41122055 3.861768007
-17.3546772 -32.7281723 6.463217258
-12.09492493 -22.91093063 0.3042008877
-16.64380455 -31.1625843 1.328434587
-17.25627136 -32.40546799 2.605810165
-17.28095627 -32.41052246 3.866917372
-17.48635483 -32.71702576 6.470935822
-19.8365097 -36.94665527 8.708351135
-12.04162502 -22.62514877 0.3090220988
-16.89624977 -31.35669136 1.332317352
-17.40364456 -32.39966583 2.608442068
-17.41880417 -32.38698578 3.870137691
-19.32324982 -35.75447464 7.025397301
-19.97600365 -36.88544083 8.71018219
-11.97875595 -22.33516121 0.3140212893
-17.02338219 -31.32249832 1.332112432
-17.54342651 -32.37924576 2.610246897
-17.55574036 -32.36112213 3.873169661
-20.47867775 -37.51986694 7.353945255
-20.18344116 -36.94535446 8.738833427
-11.93560886 -22.08421135 0.318172425
-17.12160492 -31.24896812 1.331176519
-17.68758392 -32.37872314 2.613079071
-17.69601631 -32.35339737 3.877754688
-19.38902283 -35.28785324 6.965058327
-20.31476974 -36.88296127 8.739908218
-11.87505722 -21.80600166 0.3229415417
-17.34607887 -31.39761543 1.334215283
-17.79847717 -32.3184967 2.612462044
-17.81973839 -32.31561279 3.879422903
-19.54665565 -35.28503036 6.976014614
-20.38372421 -36.71084976 8.716778755
-11.81072235 -21.52500725 0.3277894258
-17.52802277 -31.46873856 1.335861087
-27.57305717 -49.17769241 3.596196175
-25.72898102 -45.89097977 5.223321438
-19.68780327 -35.252388 6.981697083
-21.22009087 -37.87757492 8.990665436
-11.74957561 -21.25337601 0.3324455321
-20.59306908 -36.52508163 1.426979899
-27.73662949 -49.07243729 3.594540834
-25.90915489 -45.8404808 5.226167202
-19.88531685 -35.31669617 7.004980087
-18.93820381 -33.63469696 8.063263893
-11.67158985 -20.95649719 0.3376848698
-20.7454834 -36.50137329 1.426972508
-27.89880753 -48.96490479 3.592763186
-24.64434052 -43.30318451 4.983003616
-21.02684784 -37.04669952 5.840027809
-19.9034996 -35.07100677 6.97230196
-19.08079147 -33.61564255 8.073036194
-11.6736412 -20.80011749 0.3397835195
-20.91607857 -36.52207184 1.42773509
-28.06964684 -48.87234116 3.591870546
-21.87069321 -38.24482727 4.488781452
-20.79780388 -36.36660385 5.754212379
-20.16334343 -35.23966599 7.014705658
-19.22569656 -33.61290359 8.085853577
-11.67435455 -20.65117073 0.3417878747
-28.28644562 -48.7100296 1.647283196
-28.20645332 -48.74108887 3.588498354
-23.8663559 -41.34347153 4.802752972
-20.85615349 -36.19643784 5.739203453
-20.13882637 -34.93773651 6.971234322
-19.93025017 -34.55421066 8.309808731
-11.71104622 -20.56428146 0.3423886597
-28.44700241 -48.60071945 1.645850182
-28.36310196 -48.64380264 3.587121725
-20.85153389 -35.95412064 4.273985386
-20.90953445 -36.01945496 5.723225594
-20.09026146 -34.59901047 6.920962334
-11.73320484 -20.44617462 0.3436194956
-28.61333656 -48.50114822 1.644580483
-28.52569008 -48.53759766 3.585460424
-19.94725227 -34.16856003 4.102421284
-20.04875374 -34.21852493 8.264225006
-11.77228355 -20.35723877 0.3441826701
-28.76687813 -48.38048553 1.642919064
-23.50212097 -39.83929062 3.078326464
-20.09035301 -34.14297867 4.105950356
-11.83170605 -20.30240822 0.3439582884
-28.93034935 -48.27638245 1.641543746
-23.67232704 -39.81328583 3.080577612
-20.31023407 -34.24274063 4.122056961
-11.8929863 -20.25081253 0.343647629
-29.09763908 -48.17854309 1.640269637
-23.86039162 -39.81551743 3.084516048
-20.50291061 -34.29551697 4.133543968
-22.11330986 -36.78833008 8.88962841
-11.95089054 -20.19392204 0.3434458971
-29.25405312 -48.06311035 1.638666272
-24.05086136 -39.82030487 3.088632345
-21.27292824 -35.27935791 4.238566875
-12.02036572 -20.1483345 0.3428939879
-29.42486382 -47.9709053 1.637470365
-25.57221985 -41.96059036 3.219248295
-12.0918026 -20.10588646 0.3422539234
-29.5822506 -47.83908463 1.635569572
-25.68874359 -41.81240463 3.214762688
-12.17474461 -20.08892822 0.3410828412
-25.1774559 -40.54273605 1.504130244
-23.90379906 -38.66146088 3.031810045
-22.06030083 -35.62204361 7.210368156
-7.973582268 -13.37653446 0.4963142574
-25.22363091 -40.32596588 1.500560641
-24.1192646 -38.72341156 3.039132357
-22.3271904 -35.78483582 7.253153801
-5.055745602 -8.782249451 2.927208185
-7.896859646 -13.16679382 0.50023669
-25.35242462 -40.22425842 1.499079227
-30.34665489 -48.141922 3.604398727
-21.34040833 -33.99979019 6.93442297
-7.841616154 -12.98820782 0.5033960938
-25.56687927 -40.25460434 1.499978065
-25.34580803 -40.05568314 3.126256227
-21.63407135 -34.19830704 6.984249115
-5.059684753 -8.670719147 2.905782223
-7.800541401 -12.8335886 0.5060065389
-30.79409409 -47.94013977 1.639513135
-25.52179909 -40.02715683 3.128597736
-22.94673157 -36.03167343 4.36176157
-21.86552238 -34.2976265 7.01584959
-5.088059425 -8.654565811 2.905973673
-7.791488171 -12.72950172 0.507432878
-30.95259666 -47.82404327 1.637807488
-25.68472862 -39.97784805 3.129716158
-25.64535904 -39.8646698 4.759548664
-7.757475376 -12.58897018 0.5097302198
-31.11619759 -47.7157402 1.636231184
-25.89615822 -40.00115204 3.135212898
-23.3231411 -36.06805038 4.379620552
-22.37725639 -34.56174469 7.091912746
-5.2257514 -8.743641853 2.939743042
-7.727927208 -12.45246124 0.5118908882
-24.8218441 -38.09613419 3.024758339
-27.79093742 -42.48790741 5.043851376
-22.12131119 -33.9250145 6.985987663
-7.693257809 -12.31435204 0.5141525865
-31.41988564 -47.46426773 1.632409811
-24.89463043 -37.91038895 3.017719507
-27.71593094 -42.06323624 5.008849621
-5.068060398 -8.407762527 2.199635983
-7.670357227 -12.19946861 0.5159194469
-31.57998276 -47.35102844 1.630707622
-24.99049187 -37.78790665 3.014092445
-22.40332413 -33.9234848 4.180932045
-5.077498436 -8.367995262 2.195071697
-7.636311531 -12.06537437 0.5181056261
-31.72480011 -47.23287964 1.628887415
-31.69724083 -47.33679962 3.595487833
-23.64291954 -35.50252914 4.350068092
-5.117073536 -8.36974144 2.19849968
-7.62445879 -11.96920681 0.5194365978
-31.9045105 -47.14822388 1.627681136
-31.81956863 -47.1852951 3.5911026
-23.39322472 -34.88130188 4.293269157
-5.139698505 -8.349435806 2.197625637
-7.588882923 -11.83577633 0.5216264725
-31.98115349 -47.0738945 3.589405537
-23.49926567 -34.79362869 4.291067123
-5.161291122 -8.324913979 2.196118832
-7.550587177 -11.7040453 0.5238394141
-7.936807632 -12.24067593 0.9937224388
-32.14801025 -46.98719788 3.5889678
-23.65198135 -34.76031113 4.29487896
-5.166741371 -8.28019619 2.190621376
-7.553225517 -11.62401581 0.5246916413
-7.917217731 -12.12491131 0.9916943908
-32.31464005 -46.86574554 3.586940289
-28.6232872 -41.55791855 5.008250713
-5.183640957 -8.246631622 2.187556744
-7.540793896 -11.52749062 0.5260047317
-28.586586 -41.26253891 3.250198603
-23.31900787 -33.77889633 4.207849979
-7.545225143 -11.45558262 0.5267149806
-28.81334496 -41.28279495 3.255981445
-23.47333145 -33.75233459 4.212312698
-7.516525745 -11.33834267 0.5285515189
-29.0417614 -41.30357742 3.261834621
-23.64056015 -33.7428894 4.218613625
-7.47535944 -11.20524597 0.5307936072
-29.2390461 -41.27957153 3.26497817
-5.283390522 -8.187667847 1.550391912
-5.266485214 -8.146183014 2.181171417
-7.46935606 -11.11808109 0.5318465829
-29.44710922 -41.26921463 3.268989086
-5.24067688 -8.075827599 1.540301561
-5.291879654 -8.127709389 2.180874109
-7.475276947 -11.05171967 0.5324347019
-29.62109566 -41.1963768 3.269418716
-5.344984055 -8.162472725 1.551128626
-7.445084572 -10.93726444 0.5342376232
-29.80455589 -41.15048218 3.271295786
-5.403604507 -8.18857193 1.555547118
-7.432142258 -10.84716988 0.535433948
-30.00000191 -41.11981583 3.274138451
-5.400452614 -8.131328583 1.551189184
-7.425876617 -10.76687431 0.5363868475
-7.70196104 -11.11878777 0.9738879204
-30.18599892 -41.07550049 3.276163816
-5.394569874 -8.071011543 1.546493888
-7.677762985 -11.01673985 0.9720667005
-30.42510033 -41.10045242 3.282513618
-5.400325775 -8.029237747 1.543667793
-7.419956684 -10.62078762 0.537987709
-7.681441784 -10.94858074 0.9708625078
-30.63106728 -41.09462738 3.286748648
-5.405895233 -7.984977722 1.540656447
-5.008119106 -7.446863651 2.067875624
-7.381872654 -10.50133133 0.5399625301
-7.731107235 -10.94072723 0.9707556367
-30.84922028 -41.08883667 3.29126215
-5.084483147 -7.515754223 1.492354989
-5.016584873 -7.410517216 2.063896179
-7.381005287 -10.43126678 0.5406712294
-7.851902008 -11.02429581 0.9723144174
-31.08237457 -41.10096741 3.296930313
-25.17074966 -33.407444 4.259211063
-7.35144949 -10.32506371 0.5423231721
-7.907582283 -11.02657986 0.9723861814
-31.23743248 -41.01109695 3.296259165
-25.26522446 -33.30642319 4.255932808
-7.349264622 -10.25820065 0.5430133939
-7.957714558 -11.01778412 0.9722547531
-31.37661934 -40.91511917 3.294971228
-25.53359413 -33.41543961 4.275601387
-7.294988155 -10.12274265 0.5454519391
-8.000429153 -10.99935818 0.9719448686
-36.40562439 -46.9957695 3.681768179
-25.57307053 -33.23224258 4.26397419
-7.285065174 -10.04124355 0.5464302301
-8.043111801 -10.98075676 0.9716290832
-36.57522964 -46.87931061 3.680246353
-25.59295082 -33.02578354 4.249819756
-7.283079147 -9.97368145 0.5471007228
-8.113324165 -10.99627209 0.9719336629
-38.22793198 -48.59663391 3.794648409
-25.71772003 -32.95170975 4.249934196
-5.046892166 -7.182015419 1.750561476
-7.266571045 -9.891965866 0.5482074022
-8.130894661 -10.94613838 0.9710366726
-38.39238358 -48.47733688 3.792908669
-5.288967133 -7.446142673 1.496232629
-5.121130943 -7.194587231 2.933068275
-7.261254787 -9.82159996 0.548961103
-8.213926315 -10.9766016 0.9716088772
-38.57105255 -48.35849762 3.79151845
-5.321908474 -7.439987659 1.497247696
-5.170256138 -7.209496498 2.943997383
-7.279624462 -9.780758858 0.5489251614
-8.193202972 -10.87987423 0.9698553085
-38.7518959 -48.24207306 3.790298939
-5.382669926 -7.467589855 1.501947403
-7.309256077 -9.75377655 0.5485115647
-38.92477036 -48.11571884 3.788466454
-5.450033665 -7.502531528 1.507477045
-5.197795868 -7.170271397 2.341884851
-7.291481018 -9.669810295 0.5496375561
-39.10616684 -47.99949646 3.787294626
-5.428506374 -7.429816723 1.50127089
-5.07120657 -6.974112034 2.297319174
-7.33997345 -9.665791512 0.548591435
-39.28466415 -47.87952042 3.785901546
-5.427011967 -7.381780624 1.497746229
-5.092525959 -6.956323624 2.296997547
-7.370477676 -9.640140533 0.5481250286
-39.46665955 -47.76345444 3.784776211
-27.09283257 -33.0215683 4.316356182
-5.064257145 -6.879999638 2.282058001
-5.189819813 -7.020952225 0.338727355
-5.193698406 -7.016058922 0.6192140579
-5.190164566 -7.004615784 0.8990853429
-5.199611187 -7.032251358 1.180508494
-5.207949638 -7.034751892 1.462943912
-5.104595661 -6.887042522 2.287744522
-5.036701679 -6.798079014 2.548901796
-5.18020153 -6.968807697 0.3409825563
-5.208717346 -6.992741585 0.6190656424
-5.206472397 -6.98281908 0.8986853361
-5.204374313 -6.996740818 1.17902112
-5.223136425 -7.01137352 1.461957693
-5.260225773 -7.028029919 2.327137947
-5.35144043 -7.124345303 2.651347876
-5.1960783 -6.94465971 0.341096282
-5.226000309 -6.969993591 0.6188560724
-5.21983099 -6.955526352 0.898183167
-5.224586487 -6.97944355 1.178702593
-5.219785213 -6.964392185 1.45844543
-5.259888649 -6.984318733 2.320431471
-5.235123634 -6.945224762 0.3392873406
-5.244243145 -6.946285725 0.6186268926
-5.272146702 -6.971083641 0.8984617591
-5.261244774 -6.976859093 1.179418683
-5.196327209 -6.89250946 1.452243686
-5.287474155 -6.970871449 2.321569681
-5.003818989 -6.636087894 2.515156746
-7.449277878 -9.427483559 0.5480545759
-40.3506012 -47.14860153 3.777206421
-5.100571156 -6.740732193 1.437046409
-5.249808788 -6.892568111 2.01894474
-5.21807909 -6.848954678 2.295021296
-7.473505974 -9.398251534 0.5477184653
-40.5105629 -47.02200699 3.775185585
-5.402941704 -7.045540333 1.47260654
-5.29460907 -6.903250694 2.024421453
-5.090938091 -6.665183544 2.252405882
-5.002385139 -6.548555851 2.778519154
-7.577156544 -9.458774567 0.5448306799
-40.69129562 -46.91880798 3.774697065
-5.445559978 -7.050499439 1.474919796
-5.117821217 -6.673300266 1.705114126
-5.31459856 -6.885623455 2.024090052
-5.155574322 -6.697237492 2.264791489
-5.172902107 -6.699818134 2.837890625
-5.084746838 -6.591568947 3.088700056
-7.606935978 -9.432296753 0.5443300009
-40.87051773 -46.79733658 3.773369789
-5.494911671 -7.062670708 1.478060484
-5.197554588 -6.722032547 1.715402007
-5.249340534 -6.761103153 2.285398006
-5.233193874 -6.73562479 2.565182447
-5.24243927 -6.736315727 2.856934547
-5.076636314 -6.542392731 3.075660467
-7.636623383 -9.405716896 0.5438250303
-8.874779701 -10.76870346 0.9677458405
-41.0760498 -46.70492172 3.773955822
-29.34158325 -33.56785583 4.458168983
-5.180744171 -6.662481308 1.708447099
-5.184363842 -6.647879124 2.260739088
-5.23278904 -6.694105625 2.557756662
-5.296726227 -6.755190849 2.869847298
-5.060525894 -6.484831333 3.05915761
-7.666216373 -9.379033089 0.5433157682
-8.90379715 -10.73174572 0.9670451283
-41.58939743 -46.95261002 3.796794415
-29.67370415 -33.70607376 4.483355045
-5.203576565 -6.647279739 1.708573222
-5.211146832 -6.636969566 2.262261868
-5.153399467 -6.566097736 2.523796558
-5.185777187 -6.592229843 2.817980528
-5.077640057 -6.464223862 3.057663679
-7.690331459 -9.346333504 0.5429734588
-28.89639091 -32.58055115 1.365808606
-41.77835846 -46.83815002 3.796042919
-29.66355324 -33.46518326 4.4658885
-5.228631973 -6.61579752 2.26116395
-5.288203716 -6.66378355 2.849756956
-5.440711021 -6.819959641 3.210252285
-7.714310169 -9.313566208 0.542627573
-28.91480064 -32.37937164 1.362034202
-28.95217514 -32.51290894 2.862524748
-5.432441711 -6.823727608 1.458284974
-5.265235901 -6.634162426 1.711644888
-5.456311703 -6.832493305 2.03083849
-5.215662956 -6.554233551 2.53061533
-5.304562092 -6.640958309 2.847869873
-5.494114876 -6.835975647 3.224308729
-7.735443592 -9.277798653 0.5423641205
-28.98512268 -32.23571777 1.35930109
-28.96228218 -32.30296707 2.853420496
-5.449084282 -6.800320625 1.457418919
-5.278560162 -6.60843277 1.710110188
-5.165168762 -6.460206032 2.506837368
-5.189056396 -6.476531506 2.795005083
-5.530723572 -6.833482742 3.230858326
-7.764589787 -9.250771523 0.541838944
-29.05887985 -32.09633636 1.356637001
-28.9413662 -32.06113434 2.842190027
-5.495496273 -6.808974743 1.460205913
-5.007483482 -6.277501106 1.659096718
-5.016284943 -6.269186974 2.184267521
-5.213984013 -6.463959217 2.79668951
-5.057443619 -6.287763596 3.01301527
-7.812776566 -9.244073868 0.5407047868
-28.98022652 -31.80582047 1.351214528
-28.94095039 -31.84318352 2.832504511
-5.500126839 -6.774701118 1.458023071
-5.468408585 -6.721614838 2.018447876
-5.03284502 -6.251049042 2.183568239
-5.180472374 -6.389403343 2.775949478
-7.867787838 -9.247241974 0.5393308997
-28.97945786 -31.58963966 1.347133875
-28.93400002 -31.63066483 2.822916746
-5.478261948 -6.710501194 1.452501059
-5.012326717 -6.207712173 1.652760267
-5.467419624 -6.681873322 2.013522863
-5.073252678 -6.256223202 2.189196348
-5.532792091 -6.733429909 2.607821941
-5.24946785 -6.425401211 2.794971228
-5.635843277 -6.821732998 3.248764753
-7.902334213 -9.225552559 0.5386163592
-29.22558784 -31.63470078 1.347807288
-28.92304039 -31.40479088 2.812652349
-5.524645329 -6.718786716 1.455276132
-5.065560341 -6.228457928 1.658551097
-5.566762924 -6.745727062 2.030806303
-5.094768524 -6.241279602 2.189593077
-5.039881706 -6.176679611 2.439189911
-5.338465214 -6.479628086 2.821096897
-5.668661118 -6.814379215 3.253564119
-7.939587116 -9.206614494 0.5378098488
-29.37418365 -31.57586288 1.346576929
-28.89153862 -31.15914345 2.801042318
-5.511915207 -6.66488266 1.450915694
-5.084207535 -6.210719109 1.65820086
-5.570832253 -6.709104538 2.026768446
-5.158445358 -6.270171642 2.201555014
-5.036794662 -6.136509895 2.431776285
-5.30711174 -6.40797472 2.801373005
-5.785302639 -6.89366436 3.294676304
-7.996218681 -9.207685471 0.53638798
-41.90263748 -44.35403824 1.57919848
-28.90022278 -30.95728874 2.792317152
-5.464308262 -6.575250149 1.442414403
-5.537630081 -6.634140015 2.014513731
-5.043390274 -6.113709927 2.164634228
-5.334845543 -6.407420158 2.522357225
-5.302261829 -6.364366055 2.791837454
-6.100174427 -7.175414562 3.421076059
-8.025118828 -9.179747581 0.5358312726
-30.60047531 -32.41312027 1.361478686
-28.90228081 -30.74999619 2.783205748
-5.560461998 -6.634814739 1.451141596
-5.506728649 -6.56231451 2.002872229
-5.065807343 -6.100250721 2.16540122
-5.602165699 -6.642797947 2.60230422
-5.206585407 -6.228194714 2.748192072
-6.112932682 -7.144412518 3.416615009
-8.079063416 -9.177463531 0.5344825387
-30.60681915 -32.2003479 1.357411265
-28.9004612 -30.54020119 2.773901701
-5.490607738 -6.506308079 1.994579673
-5.099202633 -6.097917557 2.16914773
-5.709867001 -6.712192059 2.630149364
-5.274199009 -6.259540558 2.766150951
-5.87138319 -6.855669975 3.303251743
-8.152713776 -9.19486618 0.5325120091
-29.55544472 -30.91495514 1.333814859
-28.88632774 -30.31938744 2.763831139
-43.66048813 -45.2902565 5.954390526
-5.104869366 -6.076176643 1.905424356
-5.066345215 -6.02833128 2.154995441
-5.109241009 -6.055598736 2.697074413
-5.637319088 -6.578214645 3.193954706
-8.209702492 -9.194803238 0.5310583711
-29.6614399 -30.81305885 1.331756115
-28.86258125 -30.09050941 2.753187656
-43.8773613 -45.19976807 5.958586216
-5.149934769 -6.094260693 1.65194869
-5.291595936 -6.2279706 1.941836596
-5.089894295 -6.016142368 2.156128168
-5.197094917 -6.107475281 2.722662926
-5.638390064 -6.539458752 3.185491562
-8.26258564 -9.187337875 0.5297434926
-30.80147934 -31.74663544 1.348518729
-28.87142181 -29.89613342 2.744840384
-44.07162094 -45.08573151 5.960107327
-5.108654022 -6.014909267 1.641475916
-5.142490387 -6.041741371 1.905004501
-5.066124439 -5.956663609 2.144589186
-5.243785381 -6.115597248 2.732449532
-5.383732319 -6.247076035 3.068757534
-30.80827713 -31.53884888 1.344509125
-28.87296677 -29.68572998 2.735625029
-44.24160004 -44.94697189 5.95879221
-5.342097759 -6.211239815 1.676998258
-5.117909908 -5.979661465 1.895205379
-5.069918633 -5.925074577 2.140503407
-5.252521515 -6.087682247 2.72851491
-5.289390564 -6.116564751 3.020581245
-30.81542778 -31.33279228 1.340523481
-28.84633446 -29.46891022 2.725469828
-44.43099594 -44.82718658 5.959762096
-5.308379173 -6.14091301 1.667942405
-5.30800581 -6.133306503 1.932201862
-5.081957817 -5.901791096 2.138651371
-5.634465218 -6.427719593 2.862410069
-5.340645313 -6.130147934 3.034018993
-30.80438042 -31.11026382 1.336230993
-28.83493805 -29.25876808 2.715976715
-44.7409935 -44.82530975 5.974720955
-5.17688179 -5.977257729 1.642974496
-5.272662163 -6.062169552 1.920287967
-5.240756035 -6.014708519 2.441302061
-5.665023327 -6.418742657 2.866072416
-8.467461586 -9.162093163 0.524554491
-30.80935097 -30.90492821 1.332243443
-28.85386086 -29.07976341 2.708578348
-44.92307663 -44.69657898 5.974802017
-5.193226814 -5.957746506 1.642367959
-5.280833721 -6.034054756 1.917784691
-5.052136898 -5.803163052 2.120798349
-6.271818161 -6.977730274 2.75943017
-5.698368549 -6.41230917 2.870746613
-5.241053104 -5.960885525 2.976271629
-8.524920464 -9.160337448 0.5230526328
-30.82619858 -30.71243668 1.328481317
-28.8374691 -28.86759377 2.698894978
-45.11339188 -44.57542419 5.975843906
-5.419421196 -6.141122818 1.676178217
-5.304519176 -6.021046638 1.918616295
-5.08208847 -5.797724724 2.123781681
-6.352245331 -7.01253891 2.777474403
-5.982888222 -6.646867275 2.966897964
-5.489843369 -6.163825512 3.071985722
-24.41172409 -24.34500504 1.212731242
-28.80556107 -28.64202309 2.688264132
-45.27179718 -44.42309952 5.973237038
-5.533266068 -6.211967468 1.691212296
-5.251105309 -5.934075832 1.903071761
-5.123275757 -5.794082642 2.386421442
-5.746502876 -6.379252911 2.872946024
-5.484830856 -6.122101307 3.061805725
-30.85634613 -30.3173027 1.32073617
-28.78878593 -28.42303848 2.678291321
-45.47622299 -44.29940796 5.974881172
-5.203876495 -5.860991478 1.634198427
-5.262470245 -5.907948017 1.901154995
-5.835487843 -6.443130493 2.310450554
-5.134823799 -5.770746231 2.38428688
-5.771425724 -6.364408016 2.874558926
-5.456837177 -6.057156086 3.041828156
-29.05486107 -28.40703773 1.285835147
-28.74864006 -28.19307327 2.66728878
-6.015818119 -6.602757454 1.471080542
-5.948373795 -6.53084898 1.751667261
-5.688170433 -6.275048733 1.986818552
-5.93215847 -6.495478153 2.330099821
-5.161896706 -5.762101173 2.386991978
-5.823097706 -6.37462759 2.885818243
-5.456875324 -6.020960808 3.033951759
-29.06724358 -28.23659325 1.282474875
-28.71014023 -27.96646309 2.656480789
-5.967988491 -6.519916534 1.463105559
-5.843595982 -6.393049717 1.731131673
-5.743060589 -6.288935661 1.993973613
-5.966602802 -6.490506649 2.333774805
-5.501081467 -6.045126915 2.486056328
-5.88764286 -6.396430969 2.901640415
-5.481053829 -6.009292126 3.036445618
-29.11132622 -28.08722687 1.279474735
-28.71092606 -27.78779602 2.648713589
-5.565346241 -6.10430336 1.415058017
-5.777136326 -6.292640209 1.716918826
-5.772579193 -6.280608654 1.995994449
-5.981916428 -6.465579987 2.332220793
-5.784181118 -6.273748398 2.567495346
-5.837944508 -6.313682556 2.876857519
-5.438625336 -5.934109211 3.011320114
-29.30834389 -28.08986473 1.279231429
-28.8427906 -27.72276306 2.649054527
-6.02666235 -6.498123169 1.464545131
-5.851881981 -6.326089859 1.725620985
-5.977389336 -6.424329281 2.325857639
-5.572163582 -6.040519238 2.496258497
-5.847054958 -6.284029484 2.872872353
-5.469610214 -5.928935528 3.016685724
-29.50603104 -28.08227539 1.278777242
-29.05205154 -27.73810959 2.654764175
-6.052084446 -6.482441902 1.464755416
-5.898642063 -6.331163406 1.729622722
-5.8398633 -6.269214153 2.001514912
-5.930754662 -6.32459116 2.895805597
-5.508584499 -5.929105282 3.024899483
-30.71038818 -28.99420929 1.29491818
-29.26495361 -27.74590874 2.660241365
-5.376224995 -5.824576378 1.386804581
-5.909371376 -6.30484724 1.728040218
-5.782751083 -6.179460049 1.985352993
-6.055860043 -6.40001297 2.932911634
-5.46813345 -5.857028008 3.000930548
-30.72536659 -28.81157875 1.291272044
-29.47678566 -27.751194 2.665592432
-5.396380901 -5.808448315 1.386731863
-6.032196045 -6.376570225 1.743900895
-5.799794197 -6.157878399 1.984619379
-5.978524208 -6.309867859 2.310044765
-6.076207638 -6.377702713 2.932436228
-5.504143715 -5.854491711 3.007989883
-30.73350143 -28.62382698 1.287526488
-29.73816299 -27.79034805 2.673620224
-5.446080685 -5.818955421 1.389928699
-6.024802685 -6.33151865 1.739254594
-6.474700928 -6.726245403 2.118962288
-5.390751839 -5.743922234 2.155616283
-6.10271883 -6.362836838 2.93451643
-5.588778496 -5.895160675 3.034572363
-30.82710457 -28.51375198 1.285174131
-30.00567055 -27.85176277 2.682770014
-5.476624966 -5.811877728 1.390992284
-6.029009819 -6.297183514 1.736473083
-5.798258305 -6.082938671 1.975893259
-5.396027565 -5.714566708 2.152244091
-5.679937363 -5.960059643 2.499895811
-6.115224361 -6.337359428 2.932051659
-5.603544712 -5.873001099 3.033002853
-31.06376266 -28.53095245 1.285104871
-30.26968575 -27.89843178 2.691204548
-6.012810707 -6.246782303 1.730686188
-5.542835236 -5.819886684 1.919582367
-5.709431648 -5.950485706 2.502980709
-5.576534271 -5.814076424 3.014780283
-31.30241966 -28.54816055 1.285023332
-30.50746918 -27.91974258 2.697913647
-47.54144287 -42.92758179 5.985834122
-5.132007599 -5.431776524 1.589652061
-5.721333027 -5.925319195 2.500792503
-6.197123051 -6.332641602 2.946331501
-5.637144566 -5.832342148 3.031579256
-31.52352905 -28.54821396 1.284621
-30.73377609 -27.92917061 2.70383811
-47.33179474 -42.44830322 5.943397999
-5.189696789 -5.450473309 1.595777154
-5.413576603 -5.6378088 1.885544181
-5.755190372 -5.919365406 2.505186319
-6.254218102 -6.343924046 2.959036112
-6.210033417 -6.294945717 3.251545429
-31.74350357 -28.54574203 1.284160972
-30.95449829 -27.93209457 2.709354639
-47.50557327 -42.30759811 5.942902565
-5.519640923 -5.703893185 1.643959045
-5.377944469 -5.573471069 1.874573588
-5.02073288 -5.254917145 2.040197849
-5.776680946 -5.90073204 2.50560379
-6.45593071 -6.47769928 3.02135849
-5.743000984 -5.854018211 3.058837175
-31.94749641 -28.51819038 1.283216953
-31.21354485 -27.95714378 2.716770649
-6.23946619 -6.300098896 1.462050319
-5.692791462 -5.819622993 1.667708158
-5.35621357 -5.52012682 1.866302013
-5.798713684 -5.88429594 2.506478548
-6.456495762 -6.438681602 3.014279842
-5.711874008 -5.790496349 3.038869143
-47.97146225 -42.07806778 1.525913835
-31.44726753 -27.96790886 2.722960711
-47.89085007 -42.04301453 5.945068359
-5.59776783 -5.701723099 1.649829865
-5.349882126 -5.482083321 1.861370325
-6.507932663 -6.441236019 3.024394035
-5.621099472 -5.678639889 2.995983601
-48.12144089 -41.93050003 1.522628784
-31.67669868 -27.98289871 2.729235888
-48.07600403 -41.9252739 5.946787834
-5.609871864 -5.681516171 1.648979068
-5.325983047 -5.430985451 1.853145242
-5.838798046 -5.849645138 2.507363319
-6.528468609 -6.423194408 3.024955988
-5.754265308 -5.758766651 3.041452169
-13.26132298 -12.15028381 0.3818073273
-48.36968231 -41.85150528 1.520523429
-31.91741562 -27.99626923 2.735727072
-48.27414322 -41.80348587 5.948945522
-5.663004875 -5.692673206 1.654116988
-5.322228909 -5.395752907 1.848819256
-6.565718174 -6.415226936 3.0305264
-5.853661537 -5.807491302 3.073117495
-13.23315144 -12.04729366 0.382843256
-43.49397659 -37.47690201 1.441624522
-32.15555191 -28.00570869 2.741995096
-48.45116043 -41.67773438 5.949796677
-6.058532715 -5.990995884 1.711434126
-6.612259865 -6.445401669 2.101641178
-6.601507664 -6.405828953 3.035584927
-6.292788506 -6.139777184 3.237217188
-13.20249653 -11.94693851 0.3839345276
-33.19805527 -28.62166214 1.282784224
-32.44148254 -28.06307793 2.751504183
-48.64722824 -41.55298615 5.951732635
-6.01990509 -5.92271471 1.702387452
-6.624655724 -6.418346405 2.099950552
-5.872680187 -5.782629013 2.224259615
-6.606534004 -6.372727871 3.030544281
-6.358557224 -6.156755447 3.255069733
-13.17015362 -11.84205914 0.3850731552
-33.21763229 -28.4418335 1.279069066
-32.70218277 -28.08758926 2.758991957
-44.56744385 -37.8799057 5.501418591
-6.061084747 -5.922977448 1.705650926
-6.736959457 -6.472002983 2.117789268
-5.824640274 -5.708262444 2.207906723
-6.606396198 -6.333582878 3.023453712
-5.639420509 -5.529156208 2.969195843
-13.16809368 -11.76298428 0.3852742016
-33.22710037 -28.25458717 1.275214791
-32.9264679 -28.08008766 2.764218807
-44.60131073 -37.64542389 5.48789835
-6.107815742 -5.925742626 1.709579349
-6.765666962 -6.455940723 2.119069099
-5.879539967 -5.718998432 2.216691494
-6.669023037 -6.345898628 3.037603855
-5.63348484 -5.491214275 2.960160971
-13.13469887 -11.65872097 0.3864205182
-33.41838074 -28.21694946 1.274018288
-33.1696434 -28.08654976 2.770519495
-49.23526764 -41.17478943 5.957518101
-6.117713451 -5.898084164 1.707944989
-5.887317657 -5.6909585 2.214015007
-13.11811638 -11.56514835 0.3870468438
-33.57252884 -28.14806557 1.272253752
-33.45974731 -28.12947655 2.77954936
-49.41008377 -41.03022385 5.957226276
-6.146883011 -5.88435936 1.709061265
-5.911791325 -5.67650938 2.215399742
-6.516799927 -6.143850803 2.972332239
-6.438325882 -6.07191658 3.255360365
-13.09917831 -11.47412872 0.3877274394
-28.51609612 -23.87988281 1.19586587
-33.71491623 -28.13217354 2.786005974
-49.61707306 -40.91120148 5.960303783
-6.159686089 -5.859111309 1.707884669
-6.458093643 -6.050522327 3.255425692
-13.09042168 -11.39565563 0.3880814016
-28.7023201 -23.86519814 1.195127964
-49.94104767 -40.96424103 3.736160755
-49.79582214 -40.76880646 5.960439682
-6.473282337 -6.025483608 3.253769636
-13.08936214 -11.32005405 0.3881940842
-50.05270767 -40.66082001 1.492353439
-49.94174194 -40.67886734 3.724042892
-50.00695801 -40.65169525 5.963938713
-49.99898529 -40.58029938 8.209272385
-6.492895126 -6.003955364 3.253828526
-13.07538128 -11.2346735 0.3886898756
-50.23515701 -40.52061081 1.489003539
-50.16202164 -40.56872559 3.724864006
-50.21162033 -40.52865219 5.966758251
-50.19723129 -40.45205688 8.214084625
-6.526037216 -5.992962837 3.259034395
-13.06883526 -11.15568829 0.3889478445
-50.26707077 -40.27617645 1.483839989
-50.32085419 -40.40940857 3.722075701
-50.29301453 -40.32247543 5.957810402
-13.06958485 -11.08652401 0.3889701366
-49.81964111 -39.65990067 1.472100616
-49.84819031 -39.70719528 5.895017624
-6.617874622 -5.993815899 3.279778957
-13.05578995 -11.00645351 0.3894263506
-49.46397781 -39.10686111 1.461439133
-49.57128525 -39.29184723 3.655953407
-49.55795288 -39.20370102 5.847556114
-13.05445385 -10.93284035 0.3894939721
-49.05745316 -38.5202713 1.450191498
-49.33123016 -38.75368881 5.806900024
-6.601866722 -5.90794754 3.259275436
-13.04799271 -10.85572529 0.3897073567
-13.37597847 -11.08505058 0.9667098522
-48.82852554 -38.17381287 3.590033054
-49.52220917 -38.62585831 5.808890343
-6.628748894 -5.891702652 3.262172699
-13.01896477 -10.75839806 0.3905982971
-13.35719776 -10.99731731 0.9649131298
-48.8248024 -37.90177155 3.57846117
-55.4943161 -42.86932373 6.395034313
-6.644854546 -5.867301941 3.261065483
-13.03564453 -10.69971848 0.3900844157
-13.3285141 -10.89911366 0.9629182816
-49.04017639 -37.78259659 3.578871489
-54.92443848 -42.12226105 6.317451
-6.698694706 -5.869081497 3.273641825
-13.03604889 -10.62908745 0.3900564909
-13.28793812 -10.79640961 0.9608566165
-13.0329113 -10.55619431 0.3901265264
-13.3206768 -10.75230789 0.9598324299
-54.16308594 -40.97649384 6.204581261
-6.732863426 -5.823204041 3.272577763
-12.99875927 -10.46438408 0.3911340535
-53.77293015 -40.39764023 6.147326946
-6.754919052 -5.802963257 3.27374053
-12.98517418 -10.38479805 0.3915030956
-53.38868713 -39.84306717 6.091954231
-6.769830704 -5.779334545 3.272644281
-12.98735523 -10.32059479 0.3913841844
-53.04036713 -39.30561066 6.03962183
-12.99089432 -10.24735355 0.3912043273
-13.24248123 -10.41145992 0.9527897835
-52.77724838 -38.8879509 3.720013857
-52.69881439 -38.76419449 5.987450123
-12.96481228 -10.16358376 0.3919287026
-13.23649216 -10.34080887 0.9512929916
-52.33767319 -38.24178314 5.935449123
-12.96604252 -10.09975624 0.3918108642
-52.02891159 -37.74767303 5.888074875
-53.19258118 -38.50372314 8.294099808
-12.95060062 -10.02109909 0.3921883106
-51.68648148 -37.31380463 3.626464367
-51.68470764 -37.23324585 5.837564468
-53.36167908 -38.34387207 8.294967651
-12.94295979 -9.948390007 0.3923181593
-51.38451767 -36.83317566 3.598719835
-51.83786011 -37.07077026 5.835834026
-53.54333878 -38.192379 8.297636032
-12.93653488 -9.873588562 0.3923955262
-51.13890457 -36.39611816 3.574245453
-53.77372742 -38.14262772 6.007167339
-53.75563812 -38.04764557 8.303482056
-12.93806744 -9.808012009 0.3922258317
-51.32156372 -36.24469757 3.572639227
-53.95976257 -37.9929924 6.008099079
-53.96110535 -37.91128159 8.309514046
-12.92455482 -9.735766411 0.3925135434
-54.39427948 -38.09523392 3.728366137
-54.17174911 -37.86048889 6.011540413
-54.16956329 -37.77617264 8.315968513
-12.91223145 -9.661454201 0.3927493393
-13.20643997 -9.840975761 0.9405730963
-54.52402496 -37.90512466 3.723822594
-54.36366272 -37.71354294 6.013041496
-54.37787247 -37.65401077 8.323527336
-12.91930676 -9.597367287 0.3923750222
-13.18111801 -9.756925583 0.9388189316
-54.73596573 -37.77038193 3.723702431
-54.57176208 -37.57683563 6.016096592
-54.55920792 -37.48524857 8.325123787
-12.90296841 -9.521162033 0.3927151859
-54.95405197 -37.62501144 3.723315477
-54.75634384 -37.4236412 6.016899109
-54.77169418 -37.35052109 8.332159042
-12.92309093 -9.472842216 0.3919389546
-55.20895767 -37.53093338 3.726012468
-54.99232864 -37.31771851 6.023441315
-54.95432663 -37.20903778 8.336201668
-12.88960075 -9.389295578 0.3927962184
-55.14348221 -37.22454834 3.711680889
-55.18292999 -37.16704559 6.024810791
-55.15156937 -37.07654953 8.342263222
-12.88540649 -9.319077492 0.3927294016
-55.32035828 -37.06463623 3.709671259
-55.38650894 -37.02420807 6.027410984
-55.3678627 -36.92815781 8.348735809
-12.88277531 -9.253424644 0.3926151097
-55.52655792 -36.90946198 3.708631039
-55.58139038 -36.87496567 6.029188156
-55.61422729 -36.8120842 8.360404968
-12.873353 -9.186893463 0.3927105665
-55.74837494 -36.79109573 3.709523678
-55.802742 -36.74205017 6.033455372
-55.80693054 -36.66042328 8.36476326
-12.87854385 -9.126881599 0.3923390806
-55.95270157 -36.64683533 3.708912134
-55.99695969 -36.59087372 6.035163403
-56.009758 -36.52830505 8.37159729
-12.86489773 -9.055161476 0.3925370872
-56.16176605 -36.50478745 3.708528519
-56.69125748 -36.75530624 6.083591461
-56.2689743 -36.41723251 8.384963989
-12.8526001 -8.984700203 0.3926853836
-56.96246338 -36.73408127 3.738777399
-56.92129135 -36.62280273 6.088493347
-12.83657742 -8.912308693 0.3929401338
-57.22982407 -36.62388992 3.741245508
-57.13754654 -36.48071289 6.09209919
-12.82360458 -8.842233658 0.3930930495
-57.2796936 -36.37761307 3.732489347
-57.35009766 -36.3354454 6.09535265
-12.83755589 -8.789089203 0.3924090266
-57.49195099 -36.23185349 3.732094526
-57.56574249 -36.19120789 6.098883152
-12.79666519 -8.702645302 0.3934053779
-57.71412659 -36.09127426 3.732184649
-57.79470825 -36.05419922 6.103630543
-12.7895422 -8.637276649 0.3933540285
-57.9496994 -35.95785522 3.732931614
-58.00634384 -35.90571594 6.106772423
-12.79621029 -8.58354187 0.3928833604
-14.47124767 -9.567570686 0.930138588
-58.16865158 -35.82720184 3.733368874
-58.21154404 -35.76635361 6.110129833
-12.78853321 -8.518407822 0.3928332031
-58.37973785 -35.67712021 3.732824087
-58.45339966 -35.6341362 6.116012096
-12.8167057 -8.474780083 0.3916676641
-58.58359146 -35.52191544 3.731895924
-58.64694214 -35.47231674 6.117480755
-12.80333138 -8.406781197 0.3917769492
-58.83189774 -35.39198685 3.733176231
-58.83318329 -35.30553436 6.118291378
-12.81037903 -8.35103035 0.3912468255
-17.44532204 -11.02039814 0.9519754052
-59.0385437 -35.23664474 3.732345343
-59.09141159 -35.17990875 6.125614166
-12.82931805 -8.302313805 0.3903400004
-17.4562664 -10.94550323 0.9502212405
-59.25868607 -35.08826828 3.73216629
-59.29418182 -35.02108002 6.127910137
-59.48544693 -34.94273758 3.73229146
-59.50099945 -34.87756729 6.131363869
-12.84798527 -8.197128296 0.3891120553
-59.66426849 -34.78277969 3.730581522
-59.92276764 -34.66713715 3.732777596
-60.11727142 -34.50066376 3.731248379
-12.96547127 -8.085564613 0.3843987584
-60.36262894 -34.34788895 3.731633663
-12.98916435 -8.042570114 0.3833075166
-60.57151794 -34.20144272 3.731318712
-13.01395416 -7.997225761 0.3821543753
-60.76833344 -34.03380966 3.729848623
-13.03980923 -7.949524879 0.3809387982
-61.03152847 -33.90131378 3.731565237
-61.25096893 -33.73027039 3.730592012
-61.45368195 -33.56315994 3.729344845
-61.69838333 -33.41738892 3.730083704
-63.97177887 -34.53634262 6.368126392
-13.19364738 -7.744084835 0.3740881681
-62.58340454 -32.78862 3.728861809
-54.89884567 -28.64426041 3.358655214
-54.99259567 -28.23509407 3.34503746
-54.68503952 -27.82076073 3.320442438
-54.50233078 -27.49476814 3.302701712
-54.89367676 -27.44878578 3.311461449
-54.8158493 -27.18712234 3.299102068
-54.83485794 -26.73846436 3.282066107
-54.83440018 -26.50463486 3.272926092
-54.83297729 -26.27112389 3.263785124
-55.03041458 -26.12953758 3.263634205
-55.64599991 -26.17696953 3.282206297
-56.00382233 -26.10395241 3.289104939
-56.50781631 -26.09383965 3.302434206
-56.60660934 -25.9012928 3.297674179
-56.88712311 -25.7999897 3.30140996
-57.17193222 -25.68712044 3.304828644
-64.32013702 -28.2672348 3.599578857
-68.20001984 -29.3431282 3.747128963
-68.01715851 -29.00236511 3.729059458
-67.49615479 -28.25059509 3.686015368
-67.00990295 -27.51029968 3.644424438
-66.73064423 -27.13004494 3.622273207
-66.44955444 -26.75205612 3.600172997
-66.35761261 -26.43658829 3.585674763
-66.00584412 -26.03697777 3.560836554
-65.78673553 -25.6908741 3.541700363
-65.49432373 -25.33291245 3.520105362
-80.86995697 -30.85441971 10.21165371
-65.26776123 -25.00207901 3.501367569
-65.31420135 -24.76041794 3.493556976
-65.48002625 -24.56217575 3.490700245
-65.79959106 -24.41823769 3.494157791
-66.97977448 -24.74507904 6.029832363
-66.02474213 -24.23904037 3.493690014
-66.27207184 -24.06649017 3.494101286
-66.54569244 -23.88870811 3.495063305
-66.81091309 -23.73255348 3.496613741
-67.03435516 -23.54784393 3.495952368
-67.43914795 -23.43565178 3.503051043
-67.70742035 -23.26281357 3.504108667
-79.8866806 -27.07432747 9.889612198
-67.8081131 -23.03378868 3.498426914
-79.978508 -26.79509735 9.881824493
-67.67218018 -22.72828484 3.483328104
-67.46257019 -22.40093994 3.465380669
-67.72046661 -22.2229538 3.466019154
-24.19766426 -8.410750389 0.855451107
-67.97996521 -22.05708313 3.467163086
-69.43896484 -22.42640686 6.068095207
-24.24919319 -8.338724136 0.8532675505
-68.24291992 -21.89090919 3.4684062
-24.31391144 -8.270490646 0.8511081934
-68.48831177 -21.71798515 3.468923807
-68.77883148 -21.53116226 3.470209599
-24.46125031 -8.119895935 0.8463006616
-69.02313232 -21.342062 3.470133781
-24.48244667 -8.033392906 0.8438762426
-69.31301117 -21.16496086 3.47178936
-69.58328247 -20.98054504 3.472643614
-69.89888763 -20.79434395 3.474721193
-70.13404083 -20.6100502 3.474624157
-19.20536041 -6.197047234 4.338988304
-19.25830841 -6.139173031 4.343391895
-71.51239777 -20.47308159 3.508408308
-19.37194443 -6.097318649 4.359003544
-71.75419617 -20.27025223 3.507870436
-19.38082504 -6.027042866 4.355318069
-72.05727386 -20.08241272 3.509615183
-84.92339325 -23.38754654 7.068283081
-20.19598007 -6.195925713 3.754166842
-72.35216522 -19.89067841 3.511004925
-84.78193665 -23.04925728 7.044268131
-20.23766136 -6.131260395 3.755520344
-13.40502262 -4.292887688 4.772490025
-13.31629372 -4.336168289 0.8062141538
-13.35705853 -4.322538376 2.255565643
-13.36466408 -4.307992458 2.744605541
-13.36174297 -4.288139343 3.23666501
-13.33545303 -4.264716625 3.729361057
-13.36602497 -4.252930641 4.241738796
-13.37245464 -4.234788895 4.757856846
-13.29488468 -4.299921036 0.3259907067
-13.3049345 -4.283779144 0.8048496842
-13.31044579 -4.29861784 1.285137892
-13.33448124 -4.285971642 1.767197609
-13.32605267 -4.267481804 2.249638796
-13.33827019 -4.251624107 2.737648964
-13.3718338 -4.240929127 3.234974146
-13.34552765 -4.217585564 3.727603674
-13.36671448 -4.203352451 4.23747921
-13.39190388 -4.189791679 4.758725643
-13.30466843 -4.25304985 0.3247247338
-13.29531288 -4.231994152 0.8034889102
-13.32227039 -4.252139568 1.283802748
-13.31534767 -4.231650352 1.763589382
-13.33980465 -4.221393108 2.24851203
-13.35008812 -4.204994678 2.736308813
-13.35690022 -4.187576294 3.228737116
-13.37063694 -4.174143791 3.729187012
-13.38230133 -4.157482147 4.237105846
-13.45603752 -4.155543327 4.77286911
-13.32592773 -4.209038734 0.3230502009
-13.33403492 -4.192299366 0.8021825552
-13.33393002 -4.205623627 1.282464385
-13.34442425 -4.189431667 1.763526082
-13.3572588 -4.176198483 2.247804165
-13.4098444 -4.170043468 2.741975546
-13.41065598 -4.151062965 3.235076904
-13.38609695 -4.128279209 3.728675842
-13.37285042 -4.168759346 0.3204216659
-13.35708046 -4.161909103 1.281553864
-13.39081573 -4.151287556 1.764729261
-19.35121346 -5.570241451 2.899103403
-19.62756348 -5.6126647 3.643723249
-20.14954758 -5.709124088 4.45975399
-27.18015671 -7.40810442 0.8118068576
-19.74933434 -5.645356178 1.515205622
-19.37922478 -5.505376339 2.898416281
-20.0054245 -5.625715256 3.694003344
-20.09566498 -5.621995449 4.44481039
-27.19100761 -7.310489655 0.8090543151
-19.91906929 -5.58825922 2.234638214
-19.18236923 -5.38783884 2.873296261
-20.13121796 -5.584850788 3.708032131
-20.07595634 -5.543285847 4.436152935
-27.17703438 -7.212193012 0.8064192533
-19.91131783 -5.516758442 2.231034517
-19.20122528 -5.325053215 2.871873856
-20.11300659 -5.506522655 3.700962067
-27.19303322 -7.116007328 0.8036651611
-19.79654312 -5.445227623 1.509414434
-19.31181335 -5.279502392 2.880228281
-20.06663895 -5.42579031 3.690083742
-20.09529305 -5.378204346 5.174554825
-27.16186714 -7.009251595 0.8008831143
-19.99951935 -5.418371201 1.514208555
-19.34002304 -5.218427658 2.879837275
-20.03814888 -5.345779896 3.681625128
-20.74507904 -5.472880363 4.542591095
-20.12273216 -5.310405731 5.175013065
-27.20058441 -6.918344498 0.7981330752
-19.71279907 -5.281356812 1.501230955
-21.34609795 -5.614142895 2.324867964
-19.83504105 -5.256185532 2.929694653
-20.05578613 -5.276153088 3.679867744
-20.07607079 -5.251859665 4.416615009
-20.12317657 -5.236710072 5.169634819
-27.19404984 -6.817457199 0.7953603864
-20.02484322 -5.277379036 1.509934306
-19.02101898 -5.031258583 2.154435396
-19.89117813 -5.19568634 2.932079077
-19.98991013 -5.188605309 3.666115284
-20.26874352 -5.219399452 4.446563244
-20.161623 -5.171171665 5.172579288
-27.23407555 -6.726734161 0.7925959826
-20.01075554 -5.20116806 1.506843328
-19.02570152 -4.962738037 2.15179944
-20.10278702 -5.16788435 2.951203346
-19.63492012 -5.04070425 3.610856533
-20.45180321 -5.183630943 4.474733353
-27.3080349 -6.64797163 0.7899637222
-19.80399132 -5.088086605 1.496990919
-19.33598709 -4.961923122 2.1711936
-19.85224152 -5.045879364 2.92080164
-19.65270233 -4.976305962 3.609509945
-20.43347549 -5.108934402 4.466845036
-27.52964592 -6.594382763 0.78717345
-19.66394615 -4.986828327 1.489452124
-20.00476456 -5.02944088 2.215957165
-19.99808502 -4.999793053 2.932676315
-20.0106144 -4.977568626 3.656754017
-19.7013073 -4.886378765 4.330403328
-27.89037323 -6.56758213 0.7843195796
-19.56722641 -4.891976833 1.483373046
-20.25188828 -5.006732941 2.230490685
-20.27769279 -4.983294487 2.959029198
-20.08206177 -4.915376186 3.662667036
-19.63047028 -4.800599575 4.313119411
-19.54121971 -4.819220066 1.480082154
-20.38169479 -4.958978653 2.236625433
-20.59060097 -4.97144556 2.988869667
-20.27046776 -4.883040905 3.685719728
-19.59600639 -4.722527981 4.302437305
-19.69800949 -4.779177189 1.483135223
-20.49112511 -4.910117626 2.241447926
-20.89124298 -4.958839417 3.017501593
-20.20675659 -4.797190666 3.672533274
-19.56830597 -4.64964819 4.293248177
-19.6735363 -4.706633568 1.479903221
-20.36798668 -4.81221962 2.229634047
-20.61437225 -4.830358982 2.984330893
-20.7375164 -4.828094482 3.74436903
-19.90494156 -4.641964912 4.349081993
-20.4270153 -4.759188175 0.7769424915
-19.79673576 -4.658816814 1.481738091
-20.2130394 -4.709318638 2.215627432
-20.50824356 -4.73961544 2.969627142
-20.1866703 -4.650731564 3.661825657
-20.26307869 -4.635901451 4.408652782
-19.7822876 -4.584580421 1.478740335
-20.55597496 -4.699616909 2.236784697
-20.18522644 -4.606205463 2.931768894
-19.37565422 -4.430078983 3.542543888
-19.78207588 -4.475741863 4.318338871
-19.75576591 -4.508339405 1.475333452
-20.84345055 -4.681247711 2.254109859
-20.04751778 -4.508558273 2.913700104
-19.51489258 -4.384973526 3.558541298
-19.78448105 -4.408306599 4.314670086
-20.41160774 -4.489940643 5.175638199
-40.91156387 -8.19201088 0.7538738847
-19.86408997 -4.460086346 1.476742148
-20.57771683 -4.558879852 2.232373476
-19.9622612 -4.421244144 2.901258707
-19.58124924 -4.329737663 3.564373016
-19.78145218 -4.336429596 4.309860229
-41.07465744 -8.073322296 0.7495188117
-19.53980064 -4.331646919 1.463052869
-20.63768387 -4.495221615 2.233551979
-19.97011566 -4.354309559 2.898883581
-20.32355881 -4.386478424 3.665750742
-19.79758644 -4.267920971 4.308503151
-41.13885117 -7.93672514 0.745228231
-19.60096931 -4.271897793 1.462728143
-20.52634048 -4.402017593 2.222752571
-20.70404816 -4.406715393 2.973002672
-20.34567833 -4.317082405 3.665026903
-19.79793549 -4.196750164 4.30437994
-19.62056732 -4.204795361 1.460968494
-19.99343491 -4.239331722 2.182589054
-20.70853806 -4.333076 2.970028639
-20.36364746 -4.246930599 3.663744211
-19.8096981 -4.127523899 4.302325249
-19.64782143 -4.138899803 1.459473133
-20.00707817 -4.169826508 2.180651426
-20.80762482 -4.271097183 2.976862192
-20.41267014 -4.181724072 3.666870594
-19.9554615 -4.079628944 4.324056625
-20.04245186 -4.064465523 5.072879791
-19.57871437 -4.053850174 1.454574108
-20.27465248 -4.140873432 2.196370602
-20.82342339 -4.199017525 2.975111723
-20.29963303 -4.087158203 3.646998882
-19.96097374 -4.008944035 4.320946217
-19.99968147 -3.986004114 5.05922699
-19.53778458 -3.980830431 1.450896978
-20.20515633 -4.057442665 2.188656092
-20.83503914 -4.126266479 2.972943783
-20.20464516 -4.003523827 3.630115271
-19.97013283 -3.938853502 4.3185215
-20.05668068 -3.926545143 5.067155361
-19.65318489 -3.928749323 1.452404261
-20.42078209 -4.021748066 2.200853109
-29.063797 -5.300939083 3.831585169
-20.06480789 -3.910288334 3.606813192
-19.90835571 -3.86179781 4.303807259
-20.11791992 -3.863798857 5.075790882
-19.7916584 -3.882924557 1.454788685
-20.08830833 -3.899194717 2.175006151
-20.86089706 -3.984866858 2.969116211
-20.18276787 -3.859462261 3.619951248
-19.79220963 -3.773797035 4.279367924
-20.44671822 -3.908635139 1.474377036
-20.4858036 -3.885402918 2.199582338
-20.83578491 -3.910511255 2.963344097
-20.18150711 -3.787240505 3.616191626
-19.76542854 -3.699346542 4.270765781
-20.57587433 -3.854290724 1.476212502
-20.5436554 -3.820593119 2.200700521
-21.03354073 -3.864072084 2.980676651
-20.27809143 -3.728735209 3.626163006
-19.70128441 -3.620005846 4.255639076
-20.55049133 -3.777476311 1.472870231
-20.64676285 -3.761717558 2.204925776
-21.05581474 -3.792210579 2.979703903
-20.33329582 -3.663997173 3.630349398
-20.46936607 -3.693315506 1.467689037
-20.48670769 -3.666666031 2.191109657
-21.09214973 -3.718392849 2.980048418
-20.33722687 -3.592151403 3.627391815
-20.3170433 -3.596734762 1.460054874
-20.48498917 -3.589986086 2.188038826
-21.17508698 -3.654194832 2.985408783
-19.74588776 -3.411787748 4.252067089
-28.93631744 -4.637214184 1.741855264
-20.53002739 -3.522996902 2.188315392
-21.21883583 -3.58075428 2.986546755
-19.82334709 -3.351206303 4.261983395
-28.80321884 -4.528082848 1.734355688
-20.68482399 -3.476711512 2.196349382
-21.25453758 -3.521151781 2.98750782
-20.28805733 -3.373033524 3.610402107
-28.43087196 -4.380439281 1.718713999
-20.66015816 -3.400406837 2.191879511
-28.71125031 -4.338226795 3.75497961
-29.38827515 -4.367568016 0.7119343877
-28.33773232 -4.268698215 1.712281346
-28.70934486 -4.272097588 2.735130787
-29.42299271 -4.319178581 3.824148893
-28.18259811 -4.150551319 1.703864098
-28.92932129 -4.195545673 2.74619031
-29.64859581 -4.240432262 3.843042135
-28.07267761 -4.0386343 1.696957111
-28.83572769 -4.082929134 2.736025095
-28.90682411 -4.054668427 3.76235342
-28.23061752 -3.956557751 1.698729992
-28.9222641 -3.990280867 2.73805356
-29.31568336 -3.995653629 3.800157785
-28.28096199 -3.862176418 1.697014093
-29.05561066 -3.907061815 2.743421793
-29.22765923 -3.883150578 3.786889076
-28.18132973 -3.757315397 1.690655708
-29.04429054 -3.803421021 2.738867044
-28.86397362 -3.744195938 3.745431662
-28.1414814 -3.654078245 1.6860708
-29.23669434 -3.724713802 2.748186111
-29.03200531 -3.663478136 3.758729696
-28.37542915 -3.582000256 1.690379143
-29.2386322 -3.621884823 2.744539738
-29.34098625 -3.589467525 3.786212921
-28.41456604 -3.485673189 1.688300729
-29.22980118 -3.523283005 2.740381718
-28.79705429 -3.443295002 3.726797104
-28.65207481 -3.411508799 1.692653179
-28.8711586 -3.389527559 2.712733746
-28.86555099 -3.347735167 3.729782581
-28.9575634 -3.33645463 1.698931932
-29.26571083 -3.320603132 2.735325098
-38.52557373 -3.972444773 0.6444011331
-28.72886467 -3.216278315 1.688398242
-29.25030899 -3.216518879 2.730605602
-38.49216461 -3.83468461 0.6404395103
-28.49408913 -3.092292309 1.677570939
-29.09524155 -3.102046728 2.716650963
-28.50527191 -2.998106003 1.67479074
