# .PCD v0.7 - Point Cloud Data file format
VERSION 0.7
FIELDS x y z
SIZE 4 4 4
TYPE F F F
COUNT 1 1 1
WIDTH 1302
HEIGHT 1
VIEWPOINT 0 0 0 1 0 0 0
POINTS 1302
DATA ascii
31.90007973 -5.775457382 4.543207645
33.84291077 -6.043791771 5.987682819
33.22542953 -5.921580791 7.098783016
10.18977928 -2.421693563 3.478112221
30.94400406 -5.771159649 3.333010912
31.45371819 -5.825147152 4.496648312
33.69524002 -6.141579628 5.971777439
33.95099258 -6.152273178 7.244128227
30.9510479 -5.877384663 3.338380814
31.45449066 -5.932057381 4.502212524
32.19891739 -6.018129349 5.747783661
34.37537766 -6.334487915 7.332156181
30.96559525 -5.985015392 3.344408274
31.34903717 -6.021724224 4.495261669
32.29352188 -6.148632526 5.768996716
33.44354248 -6.306734562 7.162330627
10.11922455 -2.517625332 3.467437267
25.87802696 -5.294859886 1.092827797
62.48411942 -11.45705318 3.738116741
31.019207 -6.110527515 3.354222536
31.55692863 -6.174337387 4.526028156
31.38022041 -6.118191719 5.634963989
33.42277908 -6.428949833 7.166426659
10.11483765 -2.554885626 3.469182253
25.82428741 -5.38310957 1.09555912
25.84763908 -5.361065865 2.011890173
25.86019897 -5.34167099 2.931877851
25.89767265 -5.326338291 3.860719442
25.94046593 -5.306942463 4.800124645
33.07120514 -6.48927021 7.10700655
25.84045982 -5.448040009 2.015138388
25.86278915 -5.430362225 2.936220884
25.90407372 -5.415775776 3.866155863
25.90192413 -5.388698101 4.799386501
25.89722824 -5.365479469 5.74194479
25.93109322 -5.343839169 6.704837322
25.98457909 -5.329596043 7.690609932
62.04837418 -12.09296799 1.542233348
30.53730774 -6.353164673 3.329479694
31.04603577 -6.417781353 4.482905388
30.53092384 -6.300186634 5.522888184
31.81845665 -6.494566917 6.881898403
62.11901093 -12.32958794 1.550869107
61.21133041 -12.11152077 3.713460684
30.53939629 -6.463489056 3.334860563
30.94606209 -6.51139307 4.476992607
30.49776268 -6.404030323 5.524352074
32.03214264 -6.647285938 6.930514812
10.20993996 -2.714991093 3.505797863
76.29763031 -15.21329308 1.734666109
61.90208435 -12.4612608 3.755678415
30.75273705 -6.613215446 3.357939482
30.90246201 -6.61482048 4.477826118
30.28925514 -6.47551012 5.498597622
31.71441078 -6.710156441 6.87766552
9.851088524 -2.686693907 3.413135529
47.69387817 -9.989013672 3.081913233
30.74698257 -6.728682995 3.363048553
31.48793602 -6.842370987 4.554255962
30.2272892 -6.578560829 5.495979309
32.83581161 -7.039796352 7.101475239
9.914565086 -2.735673428 3.433130503
56.14234543 -11.85905266 1.499356627
56.19849014 -11.81260014 3.499477625
30.77601814 -6.850995541 3.371120453
29.80369759 -6.637694836 4.359008789
30.13105392 -6.669306755 5.487723827
31.0741787 -6.822672367 6.770458221
10.0712986 -2.800974369 3.477967262
55.97619247 -12.01931286 1.503990293
56.46355057 -12.05834579 3.520380974
30.78324318 -6.958246231 3.376869678
29.74517059 -6.728663921 4.357666016
30.20830536 -6.787844658 5.506250381
31.00939369 -6.916790485 6.765381336
56.04872894 -12.2269392 1.511688352
55.79530716 -12.1286726 3.496524096
32.52953339 -7.41383028 3.529229641
29.54026604 -6.790202618 4.338754177
30.17931175 -6.891478539 5.508599758
31.03768349 -7.034595966 6.778711796
55.69086838 -12.32001877 3.500397205
40.83649063 -9.232382774 4.23700285
29.31176567 -6.856306553 4.31757021
30.14305878 -6.999056339 5.510216713
31.27437592 -7.200383186 6.832828045
9.475212097 -2.791342735 3.327455997
39.99739075 -9.213871002 4.173679352
29.3204689 -6.96992588 4.324964046
30.06769943 -7.098471642 5.505756378
31.13220024 -7.284736633 6.813423634
40.16863632 -9.39568615 4.195456505
29.35897827 -7.084734917 4.335717678
30.16339302 -7.227887154 5.527861595
31.20525551 -7.413146019 6.835749149
30.87297821 -7.542685986 3.412463427
29.2358532 -7.165339947 4.326972485
30.48279953 -7.405893803 5.585291386
30.43784332 -7.36381197 6.695078373
9.459396362 -2.892938614 3.332398415
41.04417801 -9.880368233 4.284785271
29.17074013 -7.257862568 4.325265408
30.501894 -7.521225452 5.595608234
30.37028885 -7.460196018 6.690104485
9.454004288 -2.926234007 3.334029198
39.82505035 -9.752036095 4.18792057
29.23059082 -7.372395992 4.338451862
29.25740814 -7.352707386 5.406166077
30.29019547 -7.547954082 6.682326317
11.01926708 -3.299560547 3.759083033
36.66794205 -9.191483498 3.925550938
29.18225479 -7.468532085 4.338864803
30.91416359 -7.831108093 5.675252914
30.62546921 -7.739097595 6.75636816
9.571647644 -3.019542694 3.371905327
29.69032288 -7.722962856 3.334008217
29.01433563 -7.542444706 4.32504797
31.12438393 -7.992291927 5.716166019
29.49714279 -7.595244884 6.544616699
31.9563427 -8.12419796 8.216528893
29.3788147 -7.759361267 3.31286025
29.1233387 -7.669008732 4.344400883
31.36080551 -8.161235809 5.76141119
29.4473877 -7.686584473 6.542718887
9.522134781 -3.078320026 3.364998341
29.15009117 -7.807905674 3.298487425
28.45166016 -7.617575169 4.2686553
29.25293732 -7.780872345 5.434459209
30.53241348 -8.048729897 6.763383389
30.99124146 -8.12783432 8.011007309
9.450157166 -3.096549988 3.348777056
29.09066391 -7.901075363 3.298962593
28.44891548 -7.721755028 4.274661064
29.14366531 -7.862493038 5.424497128
29.52039337 -7.920495987 6.573723793
30.940382 -8.229774475 8.008951187
9.523089409 -3.148497343 3.371866703
43.9987793 -11.69678879 3.007483244
29.11807442 -8.015171051 3.306967497
28.44578934 -7.82599926 4.280673027
29.1052475 -7.96068716 5.425841808
29.48744965 -8.021375656 6.575756073
9.43405056 -3.162230015 3.351034164
39.22498703 -10.62926483 4.189097881
29.12283134 -8.098460197 4.370414734
30.49238014 -8.409777641 5.654783726
29.51331329 -8.136597633 6.58941412
10.83678913 -3.53827095 3.736055374
43.40868759 -11.87362862 2.991975307
38.16033173 -10.50663757 4.104273796
29.19538879 -8.224521637 4.386016846
30.58242798 -8.545142174 5.67714119
30.33176422 -8.44943428 6.759217739
30.34096146 -8.423757553 7.898500919
44.08495331 -12.24674511 1.443684101
45.0010643 -12.44324207 3.080296755
29.70929718 -8.489871979 3.375643015
29.0557251 -8.297283173 4.375503063
11.85037518 -3.907577276 2.685369253
30.09507942 -8.502055168 6.721549034
30.95485878 -8.690585136 8.05260849
10.84936333 -3.621576548 3.747350693
44.08372879 -12.41056156 1.449572802
44.33584976 -12.43759918 3.053795815
29.68235779 -8.59337616 3.379217386
28.95244408 -8.378609657 4.369483471
11.81855583 -3.943405628 2.683416843
30.00683594 -8.591170311 6.713141918
30.91725159 -8.795824051 8.054107666
10.69520569 -3.62259531 3.709241629
44.18243027 -12.6011076 1.456994891
46.63596344 -13.20991611 3.179183006
28.98490715 -8.526029587 3.324438095
28.98918152 -8.496027946 4.38082695
11.79427719 -3.981051922 2.682688951
29.94926834 -8.693366051 6.711293221
31.04395866 -8.949343681 8.094892502
10.66848087 -3.655425072 3.705919027
44.46009064 -12.81003571 3.075473309
29.12729836 -8.672198296 3.342798471
29.28891373 -8.689276695 4.425254345
11.83618927 -4.038327694 2.692791224
29.84717751 -8.778030396 6.700228691
31.04883957 -9.066227913 8.106633186
10.74401093 -3.716906786 3.730834484
38.38240433 -11.32580853 2.769231796
29.20553589 -8.802294731 3.355618954
29.5142498 -8.859478951 4.460282326
11.76580334 -4.063631058 2.684680462
29.36537361 -8.760495186 6.613852501
10.71138191 -3.748295784 3.72597909
38.3956604 -11.47336674 2.7764678
29.65604973 -9.035283089 3.401326418
31.07186317 -9.395798683 4.661584377
11.67441273 -4.082763195 2.673168182
29.09828186 -8.797858238 6.569935322
10.85972023 -3.828286648 3.770857334
38.59881592 -11.6743021 2.793616533
38.45339203 -11.59955406 4.185034752
31.15834236 -9.536348343 4.679926872
11.69732285 -4.132870674 2.680127859
28.9776001 -8.879125595 6.555537701
10.52092266 -3.776364803 3.681883335
38.65740585 -11.87771034 1.400080085
37.86310959 -11.61860657 2.762244463
29.54858589 -9.233436584 3.404439926
30.52964783 -9.482632637 4.609233379
11.66996861 -4.17135191 2.679148197
29.55245209 -9.148350716 6.679363251
10.44478798 -3.796702862 3.665257692
38.50158691 -11.97872829 1.402899742
38.44929886 -11.92952061 2.799493074
29.4136734 -9.306236267 3.398669958
30.75308418 -9.6612854 4.644793034
11.64687729 -4.208735466 2.678711653
29.17510033 -9.15282917 6.613504887
10.52549648 -3.858616829 3.691681862
38.42808151 -12.10289574 1.407023907
39.2792778 -12.31601524 2.849784851
29.51021576 -9.445278168 3.413485289
29.56965446 -9.435818672 4.50371933
11.57619286 -4.232334137 2.670550346
30.64081573 -9.682844162 6.916127205
11.05686569 -4.060180664 3.417663336
38.34843063 -12.224967 1.411046505
37.80187225 -12.02985954 2.778862953
29.31167221 -9.498717308 3.402065992
29.3963604 -9.496995926 4.489317417
11.63638496 -4.293633938 2.683704138
29.77755737 -9.547948837 6.753216743
10.61911392 -3.964966297 3.726098061
38.4076767 -12.35392284 2.81756258
29.31941605 -9.612177849 3.409052134
29.51999474 -9.64501667 4.51235342
11.76640034 -4.376101494 2.708321333
33.39610291 -10.72500229 7.489194393
10.57835484 -3.993206978 3.719163179
38.27931213 -12.46119785 2.817582846
28.08640862 -9.352612495 3.304883242
11.73317528 -4.410823822 2.706350088
29.0282135 -9.550348282 6.622377872
11.06719303 -4.188725948 3.432412386
10.53567791 -4.020654202 3.711707115
37.88324738 -12.48594475 2.803353548
27.98023605 -9.427209854 3.301461935
28.34230042 -9.511723518 4.378273487
11.73010445 -4.454526424 2.709330797
28.97841835 -9.645670891 6.622133255
10.52996635 -4.05893755 3.714534998
37.80994797 -12.60792732 2.806254625
27.805336 -9.480023384 3.291848898
28.33067513 -9.61623764 4.384145737
11.34907532 -4.382387638 2.650306463
33.55031204 -11.15293789 7.554051399
10.73757744 -4.17250967 3.361793518
10.59068584 -4.117438316 3.735898018
37.86204147 -12.76896381 2.815887213
27.88148117 -9.610136986 3.304868221
28.51580429 -9.782182693 4.415102959
11.34231853 -4.42364645 2.652625561
30.78770828 -10.4263916 7.007459641
10.75003433 -4.217313766 3.368920565
10.95591545 -4.270089149 3.842258453
33.06244278 -11.39144135 2.564787626
27.96084595 -9.742100716 3.318258524
28.63005257 -9.927425385 4.437181473
11.45415688 -4.502224445 2.674507618
30.83419037 -10.55872631 7.027535439
10.84231758 -4.287230968 3.395297289
10.58395195 -4.196184158 3.743123293
32.99501801 -11.49688911 2.567204475
28.27495003 -9.950028419 3.353027582
28.52043724 -10.00236988 4.430787563
11.51851368 -4.566638947 2.6886518
31.68501282 -10.94668293 7.210801601
10.73350716 -4.294379234 3.373342991
10.63104725 -4.251556873 3.760915756
62.39191055 -21.23352051 1.872170806
33.06404495 -11.64640903 2.577015162
28.27733612 -10.06509876 3.359950542
28.55045891 -10.12181091 4.442270756
11.59947681 -4.637006283 2.70561409
33.71134186 -11.72508335 7.634079933
10.68172264 -4.321096897 3.36531806
10.95771694 -4.396535397 3.857110262
33.14958572 -11.83886337 1.368828058
33.13239288 -11.80298615 2.587161541
28.13699532 -10.12819958 3.353586197
28.51984596 -10.22740841 4.446440697
11.57234764 -4.675102711 2.70493269
11.19743824 -4.540091038 3.065695047
10.64719772 -4.351024151 3.361251354
10.79554367 -4.388425827 3.816731453
33.03528595 -11.9291029 1.371572137
33.45024872 -12.0370121 2.610659599
28.30481339 -10.29271793 3.375379086
28.87312698 -10.45451736 4.49962616
11.61706257 -4.734566212 2.716011763
11.20121574 -4.584560394 3.070494413
10.71075153 -4.412940979 3.38094759
32.99276352 -12.04299355 1.375580907
43.40533447 -15.51929855 3.16135788
28.40381432 -10.43569279 3.39098835
28.92392921 -10.58340454 4.514100075
11.78892899 -4.836915493 2.748298168
10.84799862 -4.499878883 3.418608665
10.72442532 -4.448258877 3.806476116
33.08042145 -12.20128822 1.381933689
32.85519409 -12.09418297 2.590588093
27.71353531 -10.31167889 3.334163427
29.30512047 -10.82482243 4.571324348
11.60271549 -4.819800377 2.72105813
11.13566685 -4.6492939 3.065260887
10.83878422 -4.538840771 3.42084384
10.54491711 -4.429748535 3.760784864
33.30912781 -12.40933418 1.390886664
32.95549011 -12.25680542 2.602345467
27.55399704 -10.36485195 3.325958014
28.62948418 -10.7074976 4.492077827
11.5252018 -4.838471889 2.711879015
31.66243172 -11.67990494 7.275463581
10.84050369 -4.581542015 3.425775051
10.63470364 -4.501078606 3.79102993
32.46847534 -12.21588612 2.581725836
27.53747749 -10.46669769 3.330932379
28.32645035 -10.71426105 4.460836411
11.3730135 -4.830844879 2.690189838
11.15330219 -4.742058754 3.077157259
10.95633984 -4.663529873 3.458569765
10.3640213 -4.44981575 3.71943593
40.83010101 -15.28948021 3.051608801
27.83638954 -10.67948532 3.365154028
28.1024189 -10.74658489 4.439754009
11.33292198 -4.861299038 2.687221766
11.15998077 -4.78795433 3.082731962
10.66302586 -4.604458332 3.391588926
10.19060421 -4.43021059 3.675195456
32.17951202 -12.36760426 2.578155041
27.44134331 -10.64841366 3.335142612
28.02259254 -10.82852077 4.437390804
11.34490776 -4.909946918 2.693006516
11.9386816 -5.10586071 3.247416496
10.86120796 -4.715778351 3.444638252
10.08674717 -4.433708191 3.650581121
32.07899475 -12.45806026 2.578796148
27.62253761 -10.82141876 3.358622313
28.16679573 -10.99032879 4.464288712
11.60967922 -5.049102783 2.741373062
11.85894012 -5.124337673 3.23553586
10.10500813 -4.479722023 3.660633802
41.15509033 -15.89001751 3.093624592
27.66425705 -10.94550705 3.369223356
11.61721802 -5.097557545 2.746575832
11.80877209 -5.152950764 3.22975111
10.84108257 -4.793896198 3.449134588
10.07759762 -4.509634018 3.657744884
41.15664673 -16.05343246 3.101808071
32.02596283 -12.65561676 3.78408742
28.58142662 -11.36441422 4.535083294
11.54292107 -5.116303444 2.737988949
11.74010181 -5.174559116 3.22013545
10.88576031 -4.852859497 3.464898586
10.06826591 -4.545973778 3.66003418
40.95353699 -16.14110184 3.098491192
28.28968048 -11.39653301 3.441473722
28.14036751 -11.31443024 4.48555851
11.62058544 -5.190668106 2.755114794
11.67511368 -5.197092056 3.211271286
10.91551876 -4.906817436 3.477071762
10.05517864 -4.580955982 3.661287308
41.07932281 -16.35129356 3.113768101
27.62580109 -11.26005268 3.386049747
11.77202702 -5.279439449 3.236071825
11.60820103 -5.206960201 3.652950764
10.05464554 -4.620592117 3.666171312
39.97012329 -16.09353256 3.058964729
27.60411453 -11.36190605 3.390908003
11.57450008 -5.252019882 3.199632645
11.55995655 -5.235011578 3.64627862
10.49179745 -4.823932648 3.796628952
40.00240326 -16.26570511 3.068858624
27.78484726 -11.54140377 3.414947033
9.871952057 -4.672729969 2.093766928
9.878211021 -4.665566921 2.470491886
11.48925877 -5.26578474 3.186519623
11.68110561 -5.326970577 3.681579351
11.99905491 -5.435143948 4.235033512
38.42715454 -15.81476307 2.986816645
27.54101753 -11.56387997 3.399223089
9.877109528 -4.714245319 2.097459316
9.868523598 -4.701356888 2.472358227
11.54987812 -5.337305069 3.204132557
11.7973032 -5.420477867 3.71608448
9.534263611 -4.542036057 3.531790972
9.843876839 -4.808251381 0.6150109768
39.70692444 -16.47900772 3.068563938
27.27515984 -11.57054043 3.38098073
9.87402153 -4.754672527 2.100234985
9.869070053 -4.743139744 2.476176739
11.22846985 -5.25889492 3.141515017
11.7575264 -5.452347755 3.711688042
9.540369034 -4.584470272 3.538759947
9.848769188 -4.850014687 0.6159262061
9.841910362 -4.812026501 0.9850722551
9.880993843 -4.818146229 1.357242227
9.891222 -4.812738895 1.730751157
9.864068985 -4.790503502 2.101967335
9.864611626 -4.781095982 2.478991508
11.20668221 -5.297746658 3.141843081
10.68813515 -5.083570004 3.451010227
10.1101265 -4.844978809 3.708372831
9.851618767 -4.857732773 0.9868610501
9.851685524 -4.848348618 1.357689381
9.870013237 -4.844232082 1.731287956
9.851449013 -4.827292919 2.103515863
9.868494987 -4.824427128 2.483447552
11.13080215 -5.312863827 3.130576372
10.67862511 -5.122873306 3.453710079
9.567066193 -4.673631668 3.556814194
35.59119034 -15.30329132 2.854561567
27.72812271 -12.09498596 3.4463346
9.855962753 -4.868994236 2.107221365
9.860060692 -4.860974789 2.485636473
11.09243584 -5.344751358 3.127434731
10.65373707 -5.158240795 3.452857733
9.483575821 -4.679006577 3.537726879
35.65213394 -15.46564388 2.865183353
27.66306114 -12.16986847 3.446644068
9.868365288 -4.912046432 2.111856222
9.852197647 -4.895796299 2.487764835
11.23650932 -5.443462372 3.16214776
10.6310215 -5.187936783 3.451801538
9.440259933 -4.69806385 3.530012846
35.71903229 -15.63860893 2.876596928
27.57538605 -12.24650383 3.445520163
9.878038406 -4.956196308 2.116312504
9.858123779 -4.93830061 2.492484331
11.19307995 -5.471412182 3.157793522
11.47991085 -5.576800346 3.670136213
35.94552231 -15.8790369 2.89745307
27.42681122 -12.29742908 3.438515425
9.863685608 -4.99058342 2.117561102
9.854743004 -4.97713089 2.495627642
11.53243542 -5.656971931 3.23466754
11.26143932 -5.533723354 3.62082243
35.63329315 -15.8950367 2.886714458
27.77602005 -12.55634308 3.479731798
9.849218369 -5.02491045 2.118808985
9.851209641 -5.015986919 2.498773813
11.51369858 -5.696317673 3.235740423
11.309659 -5.599773884 3.638570786
10.21967793 -5.136318207 3.773314953
35.43900299 -15.95905399 2.882864714
28.44839668 -12.95538044 3.552600384
9.8474226 -5.064604759 2.121790648
9.845707893 -5.054097176 2.501605272
10.88878345 -5.480760574 3.107683659
11.37551403 -5.673745632 3.660872698
10.14217186 -5.145744324 3.756359816
104.9279785 -46.01784515 3.024223328
35.99350739 -16.34311485 2.923410654
28.54657936 -13.12052917 3.570315123
10.88250828 -5.525121689 3.111447334
10.96666336 -5.549580097 3.563428164
10.0665102 -5.155426502 3.739909887
105.0148621 -46.51171875 3.043668509
35.97949219 -16.48597527 2.93038702
29.38849258 -13.6023922 3.660456896
11.50323677 -5.847952843 2.799121141
10.89851856 -5.576895237 3.119775534
11.12198448 -5.661261082 3.608419657
11.67440605 -5.88291502 4.21814394
105.0460205 -46.93972015 3.060333729
35.96126175 -16.62733078 2.937153816
27.55079269 -12.92247772 3.488435745
27.03024292 -12.66299915 4.476801395
11.38425732 -5.843938828 2.782806158
10.927742 -5.632394314 3.130745411
10.86624908 -5.5945158 3.548874855
11.58565617 -5.892920971 4.198744774
35.40537643 -16.53162384 2.911705256
27.42665291 -12.97670746 3.483526945
27.03406715 -12.77702713 4.486457825
11.36853313 -5.884341717 2.784573555
10.83165359 -5.624505997 3.545711517
11.54478073 -5.923167706 4.193428516
35.12969208 -16.55659866 2.902932405
27.99385643 -13.34321022 3.54713583
26.77437973 -12.77458477 4.460045815
11.22626877 -5.868767262 2.764086246
11.09862232 -5.798632145 3.17759943
10.94315434 -5.718645096 3.579839468
11.50383759 -5.953191757 4.18810606
35.39334106 -16.82233047 2.926682234
27.4738121 -13.2270813 3.503638506
26.79759789 -12.8969574 4.472430229
11.46466541 -6.022162914 2.810696125
11.0398798 -5.807296276 3.610359192
11.78050518 -6.123799801 4.276869774
35.63272095 -17.0872345 2.949528217
27.58239174 -13.3973875 3.522619486
26.69699287 -12.96955395 4.468298912
11.44200039 -6.062414646 2.811597586
10.99211025 -5.848209858 3.165476084
10.86515331 -5.777422428 3.571772814
11.76265717 -6.167559624 4.278971672
35.59758759 -17.22134209 2.955419064
27.04705048 -13.27451515 3.477686644
27.07821083 -13.26157951 4.530780315
11.77951431 -6.264194012 2.876148701
10.91199875 -5.858037949 3.153326511
10.95775604 -5.86500597 3.601405382
67.39077759 -32.14863205 2.312039137
37.15075684 -18.08264542 3.058007956
27.41073227 -13.55094147 3.52138567
27.3431263 -13.49219894 4.576537609
11.55332088 -6.207549095 2.840597391
11.05580425 -5.967641354 3.18953228
11.17475414 -6.008023739 3.662896872
63.37798691 -30.54365158 2.231230259
37.20434189 -18.26527405 3.069772482
27.38102341 -13.64748001 3.525992155
27.24865723 -13.55837631 4.572622299
11.64916706 -6.300867558 2.862499714
11.04226398 -6.005814552 3.191654921
11.22906208 -6.080289841 3.68302393
63.3825264 -30.81574821 2.241872549
37.21375656 -18.4280262 3.078893423
26.68667221 -13.44345474 3.464766264
27.17518425 -13.63971806 4.572119713
12.07534599 -6.549670696 2.943501711
11.20990181 -6.133245468 3.233882666
10.54945564 -5.813874245 3.513914824
10.49700928 -5.775856972 3.92868185
63.34817123 -31.08376884 2.252196074
37.62874222 -18.79223633 3.113578558
26.24293518 -13.3469038 3.428002834
26.93418694 -13.64737892 4.548741817
11.66513348 -6.410004616 2.875472546
10.82921314 -6.001708031 3.156127691
10.54429436 -5.856328964 3.518465996
11.19524574 -6.150029659 4.144978523
63.44776154 -31.40330505 2.265150785
62.74479294 -31.00225449 4.68069315
26.20225334 -13.44542789 3.432098389
26.91422272 -13.75306988 4.555721283
10.83322144 -6.052192211 3.162641287
10.49409199 -5.879788876 3.511670589
11.15207195 -6.177371502 4.139078617
62.46102142 -31.13470078 4.677711964
26.21543503 -13.56437397 3.441289186
26.95052528 -13.89192581 4.57116127
12.33234024 -6.830685139 3.005516768
10.87683487 -6.119562149 3.177642107
10.49041271 -5.922984123 3.516678333
10.62115765 -5.971693039 3.986298323
62.67991638 -31.57442284 2.268464327
28.17097473 -14.65898609 2.548743725
26.50382614 -13.81794739 3.478487968
26.88908768 -13.97235394 4.571957111
12.16035271 -6.800354481 2.979890108
11.01817608 -6.232382298 3.213977337
10.75047398 -6.091358185 3.590189219
10.77693272 -6.092328548 4.040145874
27.7231636 -14.56032658 2.527323723
26.50170708 -13.92581367 3.485931873
26.87675858 -14.08252525 4.580211163
11.74225903 -6.648275852 2.909679413
11.06624031 -6.303390026 3.230188608
10.40816116 -5.971010208 3.506969452
10.48241234 -5.995654106 3.958062887
61.76241684 -31.6614666 2.26787591
27.71627617 -14.6773386 2.533507586
26.19478798 -13.89437675 3.463111877
26.87820816 -14.19982243 4.59048605
11.74668789 -6.701360226 2.915689468
11.227355 -6.433082104 3.271797657
10.3892107 -6.00898695 3.508383512
10.45903111 -6.029516697 3.957842827
30.91407776 -16.55918121 0.3283940554
27.67613792 -14.78406715 2.537961245
25.99048996 -13.90625477 3.450269699
26.92650795 -14.34677696 4.607997894
11.85233688 -6.807647228 2.940395355
10.72111034 -6.230284214 3.165333509
10.63091755 -6.173970699 3.577942848
10.41559505 -6.055684566 3.951909065
91.24517822 -47.1621666 3.006746769
27.66119766 -14.89760303 2.543707371
25.99747849 -14.02909946 3.45947957
26.66637802 -14.33338642 4.581244469
10.7591095 -6.298442364 3.17965889
10.43173504 -6.109098911 3.963773012
29.70999336 -16.21729088 0.3526192605
61.67486572 -32.45492172 2.298825502
27.53129387 -14.95880318 2.542498589
25.97252846 -14.13045406 3.465056419
26.55112267 -14.39755344 4.575549126
10.88523006 -6.409355164 3.213433027
10.44806862 -6.176815987 3.542732954
10.66037655 -6.272161007 4.040927887
61.72770691 -32.75419998 2.310899019
27.44816589 -15.03732014 2.54392767
26.25542831 -14.3901453 3.502511024
27.09666634 -14.79407215 4.663866043
11.59128189 -6.832467556 2.909064054
10.98972988 -6.510511398 3.242560387
10.50736141 -6.252881527 3.564724445
10.0305481 -5.998877048 3.855533361
27.36482048 -15.11544228 2.545346737
26.29278755 -14.52553749 3.514739275
11.92540741 -7.06865263 2.498220444
11.54047203 -6.857388973 2.905102968
11.34304619 -6.740831852 3.32756424
10.66841412 -6.381891727 3.613800049
10.05185699 -6.053962708 3.868946075
60.58652878 -32.70263672 2.304054022
27.34670639 -15.22743893 2.550975084
26.33305359 -14.66318893 3.527355194
11.88780022 -7.101897717 2.497500181
11.7645216 -7.025117874 2.951701403
10.90975094 -6.566072464 3.236436367
10.12520218 -6.147641659 3.47612977
10.15688992 -6.152669907 3.908171177
60.58107376 -32.96989441 2.314656019
27.57885933 -15.47190189 2.572837591
27.35400391 -15.31849384 3.642409801
11.83255291 -7.125710011 2.49424243
11.85120678 -7.122919559 2.973222494
10.91398335 -6.616731167 3.24333477
10.1306963 -6.195450783 3.483880758
10.12961197 -6.183492184 3.906863213
65.22418213 -35.7195282 2.443312407
27.56819534 -15.58955956 2.579084635
26.13379097 -14.79217243 3.523563147
11.5012331 -6.990523338 2.914134979
10.92146015 -6.669332981 3.2510221
10.08087444 -6.214317322 3.476936102
60.27806091 -33.34996033 2.328547716
60.63006973 -33.47612 4.742925644
27.45046997 -15.61507225 3.670401335
11.47446156 -7.027740002 2.914674044
11.20394802 -6.868639946 3.320953608
10.00182247 -6.21737957 3.462169409
10.00660801 -6.208595276 3.883147717
28.30802917 -16.38087463 0.3938968778
59.90423203 -33.41883087 2.329772711
60.33654404 -33.59028625 4.739161968
26.81621552 -15.4018898 3.61309123
11.39717579 -7.037707806 2.905843258
12.10259438 -7.40428257 3.531257153
10.04887772 -6.289738655 3.481481075
63.80070496 -35.83708191 2.44220233
60.55059814 -33.99380112 4.769501686
61.98054123 -34.69581223 7.338803291
11.36050129 -7.071794987 2.904829979
10.80519104 -6.755949974 3.243233919
60.06889343 -34.06664276 2.356347799
61.92435837 -34.94612885 7.353625774
11.33521271 -7.109409332 2.905677795
10.82057381 -6.813261032 3.252889872
10.73671055 -6.755452633 3.679752827
10.48400593 -6.605710506 4.053975582
24.18799019 -14.45877075 0.4588530362
60.00857162 -34.30705643 2.365742922
64.2645874 -36.59363556 5.0462327
11.60464764 -7.307083607 2.961475849
10.84942818 -6.878321171 3.265693665
10.66814804 -6.76651001 3.668271065
10.17716312 -6.482634068 3.965500355
23.96125221 -14.44174194 0.4644703269
11.25087833 -7.163180828 2.900815248
10.90988922 -6.958889008 3.285503387
10.34192371 -6.631947994 3.586671829
10.015481 -6.439575195 3.922457695
23.76620674 -14.44112015 0.4696197808
60.76866531 -35.20919418 4.846500397
61.56856918 -35.58086777 7.377696991
11.20463848 -7.18878746 2.897763491
10.64713573 -6.861754894 3.231559992
10.38272953 -6.702048302 3.604632139
23.58359146 -14.44628143 0.4745673537
61.38842392 -35.776371 7.380674362
10.8474474 -7.038278103 2.835994005
10.75302601 -6.972920418 3.262515545
10.32887268 -6.721776962 3.597310543
9.636264801 -6.318165779 3.818278313
63.57436371 -37.46348953 2.506625891
61.36933136 -36.04945755 7.39998436
10.83665943 -7.084729671 2.839774847
10.65311241 -6.965680599 3.245849609
10.25235844 -6.725942612 3.583450079
9.594192505 -6.34094429 3.812739611
23.24785805 -14.4754715 0.4840971828
62.86999512 -37.28339386 5.038099766
12.232934 -7.938100338 3.110501289
10.64522743 -7.010522366 3.250410318
10.24011135 -6.766401768 3.587117434
9.568132401 -6.370428085 3.811893463
23.09009361 -14.49158287 0.4886213839
61.64539337 -36.86248779 4.972007751
10.62527847 -7.048504829 3.252217293
10.34904289 -6.876900673 3.624042034
9.974791527 -6.649181843 3.948185682
22.93937302 -14.510849 0.4930260777
61.45713425 -37.0407486 4.97599411
12.04503441 -7.942430496 3.087401152
10.97275639 -7.300775528 3.339507818
10.34969044 -6.925573349 3.631424665
10.1694603 -6.808778286 4.017845631
22.79567337 -14.53332329 0.4973133206
73.61976624 -44.61903763 2.833972931
60.34895706 -36.59317017 7.375656128
11.92663574 -7.929225445 3.071102381
10.62384892 -7.147138119 3.264895916
10.35850811 -6.97925806 3.641124487
10.12180901 -6.82849884 4.010719299
22.72746086 -14.60038471 0.5006210208
60.0078392 -36.6747818 7.360108376
12.00020218 -8.02914238 3.091586351
10.79065132 -7.296010494 3.310483456
10.15772438 -6.909261703 3.593011141
10.09573364 -6.86070919 4.010477543
60.30864334 -37.14002609 7.415018082
11.82094002 -7.978641987 3.063525915
10.75116444 -7.323466301 3.307978153
10.33528042 -7.063113689 3.649438143
10.07950211 -6.898722172 4.013415337
65.66461945 -40.8306694 2.650838852
11.84661198 -8.050335884 3.074892998
11.37390709 -7.752141476 3.461503506
10.20534992 -7.021984577 4.061986446
22.63155937 -14.87299347 0.5092694163
70.69269562 -44.24367142 2.807988167
59.37137985 -37.23734283 4.917345524
60.13139725 -37.62175751 7.440960407
11.91448307 -8.151019096 3.094839334
11.33791447 -7.784549713 3.460260868
9.827706337 -6.856362343 3.523488283
9.972925186 -6.932476997 3.996003151
22.62686539 -14.9793396 0.5117747784
65.18985748 -41.18351364 2.66350317
59.20980453 -37.42313766 4.922944546
11.90905285 -8.204824448 3.100357294
11.50126934 -7.941587448 3.506527185
10.48290157 -7.306024075 3.713968515
9.902076721 -6.937004089 3.981407881
22.64880562 -15.10282707 0.5139624476
65.12648773 -41.47483826 2.675169945
59.64788055 -37.98137665 4.970622063
60.37330246 -38.36527634 7.5140481
11.72211647 -8.146656036 3.070575953
11.23273659 -7.831275463 3.450323343
10.44805717 -7.332466602 3.711596012
10.18620014 -7.159092426 4.08155489
22.63207817 -15.19705486 0.5165000558
59.51070023 -38.17021561 4.977299213
62.43956375 -39.93483734 7.766715527
11.81163502 -8.272539139 2.599246025
11.7748518 -8.2333498 3.087120533
10.49510193 -7.424433231 3.281983614
10.46441174 -7.390526772 3.723599672
10.36016369 -7.313436508 4.146102428
22.60066795 -15.28773117 0.5193355083
68.90825653 -44.46760941 2.810819626
59.56558609 -38.49463272 4.998451233
62.59552765 -40.32169342 7.806829929
11.67277718 -8.239800453 2.583194494
11.51664352 -8.128528595 3.043208361
10.44303608 -7.427911282 3.725472212
22.62526321 -15.42013264 0.5216352344
68.45797729 -44.5348053 2.81201601
62.02433014 -40.36494064 5.191305161
61.72040558 -40.08726883 7.733602047
11.66571617 -8.295173645 2.58795023
10.43436241 -7.490748405 3.281709671
10.55204201 -7.549993038 3.764562607
9.507025719 -6.88010931 3.886178493
22.63833237 -15.54023933 0.523955822
68.13935089 -44.68359375 2.817029476
61.93283844 -40.61109924 5.203048229
11.60491657 -8.31643486 2.584430695
11.41757774 -8.180823326 3.037213087
10.38126659 -7.508070946 3.275983095
10.29854393 -7.440669537 3.700946331
9.480883598 -6.910023689 3.885864973
22.65842628 -15.65995407 0.5260800719
68.14808655 -45.0090332 2.830427647
61.72663498 -40.76833725 5.205735683
11.58342838 -8.356933594 2.586440563
11.41639805 -8.233460426 3.043272495
10.33430099 -7.52647686 3.271367073
10.86973476 -7.854066849 3.870521307
9.366348267 -6.881130219 3.856204271
22.66200256 -15.77514172 0.5285270214
67.96446228 -45.2105751 2.83809948
11.30934143 -8.220638275 3.028735876
10.81141567 -7.88572979 3.393413305
10.85651875 -7.899202824 3.875247717
22.66577911 -15.89667988 0.5311025381
67.52410889 -45.2768631 2.839364767
61.00160217 -40.92150116 5.191315651
11.43611145 -8.375593185 2.574791431
11.29376316 -8.269472122 3.032646179
10.79783344 -7.917604446 3.867487907
22.68228149 -16.02732468 0.5335428119
67.06082916 -45.32509995 2.839829445
67.00860596 -45.21443939 5.646279335
11.18072605 -8.254332542 3.017164707
10.97201252 -8.101378441 3.447672129
11.9269762 -8.713638306 4.199512482
10.60539532 -7.835001469 4.291370869
22.69580078 -16.15099335 0.5359011292
66.62252808 -45.36999893 2.840256214
66.54737854 -45.24408722 5.633149624
11.1087141 -8.262698174 3.009476185
10.83698845 -8.067081451 3.422528982
12.09408188 -8.883625031 4.257017136
22.7064476 -16.26760483 0.5381735563
66.21125031 -45.43026352 2.841422081
66.10781097 -45.2684021 5.620444298
11.24483109 -8.406708717 3.04316926
10.89319706 -8.15907383 3.443893433
12.05120564 -8.91593647 4.254470825
11.31694221 -8.410784721 4.546517849
22.68082428 -16.36588478 0.5409744382
65.79160309 -45.46551895 2.841543198
65.6709671 -45.30846024 5.608834743
10.90624237 -8.220151901 3.454458237
10.40342617 -7.870117664 3.788508892
10.15258217 -7.689482212 4.169132233
22.7042408 -16.49815178 0.5432482958
65.42415619 -45.55038834 2.843900204
65.30393219 -45.39324951 5.602249146
11.1345377 -8.4460783 3.034701109
10.96834373 -8.320339203 3.477924347
10.37388897 -7.902985096 3.788530588
9.791173935 -7.497515678 4.057860851
22.68480873 -16.60740471 0.5461165905
64.95679474 -45.58123016 2.843721867
64.92932892 -45.48730469 5.596042633
11.29064751 -8.612426758 3.073570251
11.13997078 -8.496145248 3.528508425
10.49576569 -8.0414505 3.832945108
9.825565338 -7.573261738 4.07902956
22.70752144 -16.74647903 0.5485435724
64.60186768 -45.68663788 2.847005606
64.60087585 -45.61103821 5.593184948
11.08403397 -8.514874458 3.52285862
10.5124979 -8.109412193 3.847058058
8.563270569 -6.762251377 3.664695263
22.71921158 -16.87277412 0.5509705544
64.63185883 -46.04219055 2.861883879
64.54384613 -45.90560532 5.60952425
11.05639648 -8.569146156 3.040410757
10.80891895 -8.381650925 3.462950468
8.505963326 -6.766816616 3.653573513
22.72539711 -16.9958725 0.5534633994
64.71904755 -46.43984222 2.878704071
64.5443573 -46.24163818 5.630295753
11.09077549 -8.650513649 3.054489613
10.65224361 -8.328426361 3.432107925
10.28889275 -8.062373161 3.799477339
8.461398125 -6.779844761 3.646718979
22.7261219 -17.11571503 0.5560197234
64.75853729 -46.80633926 2.894100189
64.56287384 -46.59202194 5.652574539
11.08600426 -8.704965591 3.060646772
10.73984051 -8.445409775 3.46192646
10.23326397 -8.076897621 3.792011499
8.419998169 -6.79485178 3.640927315
22.73602486 -17.24277115 0.558490932
64.78000641 -47.16201782 2.909008503
64.60897064 -46.96398163 5.677108765
11.33704281 -8.924192429 3.619232178
10.28567028 -8.167401314 3.816337585
8.388049126 -6.816307068 3.638340235
64.83544922 -47.54411316 2.925136566
64.64515686 -47.33096313 5.701073647
11.30389023 -8.960168839 3.619597435
10.6227293 -8.46130085 3.924907207
64.90843201 -47.94124222 2.941960812
64.75718689 -47.75492096 5.731010437
11.45366669 -9.127464294 3.665959358
10.62597561 -8.519713402 3.935269117
56.53428268 -42.17411423 2.676650763
56.61406708 -42.16509628 5.128253937
11.32455921 -9.094899178 3.642331362
10.91266823 -8.783158302 4.029940128
9.112522125 -7.471344948 3.911901474
56.05796432 -42.12701035 2.673341751
56.14748383 -42.12588882 5.111332893
11.2623415 -9.110006332 3.635492325
10.94134808 -8.862235069 4.04832077
9.2918787 -7.650166035 3.982859373
55.51519394 -42.02710342 2.667647362
55.62729263 -42.04361343 5.090095043
10.69155788 -8.751392365 3.499631643
9.233717918 -7.657384396 3.972348928
55.02902603 -41.9502182 2.663089514
55.16197968 -41.98318863 5.071965694
10.68568039 -8.801827431 3.506255388
10.13066864 -8.378599167 3.82475996
9.190779686 -7.672972679 3.966593027
54.54322815 -41.88488388 2.659032106
54.63306046 -41.88648987 5.049637318
10.69721031 -8.871235847 3.518246174
10.093503 -8.408569336 3.823425055
7.297816277 -6.31788969 3.319472075
53.1014595 -41.10680389 2.62242341
53.17950821 -41.10159302 4.955565453
10.66277218 -8.903698921 3.518133163
9.968894005 -8.370183945 3.795258522
7.293065071 -6.356016636 3.325909853
52.63000107 -41.03958511 2.618354321
52.70817566 -41.03515244 4.936999798
10.49555111 -8.838594437 3.48436141
10.00784111 -8.456889153 3.816915512
7.252169609 -6.365100861 3.319407225
52.14317703 -40.97132492 2.614216089
52.31011963 -41.03579712 4.924963474
10.46749973 -8.87505722 3.485830069
9.851101875 -8.392799377 3.77884531
7.216472149 -6.379875183 3.31509757
51.68982315 -40.91064072 2.61049819
10.48129749 -8.943613052 3.49815011
9.935696602 -8.512108803 3.814072132
6.688976288 -6.016451359 3.137612581
51.25333405 -40.85952759 2.607241869
51.35372925 -40.87475586 4.885840416
10.99211025 -9.41387558 3.139515877
10.89933014 -9.325044632 3.615454435
7.806335926 -6.924592972 3.173020601
6.658625603 -6.030258179 3.134248257
50.79579544 -40.78863144 2.603109121
50.89621353 -40.80472565 4.86763382
10.96519661 -9.454507828 3.141729593
10.96541691 -9.437513351 3.641936302
7.763524532 -6.934998989 3.167530298
6.65413475 -6.063988209 3.140025616
50.36448669 -40.73484802 2.599779844
50.48679733 -40.76913452 4.853114128
10.85750389 -9.431705475 3.126571655
10.27849293 -8.960681915 3.471958399
7.728393078 -6.951168537 3.164386272
6.640377998 -6.090637684 3.142576694
50.03423309 -40.75828552 2.599985838
50.09702301 -40.74606323 4.840025902
10.77948856 -9.431506157 3.117741346
10.23322392 -8.986022949 3.469451666
7.716589928 -6.98776722 3.168827057
6.634086132 -6.123208046 3.147820473
49.95162201 -40.99252319 2.609751225
50.02580643 -40.97535324 4.852683067
10.82959557 -9.5328722 3.136657238
10.14794159 -8.97644043 3.455982924
6.711861134 -6.233560085 2.865530491
8.556619644 -7.68491888 3.84153533
49.94578171 -41.26083374 2.621159315
49.99087906 -41.23468399 4.868393421
10.73918819 -9.522371292 3.125136614
10.08109951 -8.978084564 3.446861506
6.675723553 -6.241127968 2.860775471
8.47687912 -7.670142174 3.822804689
4.623923779 -4.701454163 0.3320863843
4.613754749 -4.685903072 0.542386651
49.7998085 -41.4309845 2.628077984
43.95690918 -36.62052536 4.392272472
10.72565556 -9.573331833 3.130343437
10.09068394 -9.043848991 3.458377361
6.643203735 -6.253332138 2.857476711
8.409355164 -7.664555073 3.808369875
4.612226009 -4.718852997 0.3325937688
4.596811771 -4.700241566 0.5432403088
4.61645174 -4.709271431 0.7513269186
49.41055298 -41.40159225 2.625952959
43.75902557 -36.71411896 4.392540455
10.75165462 -9.656666756 3.14426589
7.566257 -7.0529809 2.797362089
6.623318195 -6.277544022 2.85846591
8.349458694 -7.664642811 3.796618462
4.597382545 -4.727769852 0.5431612134
4.585558891 -4.712097645 0.7521489263
43.57632065 -36.83210754 4.394874096
10.74515152 -9.71715641 3.151572466
7.532410145 -7.069327354 2.795205832
6.610313892 -6.305456638 2.861295223
8.300410271 -7.675573349 3.789230108
4.582977772 -4.737059116 0.7527223229
4.563475609 -4.697379589 0.9597334862
10.63503742 -9.689188957 3.135652542
7.486446381 -7.075551987 2.78981185
6.600196838 -6.335813522 2.865069628
9.024738312 -8.319436073 4.061922073
4.570110321 -4.729959488 0.9611421227
4.59005022 -4.740799904 1.171097994
8.689580917 -8.144392967 2.310211897
10.7495451 -9.847216606 3.169406652
6.896628857 -6.62046051 2.965702295
9.266950607 -8.572998047 4.160946369
4.552123547 -4.742007256 0.9616209865
4.541475773 -4.727202892 1.168807626
8.619332314 -8.14823246 1.90613544
8.667127609 -8.177154541 2.311988115
4.753824234 -4.886088371 1.844697833
6.620951176 -6.440086842 2.570633888
9.251070976 -8.627450943 3.719204426
8.664400101 -8.125476837 3.952129126
4.544802666 -4.757211685 1.170870304
4.535404205 -4.742008686 1.378556728
8.644551277 -8.209849358 2.313763618
4.693074226 -4.863187313 1.834955215
6.598396301 -6.460559368 2.570771694
9.22373867 -8.659564972 3.720527649
8.590134621 -8.114671707 3.935534
46.96072006 -41.08072662 2.607062578
4.509799004 -4.747455597 1.377622485
4.51843977 -4.748902798 1.588343382
4.634046078 -4.841188908 1.825534701
6.559352875 -6.467000484 2.566452026
9.464679718 -8.918916702 3.807482719
6.207659245 -6.15139389 3.070135355
46.72616959 -41.16332245 2.610153437
41.87278748 -36.92710495 4.352057934
4.5244627 -4.781383514 1.592472076
4.49136591 -4.747028828 1.797247171
4.608465672 -4.839653969 2.041803122
9.408233643 -8.92780304 3.799847364
6.183191776 -6.167936325 3.068862915
46.66676712 -41.39676285 2.620085955
41.6288147 -36.97087479 4.348024368
41.83628082 -37.08312607 6.30623436
4.479310989 -4.769908905 1.587497473
4.489757538 -4.772934437 1.800588369
4.465410709 -4.744519711 2.007191658
6.300883293 -6.315248489 2.811977386
6.16160965 -6.186876297 3.068668842
46.6333847 -41.65398026 2.631104946
41.53240585 -37.14200211 4.356614113
40.61668777 -36.27710342 6.167554855
4.447754383 -4.769875526 1.584926009
4.477603436 -4.789825916 1.801572204
4.462202549 -4.769006252 2.010674477
6.278799534 -6.334573746 2.811936855
6.151626587 -6.215800285 3.072802782
46.5897789 -41.9034996 2.641786575
42.53422546 -38.27856064 4.460087299
40.49244308 -36.41836929 6.173420429
8.531329155 -8.373573303 2.322897196
4.43273592 -4.778133392 1.795135021
4.460353374 -4.794804573 2.014565229
6.240540504 -6.339773178 2.806680918
6.141515732 -6.244719505 3.076938391
46.5258255 -42.15071869 2.652345419
41.65241623 -37.7751503 4.401973248
40.29285431 -36.5056076 6.170406342
8.496296883 -8.398154259 2.322849751
4.374015808 -4.755209446 1.785681844
4.398859978 -4.769685745 2.002246618
6.217426777 -6.359947205 2.80667901
6.146251678 -6.288659573 3.087078333
46.51563263 -42.43254471 2.664509058
42.53316498 -38.82054138 4.496076584
40.36403656 -36.82038116 6.202571392
4.313247681 -4.728544712 1.77550745
4.338290215 -4.743416786 1.989881277
6.19084549 -6.375092506 2.805206537
7.020625114 -7.09856081 3.423403502
9.737272263 -9.706896782 0.7267209291
9.861833572 -9.768993378 1.188210726
41.45331192 -38.10534668 4.418423653
37.54431915 -34.49636841 7.625122547
4.263683319 -4.709952831 1.767653108
4.292574883 -4.729808807 1.981566668
6.184555531 -6.408199787 2.810374975
6.509039402 -6.68565321 3.239514112
9.741990089 -9.773137093 0.7279226184
9.83531189 -9.804300308 1.189695477
40.43448639 -37.44669342 4.346267223
39.82168579 -36.83939743 6.175107002
37.47771072 -34.66146469 7.638651371
4.212159157 -4.690492153 1.759480238
6.233820438 -6.498167515 2.527580738
7.434861183 -7.56581068 3.227634192
6.481376648 -6.70181179 3.237746954
9.591588974 -9.697585106 0.7300610542
9.600274086 -9.652694702 1.182737112
40.84653473 -38.07906342 4.399932384
40.07146835 -37.252388 8.141940117
6.23100853 -6.545818329 2.230774641
6.222781658 -6.527693272 2.530929327
7.41850853 -7.59812212 3.231090069
6.415077686 -6.683049679 3.221328497
9.557914734 -9.728280067 0.7314807177
9.381134987 -9.513088226 1.176327825
46.39218903 -43.42362595 4.910297394
6.40029192 -6.759644032 1.66091001
6.505102158 -6.844603062 1.986258507
6.183450699 -6.542228222 2.225249767
6.220752239 -6.567516804 2.537174463
6.479504108 -6.793904305 2.929973364
6.125189781 -6.460801125 3.119687796
9.431805611 -9.676055908 0.7334884405
9.378839493 -9.574520111 1.178993344
46.31482697 -43.66620636 4.924490929
6.327046394 -6.733352184 1.654626846
6.315460205 -6.714015961 1.956225991
6.162583828 -6.564779758 2.226197958
9.70446682 -9.802591324 3.527184486
6.313967228 -6.683879852 2.882898569
6.891555786 -7.202658653 3.421416044
9.550023079 -9.848373413 0.7340374589
9.341166496 -9.600362778 1.180060387
6.294898033 -6.744526863 1.653947473
6.265945435 -6.709028244 1.951749563
6.16288662 -6.604928017 2.231845856
6.068491459 -6.507019997 2.507197618
6.247829914 -6.663645267 2.868600368
8.316438675 -8.559006691 3.97752285
9.512939453 -9.876152039 0.7354732752
9.266975403 -9.591858864 1.179580927
6.342691898 -6.841041088 1.359704256
6.268568516 -6.760982513 1.654066801
6.242620468 -6.728103638 1.952127695
6.148563862 -6.631711006 2.234105825
6.031505108 -6.512087822 2.503192902
5.905770779 -6.386574745 2.761969328
5.795330048 -6.275418282 3.018626928
6.382920742 -6.965628624 0.753451705
6.387831211 -6.934057236 1.059629083
6.297189713 -6.839835167 1.358399153
6.251308441 -6.787962437 1.655637264
6.220686436 -6.748442173 1.952773929
6.149934769 -6.673301697 2.240100384
6.019289017 -6.542104244 2.506570339
5.875480652 -6.39880085 2.759546518
5.745351315 -6.266617775 3.007518053
6.360668659 -6.988972187 0.7544403672
6.328004837 -6.921581268 1.059001923
6.2536273 -6.842220783 1.357394934
6.232085228 -6.811069012 1.656758785
6.200530529 -6.77250576 1.954005599
6.150065899 -6.716042519 2.24614501
6.009353638 -6.572409153 2.510312796
5.864532471 -6.427180767 2.763267756
5.712789059 -6.275666714 3.003509998
6.337527752 -7.018116951 0.4478111565
6.326437473 -6.998634815 0.7554462552
6.279506683 -6.917338371 1.058751345
6.227032661 -6.858463287 1.357789397
6.218531132 -6.839613438 1.658685684
6.18275404 -6.796789646 1.955461383
6.273763657 -6.8746562 2.281378984
6.359776974 -6.94526577 2.61779952
5.856277466 -6.458222866 2.767942905
5.711925507 -6.312684059 3.011422634
6.304724693 -7.029058456 0.4493648112
6.288975239 -7.002857685 0.7564214468
6.252698898 -6.933644772 1.059429407
6.192822933 -6.865203381 1.357340932
6.176169395 -6.840548992 1.65657711
6.174885273 -6.830629349 1.958814263
6.329192162 -6.967636585 2.300283194
6.329964638 -6.959223747 2.616285801
6.35345602 -6.972324371 2.944235802
5.71461916 -6.351425171 3.020385504
6.252991199 -7.019185543 0.4519405961
6.260501862 -7.017776489 0.757388711
6.232646465 -6.954323769 1.060309052
6.171916962 -6.886750221 1.358257651
6.12100935 -6.828808308 1.652642488
6.32605505 -7.016266823 1.992239714
6.347531319 -7.027943134 2.310746908
6.336454391 -7.005906582 2.62494278
6.217763901 -7.029442787 0.4536047578
6.207764626 -7.008722782 0.7584660053
6.205744743 -6.970430374 1.06098187
6.166645527 -6.923559189 1.3606323
6.082719326 -6.830973148 1.650875568
6.056064606 -6.796394825 1.945659876
6.335844994 -7.059607029 2.314070702
6.185388088 -7.042335033 0.4551105201
6.193879128 -7.039872169 0.7593973875
6.154961586 -6.965052605 1.06068635
6.151594162 -6.9530797 1.362258673
6.049503803 -6.842025757 1.65020442
5.939502239 -6.725548744 1.928396702
6.82144022 -7.580420494 2.438058376
9.271103859 -9.933898926 4.451990604
6.156896591 -7.056826591 0.4564135075
6.166770935 -7.055792809 0.7603459954
6.135519028 -6.990362644 1.061775327
6.171496391 -7.015209198 1.367034554
6.041752338 -6.878100872 1.653175831
5.90954113 -6.738863468 1.927692175
5.801530361 -6.621759415 2.197010994
9.244626999 -9.971435547 4.455547333
6.128050804 -7.06870079 0.457742542
6.149167061 -7.079030991 0.7612090707
6.130833149 -7.026195049 1.063344598
6.235927105 -7.120149136 1.375907421
6.136024952 -7.011777401 1.670463443
5.881611824 -6.749994278 1.926895738
5.772600651 -6.631186485 2.195443869
9.229190826 -10.01676369 4.462851048
6.097783566 -7.079034805 0.4591436982
6.105084419 -7.077691555 0.7622228861
6.11893177 -7.054973125 1.064597845
6.221170902 -7.148914814 1.377506495
6.194344044 -7.110924721 1.682705283
5.885886669 -6.793239594 1.932359815
5.745452881 -6.644270897 2.194598436
5.655656815 -6.544142246 2.460335493
6.086027622 -7.110272884 0.4595302939
6.075099468 -7.090389729 0.7631719708
6.11425209 -7.093341351 1.066282153
6.227339268 -7.198933601 1.381112099
6.420399666 -7.382643223 1.719611287
5.71133852 -6.65024662 2.192041636
5.620563984 -6.548510075 2.456669331
5.528196812 -6.447305679 2.715480328
6.067462921 -7.136836529 0.460264951
6.064642906 -7.12300539 0.7640411854
6.117778778 -7.140311241 1.068355203
6.19408083 -7.209209442 1.380974174
6.221836567 -7.226256371 1.694934368
6.05852747 -7.051427364 1.976127505
5.706320763 -6.685510635 2.196655989
5.574882507 -6.543929577 2.450166941
5.508606434 -6.466480255 2.716307163
6.128694057 -7.083265781 3.256887197
6.052951336 -7.167660236 0.4607743025
6.059898853 -7.163862228 0.7649316788
6.103218079 -7.171263695 1.069707036
6.169474125 -7.230401039 1.381816626
6.174890518 -7.224772453 1.692452192
6.023356438 -7.060780525 1.974624753
5.555357933 -6.56564045 2.451454878
5.479794502 -6.478232861 2.71430254
6.104375839 -7.104198933 3.257305145
6.025847912 -7.185475349 0.4619571865
6.064635754 -7.2148633 0.7657913566
6.106571674 -7.220879555 1.071900606
6.126756668 -7.232857227 1.380910039
6.136348724 -7.231599808 1.691184282
6.197971344 -7.286029339 2.01464653
5.550765514 -6.602713585 2.45726037
5.452330112 -6.49123764 2.712772846
5.398304939 -6.427323341 2.980774879
6.031768322 -7.237918377 0.461348176
8.95661068 -10.29384041 0.7566946745
6.093039036 -7.253290653 1.073321819
6.104836464 -7.256673336 1.382014632
6.115776539 -7.256863594 1.692563415
6.157903194 -7.291522503 2.012345791
6.223504543 -7.350265503 2.344870567
5.423492908 -6.502721786 2.710760117
5.367060661 -6.435919762 2.977255344
8.929834366 -10.32481861 0.7579058409
6.095370293 -7.298037052 1.075303197
6.098571777 -7.290224075 1.384192705
6.086338043 -7.268433094 1.692214727
6.059838772 -7.231710911 1.997905135
5.814358711 -6.964418411 2.248076677
6.254498959 -7.413778782 2.684193611
5.416813374 -6.533189297 2.715849638
5.340094566 -6.442970753 2.974156857
8.90513134 -10.3646574 0.7592338324
9.09604454 -10.51032352 1.219751954
6.105016232 -7.341844082 1.38795054
6.073578358 -7.299694061 1.694567323
6.04416275 -7.257455826 1.999871016
5.797088146 -6.988891125 2.249984026
6.21917057 -7.420241833 2.68097806
6.26180172 -7.455108643 3.02534771
5.333793163 -6.47537899 2.980431557
8.880267143 -10.40442944 0.7605615258
9.047357559 -10.52596378 1.220411301
41.91511917 -45.4263649 4.931092739
6.101382732 -7.371862411 1.70281291
6.015021324 -7.271252155 1.999416471
6.20291996 -7.448923588 2.683976889
6.252018452 -7.490912914 3.031091213
6.244368076 -7.472792149 3.365261555
9.121875763 -10.73148632 0.7611154914
9.128266335 -10.68018436 1.227305293
41.56283569 -45.36226273 4.917960167
6.148238182 -7.469653606 1.714443684
6.050900936 -7.354290009 2.012122154
5.955131531 -7.243077278 2.302876472
6.21693182 -7.502367973 3.028247595
6.226408005 -7.50002718 3.368396282
9.133089066 -10.75752831 1.230742574
41.22005844 -45.32096863 4.906698227
6.171238899 -7.540568829 1.722354889
6.081078053 -7.434360504 2.024066687
5.927658558 -7.26046133 2.302796602
5.650565624 -6.952298164 2.530183077
6.747997761 -8.116639137 3.22983098
14.15412521 -16.37456703 0.7506402135
8.861737251 -10.53190327 1.220562816
40.64384842 -45.00799561 4.870738506
