# .PCD v0.7 - Point Cloud Data file format
VERSION 0.7
FIELDS x y z
SIZE 4 4 4
TYPE F F F
COUNT 1 1 1
WIDTH 1299
HEIGHT 1
VIEWPOINT 0 0 0 1 0 0 0
POINTS 1299
DATA ascii
1.729883313 -2.784473181 0.8722351789
1.717317224 -2.768214703 0.9603077173
1.727289081 -2.775785923 1.050740242
1.72669673 -2.772509575 1.140605211
1.719947934 -2.762546301 1.229561925
1.716415405 -2.756033659 1.319766164
1.720280409 -2.756806135 1.413353324
1.733267069 -2.767972469 1.512745738
1.727077723 -2.82059288 0.3281570077
1.727519155 -2.818336964 0.420765847
1.720394611 -2.807746887 0.5135655403
1.724734306 -2.809227705 0.6035931706
1.730644822 -2.813122272 0.6933606863
1.729074717 -2.808766842 0.7833957672
1.722966552 -2.790793419 0.8725129366
1.723905683 -2.789219379 0.9619444013
1.71769774 -2.779153824 1.050606012
1.731836081 -2.791953564 1.143356442
1.719730735 -2.776073933 1.231557012
1.715175509 -2.767752886 1.321677804
1.722607255 -2.773066998 1.416991949
1.722425222 -2.770036221 1.51137948
1.732751727 -2.831568241 0.6022901535
1.731995344 -2.828069448 0.6931893826
1.725089431 -2.817759514 0.7836550474
1.717699051 -2.798271418 0.8728435636
1.730699301 -2.809993029 0.9635714889
1.720473886 -2.795431376 1.052309871
1.727859735 -2.800899744 1.144171834
1.721094608 -2.79078269 1.233884692
1.711236358 -2.7765944 1.322765231
1.714689255 -2.777607679 1.416774631
1.719713926 -2.780261755 1.513286948
1.741059542 -2.849111557 0.7838718295
1.725768447 -2.82059598 0.8738421202
1.715999961 -2.807117701 0.9630180597
1.723158002 -2.811750174 1.054016113
1.719857693 -2.805432081 1.144161463
1.726342916 -2.809905529 1.237247229
1.709884763 -2.78833127 1.324678779
1.717200756 -2.793615103 1.420403123
1.723421216 -2.79760623 1.517936587
17.2814846 -20.36493874 0.7531232834
1.721717596 -2.829583645 0.8742416501
1.721296072 -2.826470375 0.9645124078
1.728402376 -2.831074953 1.056137323
1.727720022 -2.827625275 1.147456646
1.722259521 -2.818830013 1.23820138
1.712399006 -2.80444479 1.327832341
1.717019677 -2.806779385 1.423071861
1.728317022 -2.816426516 1.52313745
17.18570137 -20.39361191 0.755843401
25.73786354 -29.92057228 2.091878176
25.68912506 -29.82603264 3.442252636
1.722070575 -2.832158804 1.24018991
1.725252151 -2.832271338 1.334294081
1.727125406 -2.831535816 1.429592252
1.718979478 -2.819550991 1.522305727
17.21245003 -20.5618 0.7583415508
25.70502663 -30.08813095 2.099359274
25.70258141 -30.0455761 3.458149672
25.68180275 -29.97176552 4.817231178
25.63629913 -29.88003349 6.177417278
25.5161972 -29.70370483 7.524212837
25.52081871 -29.65754318 8.910556793
17.22249794 -20.7122879 0.7608880401
25.53184319 -30.09633636 2.099686623
25.58994865 -30.12294388 3.461027622
25.62700653 -30.11486435 4.828650475
25.66127014 -30.1134243 6.208166599
25.32634354 -29.69169044 7.504688263
25.34441566 -29.66092682 8.890506744
17.15327835 -20.77225685 0.7635638714
21.14401436 -25.25006294 1.88185215
25.40375519 -30.11558533 3.45619297
25.45927238 -30.13936043 4.823293686
25.49349403 -30.12792587 6.198323727
25.16021919 -29.70542336 7.491344452
25.16194344 -29.66635132 8.87020874
17.01921844 -20.76357651 0.7664435506
21.32730675 -25.64373779 1.89952302
25.21413612 -30.11317062 3.45165801
25.28640747 -30.14659691 4.816054821
25.32081604 -30.14601517 6.188650131
24.9647274 -29.69441223 7.471601486
24.99639893 -29.67977333 8.853409767
17.01851082 -20.90356636 0.7690240741
21.30573082 -25.79386902 1.906256557
25.04165459 -30.1190567 3.448134422
25.0982666 -30.13485718 4.806295395
25.13668442 -30.13934135 6.175152302
24.77598381 -29.6795578 7.451974869
24.8693943 -29.73685837 8.849009514
16.96504402 -20.9751339 0.7715395093
20.67366791 -25.22679901 1.880765915
24.86681175 -30.11063194 3.443557262
24.90534401 -30.1161232 4.795671463
24.95165062 -30.13021469 6.161343098
24.61831093 -29.68941116 7.439038277
24.63287735 -29.66558075 8.808951378
16.84440994 -20.96691895 0.7741077542
20.91259193 -25.67391777 1.900859952
24.70002365 -30.11051178 3.43977952
24.73855591 -30.11637497 4.788143158
24.78490067 -30.13097763 6.150079727
24.43791008 -29.67150307 7.419847012
24.47571182 -29.67523193 8.792701721
16.77688408 -21.02862358 0.7767495513
20.98565674 -25.92837906 1.912302136
24.51942444 -30.10318756 3.435197115
24.58227158 -30.12803841 4.782251835
24.60439682 -30.11428261 6.135736942
24.26682091 -29.67350388 7.404623508
9.646448135 -12.32298756 3.957239151
16.68774033 -21.07145691 0.7795279026
24.30013847 -30.0977211 2.099692106
24.31489944 -30.07622337 3.428693056
24.38280487 -30.10777664 4.771304607
9.555743217 -12.33225727 2.87540555
9.572904587 -12.33692551 3.410989285
9.562704086 -12.30863667 3.94513011
16.85744667 -21.42921257 0.7822123766
24.09867477 -30.07244682 2.098582029
9.669033051 -12.59028721 1.844115138
9.438735008 -12.29243755 2.338117361
9.428825378 -12.26497746 2.858371973
9.511770248 -12.34907913 3.407367468
9.508733749 -12.32526588 3.942064285
16.99806786 -21.74829674 0.7848412395
23.93069267 -30.07593536 2.098771334
9.506512642 -12.47589588 1.83228004
9.425305367 -12.3574934 2.343986988
9.225177765 -12.09900188 2.823720932
9.195714951 -12.04783916 3.332544565
9.563199997 -12.4728508 3.975132465
9.440163612 -12.30759335 4.475730896
16.90761566 -21.7857132 0.7875330448
9.397400856 -12.44028568 1.306184053
9.296996117 -12.30176258 1.815107465
9.08812809 -12.02671528 2.296178341
9.123129845 -12.05439091 2.811269045
9.135276794 -12.05384636 3.328094244
9.259321213 -12.18540764 3.888529778
9.199074745 -12.09592247 4.398386955
16.88728905 -21.91003799 0.7902240157
9.334407806 -12.44500637 1.306415319
9.152850151 -12.20539093 1.804995894
9.094205856 -12.11390209 2.305143595
9.062724113 -12.05992889 2.807979584
9.164387703 -12.1695919 3.348640919
9.098463058 -12.06888866 3.849242926
9.163246155 -12.13231659 4.401291847
16.83011818 -21.98914528 0.7929146886
9.290266037 -12.47280788 1.307687044
8.99948597 -12.09572029 1.793730259
9.002468109 -12.08044147 2.297796011
8.980002403 -12.03744316 2.799666882
9.033172607 -12.08799934 3.324377537
9.027125359 -12.06089497 3.839867592
9.021007538 -12.03741264 4.362084389
16.82227325 -22.13081169 0.7956287265
9.243563652 -12.49730778 1.308813453
8.920436859 -12.07711506 1.790682793
8.896709442 -12.03248692 2.288404703
8.938399315 -12.06553364 2.800535917
9.10592556 -12.25917912 3.357452869
8.963791847 -12.0663023 3.833880186
8.965147972 -12.05208874 4.357776642
9.159187317 -12.27267838 4.977236748
16.7283287 -22.1642189 0.7983030677
9.116623878 -12.42448521 1.305569649
8.868895531 -12.0924902 1.79070282
8.816855431 -12.01198673 2.282902241
8.886126518 -12.08416176 2.799519539
8.934714317 -12.12590313 3.321677446
8.898843765 -12.06526566 3.826561689
8.928225517 -12.08618832 4.360171318
9.153817177 -12.34793854 4.994695663
16.96060371 -22.61491203 0.8012276292
9.056110382 -12.42632389 1.305681825
8.784040451 -12.06531334 1.786926389
8.753266335 -12.01136684 2.280112028
8.906469345 -12.18654251 2.813987255
8.879354477 -12.13681126 3.318577051
8.843262672 -12.07158184 3.821660995
8.887120247 -12.11101913 4.360069275
8.98904705 -12.2230711 4.938744068
16.96563911 -22.77826309 0.8040274978
9.281357765 -12.79821682 1.322435617
8.740026474 -12.08955669 1.787770152
8.717464447 -12.04183006 2.281652927
8.87660408 -12.22992992 2.817646265
8.770525932 -12.07930756 3.300144434
8.774892807 -12.06533813 3.813071012
8.824761391 -12.11284828 4.352277279
8.989502907 -12.30552292 4.958953857
16.88068771 -22.82621384 0.8067455888
9.248304367 -12.84156704 1.324422836
8.671485901 -12.0821085 1.785794497
8.669110298 -12.06419945 2.281858683
8.667777061 -12.04348564 2.780212164
8.698525429 -12.06778908 3.292140484
8.728780746 -12.09110928 3.812878132
8.768892288 -12.12660122 4.347940922
8.856794357 -12.2185812 4.91730547
16.81604195 -22.90856361 0.8096231222
9.34209919 -13.0544014 1.33403635
8.623052597 -12.1042738 1.786412954
8.60808754 -12.06596851 2.279463768
8.621832848 -12.06881142 2.780555248
8.612703323 -12.04182816 3.280705929
8.876204491 -12.36261559 3.879359961
8.665072441 -12.07419395 4.323147774
8.821882248 -12.25988483 4.922111988
16.74279213 -22.97187042 0.8123452067
9.322623253 -13.11708736 1.336900473
8.557161331 -12.09937286 1.784697413
8.550786972 -12.07218552 2.277690649
8.583809853 -12.10031319 2.782223463
8.497972488 -11.97328949 3.260112524
8.784562111 -12.32671261 3.862840891
8.615002632 -12.09037971 4.320172787
8.866252899 -12.40002251 4.963330269
8.587229729 -12.31878853 0.3029617369
16.52611542 -22.84482956 0.8148267269
9.312484741 -13.19252586 1.340341568
8.526371956 -12.14024734 1.78706944
8.46105957 -12.03538132 2.270214796
8.447329521 -12.00246716 2.760917664
8.439923286 -11.97771072 3.255898714
8.614948273 -12.18770695 3.818742275
8.573167801 -12.11714554 4.320590019
8.748517036 -12.32998943 4.928262711
8.539031982 -12.33748341 0.3048293293
16.7943821 -23.363657 0.818136096
21.60398293 -29.62246132 2.079365492
8.470202446 -12.14757347 1.786468506
8.422006607 -12.06477165 2.271584034
8.403562546 -12.02547169 2.761162758
8.400957108 -12.00699234 3.25726366
8.47832489 -12.08974743 3.785877943
8.527733803 -12.13912201 4.319546223
8.604634285 -12.22409058 4.880443573
8.500330925 -12.36882591 0.3061516285
16.83034325 -23.5762825 0.8210964203
18.82469749 -26.1103611 1.921513438
8.437973976 -12.18660355 1.788693786
8.388812065 -12.10198307 2.274006367
8.354979515 -12.04197121 2.760281324
8.38672924 -12.06920052 3.265963793
8.414216042 -12.08631897 3.778474092
8.409876823 -12.06484318 4.288368225
8.566948891 -12.25694561 4.882943153
8.450847626 -12.38555336 0.3080763221
16.75825691 -23.6445179 0.8238562942
21.30041122 -29.63431358 2.080161572
8.344937325 -12.14384842 1.783679605
8.316293716 -12.08643818 2.269449949
8.327675819 -12.08685398 2.764446259
8.333323479 -12.07934761 3.263130188
8.350242615 -12.08257771 3.771059275
8.351902008 -12.06912136 4.281955242
8.477292061 -12.22045422 4.860530376
8.420215607 -12.42789936 0.3089221716
16.63747597 -23.64634895 0.8264991641
21.1619854 -29.65689468 2.081319332
8.342241287 -12.22264099 1.789446354
8.333749771 -12.19212914 2.280964375
8.304861069 -12.13805676 2.769735813
8.284636497 -12.09558964 3.261688471
8.27940464 -12.06910706 3.761123657
8.32292366 -12.11206627 4.287690639
8.440743446 -12.25442886 4.863570213
8.366265297 -12.44250202 0.3110395968
16.69668579 -23.8952179 0.8295739889
19.63356781 -27.77609634 1.996838927
8.281388283 -12.22265244 1.788248181
8.423789024 -12.40220928 2.306120634
8.240791321 -12.13335896 2.765188932
8.240595818 -12.11798096 3.261640787
8.205649376 -12.05512714 3.750822783
8.284842491 -12.14702415 4.290575504
8.434876442 -12.33002949 4.881563187
8.308487892 -12.44730282 0.3134141266
16.68951607 -24.06331635 0.8326615691
19.54893875 -27.86720276 2.001091719
8.213962555 -12.21735573 1.786537409
8.254799843 -12.25453472 2.284176111
8.233167648 -12.20980835 2.774762869
8.201491356 -12.15116882 3.263756514
8.183661461 -12.1072607 3.758445501
8.210828781 -12.12874031 4.277328014
8.377718925 -12.34052753 4.875806808
8.269375801 -12.4778614 0.3147163093
16.66444969 -24.19948196 0.8355707526
19.45343971 -27.93357468 2.004231453
8.169669151 -12.2394228 1.787315488
8.203336716 -12.26708031 2.28340888
8.218974113 -12.27368546 2.78230691
8.130750656 -12.13654804 3.255640507
8.161417961 -12.15936852 3.766070604
8.293166161 -12.32514572 4.330771923
8.366696358 -12.40993309 4.891590118
8.210490227 -12.4805727 0.3171420097
16.55820274 -24.21380806 0.8380952477
19.27057838 -27.87763214 2.00187254
8.162124634 -12.30858231 1.792309046
8.173893929 -12.31012249 2.286670923
8.196343422 -12.32634449 2.787884235
8.092061043 -12.16174507 3.256560326
8.141183853 -12.21464157 3.77453661
8.156476974 -12.22010231 4.29073143
8.250471115 -12.32994175 4.854637146
8.143351555 -12.46687698 0.3200850189
8.721449852 -13.19659328 1.341096401
8.115235329 -12.32719326 1.792797685
8.075104713 -12.25585461 2.277175903
8.105373383 -12.27919292 2.77620244
8.101636887 -12.25873089 3.272977829
8.077178955 -12.20485783 3.766167402
8.132102966 -12.26586819 4.297854424
8.211220741 -12.36005974 4.85654974
8.098428726 -12.48867893 0.3216996491
8.618991852 -13.21756649 0.8170226812
8.658885956 -13.19914055 1.341289043
8.091306686 -12.37822247 1.796146512
8.034976959 -12.27925205 2.278018951
8.074555397 -12.32025623 2.779798746
8.024141312 -12.23380089 3.262733936
8.019264221 -12.2073307 3.760789394
8.12122345 -12.33514786 4.311870575
8.172978401 -12.39160442 4.859013557
8.045729637 -12.50350571 0.3237053752
8.590806007 -13.26891041 0.8185090423
8.608998299 -13.2194252 1.342283368
8.014515877 -12.35403538 1.792897105
8.005630493 -12.32646084 2.281760216
8.007159233 -12.30937862 2.774362326
8.012587547 -12.30190086 3.272842169
7.954946995 -12.20452404 3.753789902
8.079995155 -12.36626148 4.313768864
8.139042854 -12.42930603 4.863695145
7.993926048 -12.5150547 0.3257020414
8.580842018 -13.27548885 1.344896436
7.972392559 -12.38327694 1.794296384
8.007572174 -12.41466713 2.290978909
7.993374825 -12.37916946 2.782819986
8.017792702 -12.39889908 3.288996458
7.902823925 -12.2144556 3.750491619
8.027334213 -12.37675571 4.309742928
8.133775711 -12.51237583 4.883989334
7.937623501 -12.51978683 0.327952981
16.1426487 -24.49858856 0.8518522382
18.42929459 -27.67600441 1.993677616
7.973968506 -12.4522934 2.293593407
7.931672096 -12.37596607 2.778781414
7.958311558 -12.39917946 3.284354687
8.028998375 -12.48126888 3.81439209
8.000142097 -12.42366886 4.316934109
8.200260162 -12.69511318 4.939770699
7.895975113 -12.54576874 0.3293486536
16.06022644 -24.55475426 0.8545569181
18.23868561 -27.59815788 1.990364671
8.429103851 -13.22389126 1.865662575
7.908732414 -12.44389248 2.290226936
7.904819489 -12.42307758 2.783499479
7.922335148 -12.43326855 3.287089825
8.048084259 -12.59606838 3.838423252
7.988121986 -12.49289227 4.330960751
8.044026375 -12.5574522 4.882800579
7.839726925 -12.55004787 0.3315847814
16.03573036 -24.69687843 0.8575081825
17.55754662 -26.7947979 1.954363942
8.111422539 -12.84884453 1.831736684
7.907389641 -12.52890682 2.299032688
7.920080662 -12.5323267 2.798973322
7.899525166 -12.48676491 3.294046164
7.970509052 -12.57067013 3.825895548
7.916583538 -12.47572899 4.318621635
8.033261299 -12.62966537 4.899705887
7.797061443 -12.57870483 0.3329716325
15.97484493 -24.78592491 0.8603104353
18.20459938 -27.95182037 2.006709337
7.932464123 -12.67356014 1.815335155
7.893320084 -12.59591389 2.305494547
7.857059956 -12.52700233 2.794638634
7.873133183 -12.53534794 3.299948931
7.852767467 -12.48960018 3.79869771
7.921522617 -12.57052803 4.340467453
7.96051836 -12.61138439 4.88492918
7.748766422 -12.59887791 0.3346775472
15.85628033 -24.79761505 0.8629953861
18.06416512 -27.9567852 2.007158518
7.827088833 -12.60962868 1.80863893
7.801562786 -12.55199242 2.297467947
7.780012608 -12.50464439 2.78724122
7.8268857 -12.55910206 3.300282001
7.779370785 -12.47273159 3.788301229
7.957398891 -12.71674633 4.377544403
7.992296696 -12.75178432 4.925262451
7.6816082 -12.58576775 0.3375345469
15.83681965 -24.95910454 0.8661524653
18.99123955 -29.57228851 2.08022666
7.811598301 -12.67973614 1.81364727
7.765264988 -12.59036541 2.300136566
7.773416042 -12.58737946 2.797977686
7.796934605 -12.60725403 3.30589819
7.74189043 -12.50455666 3.790875196
7.867324829 -12.67632771 4.357927322
7.929130077 -12.75206757 4.916660786
7.632108212 -12.599123 0.3393528759
15.78122139 -25.05774117 0.8689885139
16.89942741 -26.60887527 1.946833849
7.784603119 -12.72853756 1.816855431
7.951938629 -12.96262836 2.346070528
7.724742413 -12.6027832 2.797306538
7.739491463 -12.60964775 3.301926136
7.83596611 -12.73514462 3.844829321
7.834382534 -12.71648979 4.363169193
7.965921402 -12.8979187 4.959181309
7.566322327 -12.58709717 0.3421239555
15.65970516 -25.04615021 0.8713203669
17.62308693 -27.91463852 2.005948544
7.819453716 -12.86778355 1.827983856
7.758317471 -12.75894833 2.31757617
7.750917912 -12.73225498 2.816222668
7.74899292 -12.70920086 3.319051743
7.776042938 -12.73451519 3.838994503
7.783126354 -12.72903061 4.360092163
7.940488338 -12.94654942 4.968255997
7.523273468 -12.60540295 0.3436069787
15.5591259 -25.07540894 0.8739035726
17.48661232 -27.90072823 2.005547047
8.100980759 -13.39367867 1.872635007
7.713484287 -12.78088093 2.318251848
7.673670769 -12.69971943 2.807530642
7.740776539 -12.78720093 3.33131361
7.726846695 -12.74537277 3.836455822
7.829423904 -12.88612366 4.400996685
7.910582066 -12.99330044 4.976285934
7.480293274 -12.62822723 0.3450225592
15.48654652 -25.14807129 0.8766342998
17.34246635 -27.88418961 2.005044222
7.798160076 -13.01925278 1.839084864
7.71592474 -12.87150383 2.327889681
7.708476543 -12.84442806 2.829025507
7.78981638 -12.95456314 3.362657785
7.681967258 -12.76720905 3.836506844
7.862063408 -13.02874756 4.437096119
7.930645466 -13.11732578 5.011054516
7.438410759 -12.65725517 0.3463076055
15.38364887 -25.17323494 0.8791841269
17.18146706 -27.84000397 2.003298998
7.763235569 -13.05811214 1.841439843
7.669709206 -12.89627075 2.328845024
7.710316181 -12.93951607 2.842008352
7.610339642 -12.76781178 3.318398476
7.770151615 -13.00076485 3.890621185
7.874856472 -13.14701366 4.465447426
7.930171013 -13.21095467 5.035253048
7.403778553 -12.69331169 0.3472093344
15.3297472 -25.28529739 0.8821807504
17.09000587 -27.91453552 2.00693059
7.990727425 -13.51610374 1.880051613
7.673454285 -12.99508953 2.339424849
7.695660114 -13.01437855 2.85136795
7.685932159 -12.98318195 3.359725237
7.673972607 -12.94359493 3.870426178
7.884885788 -13.25762749 4.491786957
7.943489552 -13.33200073 5.068449974
7.357419014 -12.71527958 0.3487407267
15.22870445 -25.31316948 0.8847253919
17.12517357 -28.18044472 2.019196987
7.655405521 -13.06511974 2.346201658
7.653126717 -13.0410738 2.852691412
7.623485565 -12.97819614 3.354324341
7.591846943 -12.91201019 3.856608629
7.831881523 -13.27480793 4.489777088
7.915037155 -13.38379765 5.078176498
7.318233967 -12.73493576 0.3500134051
15.15506935 -25.37541199 0.8872784376
16.78509903 -27.83671379 2.003930092
8.032258987 -13.77484894 1.900431514
7.618079185 -13.0907259 2.347606421
7.601080894 -13.04783535 2.850809574
7.575831413 -12.99162483 3.353095055
7.75022459 -13.24860859 3.937624454
7.8019104 -13.31398106 4.495404243
7.26966095 -12.75316429 0.3516610265
15.05388546 -25.402565 0.8898019195
16.60890579 -27.76247978 2.000848293
7.88427639 -13.6365509 1.887467384
7.58786869 -13.1421423 2.352013588
7.592897892 -13.12969303 2.861536503
7.569712162 -13.07638168 3.366798878
7.677721024 -13.23363686 3.928041697
7.805202484 -13.42129707 4.520365715
7.22000742 -12.7648077 0.3534270227
14.9463377 -25.42850494 0.8924286962
16.55101395 -27.88952446 2.006877899
7.662102699 -13.37974548 1.864264488
7.626196384 -13.30057812 2.370191574
7.64020586 -13.30734634 2.888321161
7.57538414 -13.18602085 3.385538578
7.620953083 -13.23860168 3.923875093
7.838583469 -13.5736208 4.55901432
7.154862881 -12.75525379 0.3560594916
14.84307098 -25.45140266 0.8949110508
17.39990807 -29.49727058 2.079814672
7.669254303 -13.48982334 1.872794032
7.590901852 -13.34533691 2.373748064
7.635868549 -13.39803028 2.90050292
7.633907795 -13.37848473 3.421951294
7.582494259 -13.27797508 3.928225994
7.808915138 -13.63018417 4.568788528
7.105295181 -12.76644135 0.3578100502
14.7736063 -25.53990746 0.8977929354
17.25566101 -29.49573898 2.080066681
7.719933033 -13.67825794 1.888021111
7.548295498 -13.37338352 2.37528944
7.648278713 -13.5223217 2.918191195
7.576608181 -13.38775253 3.419447422
7.533852577 -13.29587555 3.927431345
20.38187599 -34.38647842 10.71740532
20.57972908 -34.66427994 12.2859087
7.061862469 -12.78773975 0.3591825068
14.6752739 -25.57067108 0.900293529
17.13512993 -29.5214138 2.081539154
7.680316448 -13.713624 1.890109301
7.594634056 -13.54957962 2.395682335
7.65700531 -13.63706017 2.934400082
7.713426113 -13.71415329 3.483939409
7.692111492 -13.65673161 4.01341486
20.20974159 -34.36735535 10.69443512
7.027508736 -12.82437325 0.3599946201
14.63078308 -25.69233704 0.903208077
16.98400307 -29.49506187 2.08066535
17.02557945 -29.52887154 3.248986721
17.06752205 -29.55157661 4.425703049
17.08939934 -29.55143738 5.61011982
17.12113953 -29.567276 6.81071806
17.13897896 -29.54768372 8.020341873
20.04294777 -34.35578537 10.67389297
20.04967308 -34.32035446 12.128232
7.005025387 -12.88629532 0.3600056171
14.67557621 -25.9675827 0.9068599343
16.86979294 -29.52998734 2.082568645
16.8837719 -29.5175705 3.245935678
16.9276619 -29.55554962 4.421476364
16.95755768 -29.55788803 5.604250908
16.9762249 -29.55208397 6.798098564
17.00218201 -29.55785942 8.010369301
19.86862755 -34.34355927 10.65251541
19.89438629 -34.32695007 12.11051083
6.989288807 -12.9556427 0.3596514165
14.6398735 -26.11803055 0.9100610018
15.67673397 -27.72974396 2.001460075
16.74127579 -29.51542664 3.243600607
16.78496552 -29.54224586 4.4153409
16.81684685 -29.55986786 5.597365379
16.83456421 -29.552742 6.788448334
16.86066818 -29.54764748 7.995988369
19.71235466 -34.34715652 10.63683605
19.72073364 -34.31478882 12.08567238
6.954216003 -12.99210072 0.3604660332
14.51088142 -26.09788513 0.9123116136
15.59693527 -27.80843353 2.005335808
16.6170578 -29.53216171 3.243017197
16.6425705 -29.52830315 4.409181595
16.6744194 -29.54632187 5.588301659
16.70511436 -29.56175232 6.781115532
16.71253395 -29.52498627 7.978615761
19.55827332 -34.353405 10.62211609
19.56689644 -34.32163239 12.06846142
6.910063267 -13.01283169 0.3618287146
14.29787064 -25.92954636 0.9137961268
15.52376556 -27.89901733 2.009757042
16.47698975 -29.52072334 3.240046978
16.51439857 -29.53782082 4.40604496
16.52931023 -29.52700043 5.578353882
16.57184982 -29.56339645 6.772340298
16.58630943 -29.53886604 7.970551014
19.3985424 -34.34894943 10.60442066
19.40459061 -34.3128624 12.04619026
6.872743607 -13.04557991 0.3627609313
14.25778961 -26.06278801 0.9167822003
15.46203136 -28.01024246 2.015120745
12.66463375 -23.0779171 2.686419487
12.6241827 -22.97017288 3.572847366
12.93450165 -23.48372841 4.561704159
16.42800903 -29.54568481 6.75962925
16.45825768 -29.5488205 7.9616189
19.23715019 -34.3404274 10.58571529
19.25886536 -34.33166504 12.03340816
6.84506321 -13.0956459 0.3630842566
14.40214825 -26.52557373 0.921499908
12.69843674 -23.34679985 1.80422616
12.45623016 -22.89108658 2.668937922
12.45949078 -22.860075 3.555704117
12.66945171 -23.20159531 4.509442806
16.29034996 -29.5375824 6.749031067
16.31097031 -29.52427483 7.944177151
19.07414818 -34.32781219 10.56599808
19.10373878 -34.3331871 12.01500702
6.801362991 -13.12240696 0.3643182218
14.40809631 -26.74684525 0.9250020981
12.43021011 -23.05282784 1.791187882
12.33722782 -22.85956192 2.664780855
12.4732008 -23.07352829 3.57921195
12.58048439 -23.22654343 4.508552551
16.16455269 -29.54943657 6.742685795
16.17539024 -29.5307827 7.934075356
18.91991043 -34.34306335 10.55381584
18.93179893 -34.30397797 11.98650265
6.75294733 -13.13557243 0.3659088612
14.22816944 -26.64541245 0.9269002676
12.33624268 -23.07546425 1.792509317
12.2108717 -22.82264137 2.660117626
12.23370075 -22.82687378 3.544993877
12.40454769 -23.10472488 4.483032227
12.50096607 -23.24832726 5.425706387
16.03831291 -29.52197647 7.920834064
18.75746346 -34.32904053 10.53404808
18.77792931 -34.31906891 11.97214031
6.714109898 -13.16608906 0.3668923974
14.07192993 -26.57387352 0.9288122654
12.17276764 -22.96260643 1.787679195
12.11290359 -22.82662582 2.659044743
12.18089199 -22.91279793 3.552664757
12.2383585 -22.98844719 4.458796501
12.34507847 -23.15223885 5.39907217
15.9015131 -29.51255798 7.907569885
18.59157753 -34.30751419 10.51228142
18.62354088 -34.31853485 11.95366669
6.664649963 -13.17715836 0.3685333431
14.10930252 -26.85650635 0.9326765537
12.06876278 -22.95581055 1.787660003
12.01696205 -22.83369827 2.658256054
12.01381588 -22.79122734 3.534313917
12.04548454 -22.82099342 4.426172256
12.20047665 -23.07428932 5.376327038
15.77628231 -29.52308273 7.899388313
18.44202995 -34.3140831 10.49887085
18.48146248 -34.33917999 11.94245625
6.620637894 -13.20326614 0.3697501123
13.99966431 -26.87035751 0.9350497127
11.97352314 -22.96437073 1.788341522
12.03445625 -23.04889297 2.675226927
11.94843006 -22.86291695 3.54010725
11.95245647 -22.8331871 4.423461437
12.10462856 -23.08371925 5.371758938
15.64708996 -29.53750801 7.891755581
18.2820816 -34.31470871 10.48313999
18.32379532 -34.330616 11.9216938
6.605028152 -13.27744865 0.3692331314
15.27310371 -29.48265839 0.9525176287
11.89062119 -23.00452042 1.790475607
11.87356758 -22.94526672 2.664970398
11.86955547 -22.90085602 3.541847229
11.78599834 -22.71822357 4.399513721
11.97220707 -23.03425407 5.354785442
15.499753 -29.50574112 7.873322487
18.13847923 -34.33019638 10.47264481
18.15686226 -34.3177681 11.89882755
6.564662457 -13.30573654 0.3702682257
13.67497063 -26.70825577 0.938759625
11.78228283 -22.9876461 1.79001224
11.75693607 -22.91258812 2.660854816
11.77460766 -22.90872383 3.539853334
11.75896835 -22.85151863 4.416956425
11.9920826 -23.25778389 5.39449358
15.3667345 -29.49910164 7.861249447
17.99128532 -34.33828354 10.46015644
17.99796295 -34.30442047 11.87689209
6.54090023 -13.36575317 0.3702333868
13.60145473 -26.77644348 0.9412896633
14.18977356 -27.7255764 2.005427122
11.67811775 -22.94079208 2.662006855
11.67136574 -22.90039253 3.535871506
11.70512581 -22.93596077 4.426328659
11.79449081 -23.06619835 5.349034309
15.22657299 -29.47810555 7.845748901
17.82785034 -34.31495667 10.43875408
17.84890366 -34.29405975 11.8570118
6.506987095 -13.40156364 0.3709097803
13.26611233 -26.35375023 0.9409714937
12.37721729 -24.48814392 1.858758211
11.57961178 -22.94072151 2.660707235
11.58037949 -22.91447067 3.534726858
11.61411953 -22.94123459 4.422888279
11.67343616 -23.02523232 5.334393024
15.12190247 -29.51087379 7.844146729
17.67519569 -34.29642487 10.41963387
17.70410347 -34.30480576 11.84344673
6.457888126 -13.41354465 0.3724707365
11.88839912 -23.89615822 0.9280319214
12.3316288 -24.60205078 1.864268899
11.48695755 -22.94176483 2.659586191
11.4693594 -22.88037109 3.527751207
11.51201916 -22.93411636 4.417231083
11.5877161 -23.04096222 5.331787109
14.98948383 -29.50259781 7.832015038
17.51790619 -34.28199387 10.40114594
17.55729675 -34.29662704 11.824646
6.412781715 -13.42777824 0.3738482594
11.80444813 -23.93036652 0.9301997423
11.88813305 -23.93597984 1.834325552
11.47663212 -23.11096573 2.672694683
11.41605663 -22.96604919 3.535594463
11.42581081 -22.94741058 4.41520977
11.48452473 -23.03217316 5.323908329
14.86774254 -29.50157356 7.822282314
17.38200378 -34.29310226 10.39087677
17.40664864 -34.29425812 11.80710602
6.368336201 -13.459445 0.3749314547
11.73588467 -24.01472473 0.9328706264
11.43473434 -23.26788712 1.804325342
11.37745476 -23.1281395 2.672785282
11.283144 -22.90677643 3.52527976
11.45456791 -23.21276283 4.453998089
11.41786194 -23.11263275 5.333776951
14.71050358 -29.46778488 7.803133488
17.22415924 -34.30401993 10.37859821
17.25062752 -34.30916214 11.79380131
6.319142342 -13.47088623 0.3764763772
14.37808228 -29.46474075 0.9695231915
11.318573 -23.2327404 1.803058505
11.32941532 -23.22631264 2.679885387
11.21410751 -22.96185112 3.529368639
11.42113686 -23.34062958 4.470609665
11.3308754 -23.13461876 5.332322598
14.60108948 -29.50125313 7.801607132
17.0632534 -34.27898407 10.35756493
17.09601784 -34.29695129 11.77340603
6.261034966 -13.46424294 0.3785977662
14.25741959 -29.46033859 0.9717582464
11.27817535 -23.34704399 1.808593035
11.27131081 -23.29572868 2.684619904
11.23518753 -23.19599342 3.555714369
5.857067108 -12.50945854 2.690564871
11.24333382 -23.14554214 5.328959942
5.802301884 -12.36607838 3.595319986
16.91936493 -34.28607559 10.34590721
16.94585228 -34.27772141 11.75170326
6.22649765 -13.49927616 0.3792565465
12.6860199 -26.53618431 0.955027163
13.63152027 -28.25631142 2.032302856
5.849767685 -12.62610626 1.780150294
11.1312685 -23.18337822 3.551430225
5.779401779 -12.45086765 2.678859234
5.759306908 -12.39592552 3.13125205
5.77187252 -12.40085602 3.600198746
5.876661301 -12.59391785 4.130647182
16.79706383 -34.27447128 11.7346344
6.147827625 -13.45558357 0.3826385736
12.45028591 -26.28221321 0.9554590583
14.10848522 -29.46285629 2.087643147
5.748597145 -12.52484894 1.770970464
5.666200161 -12.33888245 2.204947948
5.715120792 -12.42302322 2.672119856
5.66290617 -12.30307484 3.109370947
5.702411652 -12.36757469 3.588093758
5.834611893 -12.6124773 4.131258011
16.64761543 -34.26889801 11.71698093
6.10969305 -13.49422932 0.3833474219
12.33273888 -26.27727318 0.9576070905
5.797874928 -12.74825287 1.3270154
5.651463509 -12.43475819 1.762726307
5.627609253 -12.36663914 2.206957817
5.561812401 -12.21825886 2.636407137
5.592158794 -12.26539326 3.098647833
5.639325619 -12.34620762 3.578966379
5.672915936 -12.39386082 4.064052582
5.753512859 -12.54104424 4.594259262
6.024190903 -13.4289999 0.3872779012
12.2431488 -26.32948494 0.9601280689
5.75089407 -12.76219463 1.327846289
5.564644337 -12.36384964 1.7561239
5.561941624 -12.33885193 2.202111721
5.494982719 -12.18688679 2.629097462
5.505394459 -12.19374371 3.08108449
5.657361031 -12.48508072 3.609116077
5.620189667 -12.39353943 4.059235573
5.67072773 -12.48087502 4.568949223
5.95210743 -13.39040279 0.3903277218
12.15004444 -26.3630085 0.9624124169
5.722404003 -12.80918312 1.330176353
5.518466473 -12.37057495 1.756124258
5.478696346 -12.26860428 2.192110777
5.465699673 -12.22729969 2.633631229
5.432326794 -12.14370537 3.068119049
5.629377365 -12.53101158 3.616610527
5.545895576 -12.34320736 4.040477276
5.569540501 -12.37613487 4.529490471
5.854752064 -13.29722595 0.3950799108
13.5001421 -29.44804955 0.9858859181
5.830287933 -13.14296913 1.3455832
5.472303391 -12.37711906 1.756118774
5.408011913 -12.22302246 2.185189009
5.40545845 -12.2033844 2.627702236
5.380934715 -12.13765335 3.064124823
5.426204681 -12.21227074 3.535519123
5.439314365 -12.2243824 4.002362728
5.49328804 -12.32098484 4.506337166
5.797957897 -13.28862 0.3971243799
12.1570797 -26.8419342 0.9698529243
5.830131531 -13.2535696 1.350826025
5.450879097 -12.43576717 1.760517836
5.324951172 -12.15014267 2.174928427
5.338676453 -12.16488361 2.619435072
5.343980789 -12.16160011 3.066237688
5.349502087 -12.15338993 3.517723083
5.3877635 -12.2186718 3.996461391
5.427409172 -12.28623295 4.489926338
5.759796619 -13.31966972 0.3979077041
11.74047375 -26.18220901 0.9672224522
5.540561199 -12.74708271 1.327925682
5.309854984 -12.23976612 1.743452549
5.316756725 -12.23517895 2.184160948
5.294104099 -12.17261982 2.618719101
5.267575741 -12.10175133 3.051434517
5.309913635 -12.17187786 3.518754005
5.373527527 -12.29159164 4.012881279
5.389708042 -12.31015873 4.492661476
5.71314621 -13.33243656 0.3992563486
11.63296413 -26.18121529 0.9692073464
5.702507496 -13.20506573 1.349022031
5.255888939 -12.22743416 1.741891265
5.265304565 -12.22836876 2.18208456
5.201108456 -12.0761404 2.60111165
5.220739365 -12.1039238 3.049214125
5.25538969 -12.15836143 3.512069225
5.303862095 -12.24695873 3.996051073
5.34458828 -12.31831646 4.490320683
5.664813995 -13.34139347 0.4007130861
11.53639126 -26.20343971 0.9713484049
5.705361843 -13.3247385 1.354692221
5.217076302 -12.24747276 1.743067026
5.185691357 -12.15995598 2.17244935
5.166039944 -12.10312843 2.603579521
5.167354107 -12.09161758 3.044106007
5.176419258 -12.09141541 3.492516756
5.239464283 -12.21252918 3.982185364
5.2607131 -12.24274921 4.460910797
5.60087204 -13.3155365 0.4032357037
11.44555378 -26.2380619 0.9735720754
5.408668041 -12.78798389 1.330391884
5.138495922 -12.18027878 1.736908078
5.134681225 -12.15260887 2.170351028
5.155511856 -12.18400002 2.614789486
5.153413773 -12.1649437 3.056284666
5.134608269 -12.10397148 3.492239714
5.30629921 -12.46302891 4.04876709
5.223919868 -12.26786137 4.464191437
5.546154499 -13.30946255 0.4051273763
12.10054684 -27.93900299 0.9881486893
5.094094276 -12.18719292 1.736999035
5.09770155 -12.17583466 2.172025442
5.084095001 -12.13154697 2.604426622
5.083783627 -12.11647129 3.043955803
5.10085535 -12.13416004 3.496247292
5.106786728 -12.13216591 3.951432467
5.487493038 -13.2940197 0.4072911441
12.69352722 -29.53145218 1.00216198
5.558543682 -13.34721088 1.356360197
5.063539505 -12.22488403 1.739686847
5.042745113 -12.15903282 2.168800831
5.035777569 -12.12928581 2.602217674
5.018597603 -12.0766201 3.033414602
5.022064686 -12.06449032 3.476224899
5.068032265 -12.15155125 3.952932358
5.117640972 -12.24602413 4.447608948
5.428210258 -13.2764864 0.4095005691
12.55574131 -29.48949432 1.004032254
5.61448288 -13.59127045 1.367736816
5.010168076 -12.21144867 1.738084078
4.994423866 -12.15651608 2.167347908
4.989947796 -12.13225079 2.600877285
4.970535755 -12.07420158 3.030436993
4.99233532 -12.1032486 3.482367039
5.009454727 -12.12658119 3.942000628
5.021267414 -12.13753986 4.407977581
5.377077579 -13.27702904 0.4111418426
11.24001408 -26.7382164 0.9851644039
5.482678413 -13.4112711 1.35972929
4.961771011 -12.20873165 1.737392187
4.950175762 -12.16290188 2.167002439
4.944967747 -12.13683987 2.59982276
4.94238615 -12.11658859 3.036476612
4.938736916 -12.08832169 3.475626945
4.955815792 -12.11197472 3.934041262
4.974647045 -12.13905716 4.403889656
5.334700584 -13.29756546 0.4121641815
11.15294838 -26.78461647 0.9874731898
5.458842754 -13.47611904 1.362920523
4.924571991 -12.23142242 1.738843083
4.898813725 -12.15271091 2.164643764
4.908702374 -12.16120625 2.601977348
4.878589153 -12.07778549 3.02626586
4.912687302 -12.13580322 3.483912468
4.924103737 -12.14681435 3.940001726
4.919603348 -12.12105942 4.393583298
5.278931141 -13.28668594 0.4141253829
11.03509235 -26.75897789 0.9892151356
4.946796894 -12.40647984 1.314188004
4.860470772 -12.1917181 1.735065103
4.850721359 -12.1496048 2.163169622
4.869194984 -12.17819023 2.602959633
4.862740517 -12.14881516 3.038080454
4.87394762 -12.15455818 3.485324144
4.899138451 -12.19756794 3.950440168
4.874693871 -12.12568951 4.390611172
5.205407619 -13.23321056 0.4173496366
10.69252205 -26.20044899 0.9867468476
4.908136368 -12.42732716 1.315352798
4.87178421 -12.32779789 1.746044874
4.818324089 -12.18285561 2.166155577
4.79539299 -12.11499786 2.59106493
4.811614037 -12.13849831 3.033635616
4.811259747 -12.11753559 3.473406553
4.870059013 -12.23938084 3.958391428
4.8586092 -12.19712162 4.409105778
5.14543581 -13.2107296 0.4196199477
10.5810051 -26.18224907 0.9884775877
4.863959789 -12.4351511 1.31592381
4.78369236 -12.23079395 1.737480164
4.7935009 -12.23431969 2.171375513
4.77996254 -12.18806458 2.601108074
4.771371365 -12.15331459 3.034244776
4.813045502 -12.23122501 3.497597933
4.839229584 -12.27756596 3.965347767
4.809754848 -12.1926775 4.403301239
5.104794025 -13.23416233 0.4205047488
10.46363068 -26.14879036 0.9900717139
4.820552826 -12.44465446 1.316574216
4.726344585 -12.20506096 1.734905243
4.741495132 -12.22159004 2.168769598
4.829889774 -12.41806221 2.636345863
4.709753036 -12.11721134 3.024720907
4.790616035 -12.28924656 3.508466482
4.772089481 -12.22999191 3.948396444
4.774408817 -12.2198534 4.407666206
5.061018944 -13.25006199 0.4216057658
10.40432453 -26.25543976 0.9927837253
4.78325367 -12.46876526 1.317896605
4.681441307 -12.20854664 1.734788895
4.714770317 -12.26921558 2.173541069
4.825904846 -12.52246952 2.651396036
4.649207115 -12.08263016 3.015545845
4.746056557 -12.29496384 3.506858826
4.718026638 -12.21247959 3.939899921
4.70935297 -12.17611408 4.389408588
5.008179665 -13.24357414 0.4233583808
11.58095837 -29.39122391 1.020132065
4.732210159 -12.45947456 1.317689896
4.634760857 -12.20182896 1.733846545
4.656054974 -12.23958015 2.168906689
4.713656425 -12.36533546 2.624528885
4.62087965 -12.11971951 3.020793915
4.64715004 -12.16870403 3.47382021
4.67523098 -12.22158813 3.938870192
4.682594776 -12.21810913 4.398806095
4.94417572 -13.20261192 0.4260328114
4.951140404 -13.2047081 0.8889064789
4.701336384 -12.49359035 1.319465518
4.619216442 -12.27700996 1.739748955
4.683693409 -12.42139339 2.190037012
4.596328259 -12.17210865 3.028987408
4.575519085 -12.10077667 3.454917431
4.627088547 -12.2118063 3.9328022
4.633960247 -12.21293354 4.392976284
4.88648653 -13.18264961 0.4281474948
4.902994156 -13.20889759 0.8898265362
4.673463821 -12.54142475 1.321885228
4.5674963 -12.2634182 1.738227248
4.698793411 -12.5695343 2.20710516
4.630723476 -12.38598824 2.624654055
4.572938919 -12.22811127 3.037908077
4.602768421 -12.28132725 3.495062113
4.589446545 -12.23313713 3.935250998
4.618584156 -12.28932762 4.413173199
4.834188461 -13.18187714 0.4297604263
4.85414505 -13.21104145 0.8907248378
4.778169155 -12.92344093 1.33965528
4.523311138 -12.26812649 1.738246202
4.534480095 -12.28198433 2.171095133
4.527357578 -12.24398613 2.600359917
4.534606457 -12.2475605 3.03958106
4.710953236 -12.67333126 3.585267544
4.590763092 -12.35761356 3.966178894
4.570570469 -12.28564644 4.407901764
4.783370018 -13.17819118 0.4313693345
4.821370602 -13.2604084 0.8920608163
4.845919609 -13.22535515 1.353774428
4.483718872 -12.29015064 1.739703059
4.47783041 -12.25515747 2.166875124
4.487747669 -12.26594067 2.602231979
4.492757797 -12.26399994 3.040572643
4.61703968 -12.55703831 3.554778814
4.528289795 -12.31762218 3.951665163
4.509299278 -12.25403214 4.393609524
4.733379364 -13.18258667 0.4328053892
9.727895737 -26.09632683 1.002337575
4.46196413 -12.35212803 1.744525194
4.459165573 -12.33067322 2.175052881
4.444282055 -12.27224064 2.601702213
4.460008621 -12.29783154 3.045141459
4.592524052 -12.62103271 3.567005157
4.474052429 -12.30335236 3.944173813
4.484713554 -12.30882263 4.407012939
4.692687035 -13.2046423 0.4336471856
9.61551857 -26.07947731 1.00405097
8.844546318 -23.87562943 1.844021559
4.437083721 -12.4130125 1.749243259
4.419116974 -12.34610367 2.175992489
4.405950069 -12.29759693 2.604155302
4.385313511 -12.22962856 3.029428959
4.492690086 -12.48575115 3.532164812
4.530653 -12.5678997 4.014015675
4.443873405 -12.32859898 4.409134388
4.650479794 -13.2228241 0.4345931709
9.511343956 -26.06982994 1.005724669
4.391358852 -12.42842674 1.317865252
4.394668579 -12.42279243 1.74971664
4.371914864 -12.34283352 2.174677372
4.358199596 -12.2925005 2.60185051
4.363108158 -12.2906847 3.039435148
4.39877367 -12.36267853 3.500316143
4.389522552 -12.32319641 3.943053246
4.40771389 -12.35462952 4.413472652
4.616596699 -13.26333618 0.4348941147
10.63598251 -29.34544563 1.036087513
4.343310833 -12.42308807 1.317854524
4.330399513 -12.37459087 1.745357752
4.336036205 -12.36911583 2.176959276
4.330839634 -12.34086609 2.608077049
4.316132545 -12.28735828 3.036729574
4.363315582 -12.39062786 3.504272223
4.341044426 -12.31659222 3.93798995
4.387807846 -12.42356777 4.431413174
4.593580723 -13.33376503 0.4343420863
9.565842628 -26.75829315 1.015269518
4.312112808 -12.46248722 1.319905519
4.297221661 -12.40826797 1.747843623
4.301430225 -12.39900589 2.179689407
4.517631054 -12.96158981 2.705331087
4.271300793 -12.28936863 3.035107613
4.333210468 -12.43309402 3.51168108
4.308348179 -12.35148239 3.944413185
4.333661079 -12.40276432 4.421008587
4.576993465 -13.42296124 0.4332631826
9.455626488 -26.73703003 1.016853929
4.273077965 -12.48118973 1.321006775
4.254871845 -12.41754246 1.748300314
4.275624752 -12.45302391 2.18535018
4.283517838 -12.45969486 2.624071836
4.237460613 -12.32070446 3.039296865
4.347779751 -12.5962944 3.547602177
4.295734406 -12.44072533 3.965831518
4.292444706 -12.41587257 4.421369553
4.531286716 -13.43322563 0.4344173968
9.330684662 -26.6739502 1.018051505
4.235339642 -12.50351143 1.322277546
4.216616154 -12.43789768 1.749689221
4.229682922 -12.45288467 2.184468746
4.233431816 -12.44849586 2.620868921
4.246145725 -12.46825504 3.066400528
4.319455624 -12.64610481 3.556750774
4.249076843 -12.43916225 3.962257385
4.262469769 -12.45942211 4.431370735
4.513162613 -13.52050877 0.4334001541
9.00673008 -26.05298996 1.014203668
4.189123631 -12.4881258 1.753576517
4.181758404 -12.44696426 2.182904005
4.18955183 -12.45382309 2.620312929
4.180683136 -12.41451168 3.05385828
4.218068123 -12.49583626 3.518781185
4.20381403 -12.44105434 3.959676504
4.243409634 -12.53353405 4.451019287
4.506485939 -13.64174366 0.4314414859
8.897533417 -26.02392387 1.015634775
4.24355793 -12.78300285 1.335661411
4.144539356 -12.49136829 1.753553629
4.190895081 -12.59986591 2.200538635
4.155699253 -12.48691463 2.624179125
4.140911579 -12.43078613 3.055134296
4.203077316 -12.5820322 3.536565542
4.192725182 -12.53750038 3.983106136
4.225180626 -12.61125946 4.471808434
4.456774235 -13.64230442 0.4328578413
8.804527283 -26.03970146 1.017462015
4.206012726 -12.80901909 1.337116599
4.115951061 -12.53955078 1.757283807
4.137960434 -12.58064175 2.197389126
4.144164562 -12.58329487 2.638085365
4.12871933 -12.52475834 3.071702242
4.205869198 -12.71976948 3.566468954
4.156301975 -12.56470013 3.987527847
4.17423296 -12.59869099 4.464217186
4.415997505 -13.67556381 0.4334263504
7.931345463 -23.80250359 0.9985300303
4.159770966 -12.81039524 1.337437272
4.08838129 -12.59144306 1.761329174
4.098932743 -12.60691547 2.199706078
4.094666958 -12.57334423 2.635159016
4.086593151 -12.53528976 3.071884155
4.146676064 -12.69077492 3.557056665
4.113184452 -12.57971287 3.988488674
4.135546207 -12.62027264 4.467407703
4.370150566 -13.68712425 0.4345183372
7.848680496 -23.83517838 1.000425339
4.051285744 -12.6232605 1.763695598
4.060514927 -12.62860107 2.20152235
4.095088005 -12.7134037 2.655919552
4.061741829 -12.60210514 3.083040953
4.101377964 -12.69399166 3.555378437
4.086074829 -12.63409424 4.000416279
4.104168415 -12.66959095 4.479160309
4.779361725 -15.04522228 0.3985615969
9.083231926 -27.74787521 1.038503289
4.073728561 -12.83790493 1.339242458
4.024442673 -12.678792 1.768057346
4.018776894 -12.64076042 2.202203274
4.07810545 -12.78350925 3.116762877
4.064986229 -12.72289181 3.559756994
4.068724632 -12.71771908 4.02036047
4.071432114 -12.70907307 4.488028526
4.718641758 -15.02768803 0.4005777538
8.59554863 -26.60157204 1.029471755
4.033926964 -12.85769939 1.340421796
4.006832123 -12.76261234 1.774779677
3.994852304 -12.70547104 2.209226847
4.016602039 -12.75465393 2.659815788
4.014254093 -12.73239708 3.104911327
4.03661108 -12.77571297 3.569764614
4.006528378 -12.67122936 4.004737854
4.125720024 -13.00437927 4.577026367
4.663730145 -15.02699471 0.4021179676
8.27983284 -25.94780922 1.024948478
4.242465973 -13.62227154 1.376058578
3.962797642 -12.76891518 1.77505672
3.991315603 -12.83234692 2.223740578
3.983191013 -12.7929039 2.664571762
3.985204935 -12.78352642 3.113115549
4.024090767 -12.87659931 3.591039896
4.003373146 -12.79878235 4.0367136
4.024269104 -12.84410763 4.523385525
4.613228321 -15.03938961 0.4032889307
8.191165924 -25.95799446 1.026584983
4.017845631 -13.0904541 1.351729751
3.932723522 -12.8103447 1.778276205
3.980082035 -12.93858433 2.235770226
3.97504425 -12.90805054 2.681471586
3.959808826 -12.8395052 3.122370958
3.98936367 -12.91269016 3.597154379
3.960883617 -12.81070709 4.037119865
3.993973017 -12.88634586 4.53334856
4.562087059 -15.04129791 0.4046592712
8.103055954 -25.98450661 1.0284518
3.979842186 -13.11128139 1.352956414
3.908363581 -12.8770237 1.783590436
3.927410603 -12.92023182 2.232819557
3.927034855 -12.89665031 2.678482533
3.925228596 -12.87557888 3.12765789
3.951680899 -12.93315983 3.59975338
3.951900721 -12.91744804 4.063551903
4.04830265 -13.19327068 4.625821114
4.54071188 -15.14476585 0.40335235
8.00402832 -25.96168327 1.02975595
7.29174757 -23.53949738 1.836355925
3.925490618 -13.06633472 1.799119115
3.91429019 -13.01632309 2.243678093
3.909312725 -12.98547554 2.691244364
4.089003563 -13.51693535 3.251259327
3.920225859 -12.98018742 3.60846734
3.978414536 -13.14277935 4.122140884
3.958457947 -13.05697536 4.580057621
4.497125149 -15.17119503 0.404050827
8.967938423 -29.32134056 1.064028859
7.215352535 -23.5596962 1.837786198
3.890794039 -13.10460949 1.802081585
3.913537264 -13.16045761 2.260275364
3.900374174 -13.09625816 2.707527399
3.973324776 -13.30818558 3.208715677
3.920440197 -13.11942196 3.63882947
3.924446821 -13.11522007 4.11197567
3.907385588 -13.04500961 4.573004723
4.478589535 -15.30482578 0.4020939469
8.8445158 -29.30970383 1.065891862
7.127027988 -23.58335495 1.839460492
3.89228344 -13.27345371 1.815883279
4.01240015 -13.63136768 2.316072941
3.894989491 -13.24308014 2.72929883
3.975160122 -13.48072815 3.240442991
3.876719952 -13.14541912 3.642435074
3.901719332 -13.20755672 4.134056091
4.441868782 -15.3643322 0.4019797444
8.73650074 -29.31170654 1.067697644
7.045969009 -23.602314 1.840869427
3.894543648 -13.43351841 1.82897985
3.943582058 -13.56744289 2.307678461
3.897022247 -13.40190983 2.753073215
3.963797092 -13.59953022 3.261855602
3.859307766 -13.24074173 3.662444115
3.865342855 -13.24313068 4.140992641
10.41892815 -34.12023544 11.12426949
4.390845299 -15.37784386 0.4030870795
7.838204861 -26.71079254 1.043667912
7.050354481 -23.89988899 1.855217099
3.842498779 -13.4203043 1.82768333
3.930740833 -13.68362141 2.3209126
3.884607077 -13.51742268 2.770032406
3.947007179 -13.70337486 3.280352592
3.818805456 -13.26334381 3.665524483
8.815526009 -29.39851761 8.524589539
10.29220009 -34.12483597 11.11703968
4.370759964 -15.49460125 0.4014523923
7.740040779 -26.71115303 1.045275688
8.606061935 -29.32849121 2.107898951
6.960013866 -23.8625927 2.694932938
7.012615204 -23.9922924 3.556311607
6.962576866 -23.79812431 4.383434296
8.697123528 -29.36954117 8.510604858
10.163867 -34.12346649 11.10808563
4.321003437 -15.51360798 0.4024049044
7.474468708 -26.14544678 1.041188002
8.499258995 -29.33340454 2.10880518
6.901377201 -23.95924187 2.702628374
6.97338295 -24.15544128 3.574641228
6.93060112 -23.98314285 4.410370827
8.558197021 -29.36625671 6.32278204
8.572999954 -29.35932732 7.403116226
8.583478928 -29.35492516 8.500621796
10.04067707 -34.13812637 11.10424137
4.263011456 -15.51400185 0.403909415
7.368951797 -26.11184692 1.042399406
8.394776344 -29.34558487 2.110054493
8.403270721 -29.33848 3.149012089
6.936884403 -24.34647369 3.596262932
6.893499374 -24.15493774 4.435240269
8.447033882 -29.3580246 6.317515373
8.455703735 -29.34909439 7.395715714
8.471682549 -29.36358833 8.496754646
9.912561417 -34.13580704 11.09525394
4.213714123 -15.53456402 0.4048011601
8.182400703 -29.28051949 1.076246619
8.276975632 -29.33004761 2.110054493
8.289853096 -29.33834457 3.148611784
8.321208954 -29.35442924 5.248235703
8.333817482 -29.36024284 6.314167023
8.346905708 -29.34818077 7.390805721
8.364931107 -29.3703804 8.492772102
9.775500298 -34.12364578 11.08295059
4.163224697 -15.55111504 0.4057890773
8.081145287 -29.3011837 1.078181624
8.167110443 -29.32221603 2.110383034
8.182611465 -29.34017944 3.14841342
8.211524963 -29.34891129 5.24490881
8.22787571 -29.3681469 6.312168598
8.233846664 -29.33186722 7.382401466
8.258249283 -29.37677193 8.488775253
9.649308205 -34.12584686 11.07563972
4.113217831 -15.56941319 0.406722039
7.978195667 -29.31571388 1.080046773
8.055792809 -29.3081913 2.11042738
8.068922997 -29.31859779 3.146291018
8.100896835 -29.33917046 5.240972042
8.120350838 -29.36999321 6.309057713
8.126368523 -29.33388519 7.378332138
8.144154549 -29.35671997 8.477725029
9.523236275 -34.12757111 11.06831169
4.065267086 -15.59525108 0.4074510634
7.862976074 -29.28553963 1.081441045
7.953259468 -29.32452583 2.111890793
7.960339069 -29.31384468 3.145585775
7.99473238 -29.34423447 5.239403248
8.007585526 -29.35251236 6.302264214
8.016872406 -29.32798386 7.372508049
8.030302048 -29.33622551 8.466657639
9.396226883 -34.12513733 11.05982685
4.018231392 -15.62479115 0.4080772996
7.759329796 -29.27671432 1.082960129
7.441864967 -27.85943794 2.044299126
7.863750935 -29.33229828 3.14683938
7.882276535 -29.32604027 5.234244347
7.90425539 -29.34837723 6.29829073
7.91430378 -29.34611511 7.372329235
7.921902657 -29.33392906 8.460605621
9.274155617 -34.11694336 11.05006886
3.978817463 -15.67278957 0.4081535339
6.938973904 -26.62930107 1.056931019
7.299813271 -27.69113922 2.037091255
7.752720356 -29.31715393 3.145309687
7.787045956 -29.34993172 5.235829353
7.794490814 -29.33953285 6.293302059
7.805865288 -29.32300186 7.362894535
7.823750973 -29.34853935 8.459474564
9.144356728 -34.10248566 11.03812695
3.917034626 -15.64795113 0.4101603329
