# .PCD v0.7 - Point Cloud Data file format
VERSION 0.7
FIELDS x y z
SIZE 4 4 4
TYPE F F F
COUNT 1 1 1
WIDTH 1313
HEIGHT 1
VIEWPOINT 0 0 0 1 0 0 0
POINTS 1313
DATA ascii
-69.18559265 -34.43933487 6.665812969
-66.06661987 -32.64902115 1.25617373
-69.204422 -34.25032043 3.964756727
-69.1697998 -34.13362503 6.648224831
-66.0488205 -32.35727692 1.249233603
-69.20528412 -33.95344925 3.953150511
-69.19953918 -33.85072708 6.634593964
-73.27957916 -35.70292282 9.832211494
-66.06415558 -32.08224106 1.242532134
-69.19409943 -33.65184021 3.941049099
-69.16681671 -33.53910446 6.61578989
-66.10011292 -31.81767082 1.23597455
-69.18885803 -33.35411453 3.929277182
-69.15986633 -33.24076843 6.599267483
-73.28119659 -35.0774765 9.789094925
-50.08167648 -24.11307144 1.122166395
-69.2077713 -33.0686264 3.91865325
-69.16072083 -32.94708633 6.583503723
-69.18923187 -32.76666641 3.906388044
-69.15312195 -32.65046692 6.56713295
-73.33912659 -34.48186874 9.753487587
-69.15850067 -32.4602623 3.893635273
-69.15335846 -32.35842133 6.55151844
-73.27578735 -34.14333725 9.724634171
-69.15563202 -32.16762924 3.882190704
-69.17240906 -32.07578278 6.537566185
-73.21099091 -33.80565262 9.695792198
-69.12967682 -31.86561394 3.86977005
-69.17393494 -31.78606415 6.522249222
-69.13897705 -31.58036804 3.858975887
-69.12696838 -31.49025154 6.503784657
-73.25886536 -33.21311188 9.660168648
-66.085495 -29.89299011 1.189101458
-69.14913177 -31.31071663 3.848823309
-69.11532593 -31.21110535 6.488338947
-65.99368286 -29.57855606 1.181796908
-69.15459442 -31.03973579 3.838506222
-69.1224823 -30.92667198 6.47377634
-65.99417114 -29.3054409 1.175058126
-69.14222717 -30.74748802 3.826896906
-69.11752319 -30.63782883 6.458309174
-65.99355316 -29.03266716 1.168317795
-69.11027527 -30.44783211 3.814483166
-69.12606049 -30.3556385 6.444043159
-65.99183655 -28.76025391 1.16157639
-69.11758423 -30.16592407 3.803841591
-69.08016968 -30.05127907 6.425424576
-65.99639893 -28.49127197 1.154874682
-69.11407471 -29.86606979 3.79223156
-69.09926605 -29.77527046 6.412205696
-66.06642151 -28.25013924 1.14853406
-69.11034393 -29.59535789 3.781749487
-69.12094879 -29.50102234 6.399280548
-66.2621994 -28.07427216 1.143195033
-69.10684204 -29.3114109 3.770781517
-69.09598541 -29.22240448 6.383387566
-66.63460541 -27.95576668 1.13841331
-69.07507324 -29.03085518 3.759183168
-69.08779907 -28.93746758 6.368217468
-69.14842224 -28.6957531 1.144616485
-69.09898376 -28.75969315 3.749487638
-69.05995941 -28.64548492 6.351555347
-69.13723755 -28.41144943 1.137532115
-69.08470154 -28.47389221 3.738199949
-69.06797791 -28.3687973 6.337875843
-69.11000061 -28.12169266 1.130373955
-69.07671356 -28.1914711 3.727229834
-69.08233643 -28.0953083 6.324787617
-69.14122772 -27.85572433 1.123509288
-69.07131195 -27.91090775 3.716417551
-69.05101776 -27.80467796 6.308128834
-69.12291718 -27.57113457 1.116405487
-69.06852722 -27.63215256 3.705761909
-69.07061005 -27.5347023 6.295629978
-69.26041412 -27.34692955 1.110034108
-69.22886658 -27.41664314 3.702018261
-69.66126251 -27.4832077 6.328629971
-69.9434967 -27.32850266 1.106122255
-70.3102417 -27.44975281 6.366104603
-70.63476562 -27.30843163 1.102111459
-70.68524933 -27.40991783 3.741985798
-71.00839233 -27.430233 6.407297134
-65.6831131 -24.67671204 1.060106158
-66.04728699 -24.28858185 1.04824841
-69.72390747 -24.51424599 1.034904003
-68.44263458 -23.29781914 1.009950161
-69.29836273 -23.0437088 0.9987230897
-69.49345398 -22.8391304 0.9922944307
-75.35625458 -23.82535553 0.9867164493
-75.4319458 -23.56115723 0.9792921543
-75.55275726 -23.31036568 0.9719619155
-75.53064728 -23.03172112 0.9646540284
-75.7572937 -22.82574272 0.9579084516
-84.12767792 -22.19810104 3.926074266
-84.10484314 -21.88015366 3.914023638
-85.06375885 -21.71920967 0.8758810163
-84.15628815 -21.25437927 3.893084049
-84.32434082 -20.98368835 3.888172865
-84.66317749 -20.76791954 3.890067101
-88.68322754 -20.7499218 4.003236294
-83.66088104 -11.24143124 3.53100419
-84.60142517 -10.99821472 0.5733144283
-83.69497681 -10.96400547 3.522622585
-83.89881134 -10.39485359 3.50931263
-84.19400787 -10.13073921 3.508907318
-87.53138733 -10.17204285 3.60591054
-87.83237457 -9.909527779 3.605760813
-50.22093582 -2.70694232 0.5336973667
-50.19594955 -2.739068508 2.289489269
-65.38780975 -2.110648155 0.4214902222
-63.91454315 -2.136107683 2.66448164
-63.91666794 -1.913015008 2.65742135
-63.86069107 -1.63676405 0.4160736203
-63.90602112 -1.689783335 2.650002956
-63.89259338 -1.466606259 2.642519951
-63.90230179 -1.25482583 2.636077166
2.001449108 79.00807953 5.221395969
1.521958113 53.46730423 1.901206255
2.282579899 79.10059357 5.224020958
1.710071206 53.41574097 1.898304343
1.891208768 53.44578552 1.897196293
2.082298994 53.48086548 1.896131396
2.265225172 53.54162979 1.895708323
6.656216621 107.708374 18.32296371
3.070483685 48.29829025 1.780215859
1.908153892 24.28502274 0.4113222063
1.989137173 24.2466507 0.4110622108
2.077061892 24.24153328 0.4102668464
2.160422802 24.23449898 0.4095486403
2.249214888 24.23874283 0.4086222649
2.331457138 24.21918869 0.4081027508
1.534963727 15.03242207 0.5463433266
1.548121572 14.62925625 0.5519495606
1.58691144 14.35469246 1.090992689
1.563549757 13.72297001 0.5646970868
1.563695073 12.81758022 0.5775886774
1.547583938 12.24770927 0.5858591795
1.570030212 12.06779671 0.5882176161
1.574741364 11.7367878 0.5928963423
1.654960155 12.33437443 1.049333692
1.59188962 11.20233631 0.6003708243
1.61913681 11.08572197 0.6017925143
1.656029344 11.04433823 0.6020553112
1.936365247 12.96469212 1.550367594
1.686352372 10.97344112 0.6028009653
1.720882297 10.91998386 0.6032624245
1.757710814 10.88423252 0.6034526825
1.79732728 10.86813831 0.6033396721
1.83654654 10.84993362 0.6032629013
1.876292348 10.83554935 0.6031292677
1.911980748 10.80952358 0.60319978
1.947846174 10.78536224 0.6032443047
2.365172148 12.89817429 1.547631621
2.033823967 10.78490734 0.602533102
2.458836794 12.88182259 1.547091484
2.102740526 10.72392941 0.6028441787
2.468706369 12.67714024 1.536006927
2.141642809 10.71885681 0.6026005149
2.536894083 12.79458904 1.542688608
2.600313663 12.85587788 1.546315193
2.261636972 10.89569759 0.5990813375
2.650605917 12.8462925 1.546050668
2.342462063 11.07966137 0.5957790017
2.698469877 12.83699131 1.545804501
2.358765125 10.95414543 0.5974657536
2.746301889 12.82752323 1.545564055
2.395372868 10.9223175 0.5976393819
2.436990023 10.92605782 0.5972611308
2.483182669 10.94096279 0.5966880918
2.516161442 10.89310455 0.5971298218
2.568341494 10.93505859 0.596123457
2.617395639 10.96117115 0.5953735113
2.642159462 10.87781048 0.5964010954
2.812765121 10.69629478 0.5978021622
2.862312555 10.72329903 0.5970534086
2.917320251 10.779706 0.5958378315
2.958077669 10.76944923 0.5957020521
3.003284693 10.77648067 0.595284164
3.050592899 10.79107857 0.5947431326
3.099571943 10.81128979 0.5941107273
3.146657944 10.82357311 0.5936104059
3.197018385 10.84724903 0.5929227471
3.257219553 10.91369629 0.5915408731
3.337258339 11.04920864 0.5890100598
25.76366615 64.24533844 4.556459904
25.92868233 64.03360748 4.54942894
26.24666023 64.1383667 4.561367512
25.61387825 61.99225998 2.067994833
25.67935181 61.52901077 2.060738564
25.79397392 61.22198868 2.056578636
25.93772697 60.95832443 2.053444147
26.02001572 58.24177551 2.009326696
26.71263504 58.16047668 2.014973402
26.84836578 56.84427643 1.995336056
27.09319878 56.34951019 1.990193844
27.29000664 54.28167343 1.960313678
27.47866058 54.17901993 1.961009979
13.92495346 26.54371071 0.3007291555
26.88091087 52.05320358 1.921399117
13.92409706 26.30624962 0.3045403361
13.92910004 26.08334351 0.3081048727
13.93358421 25.87381172 0.3114621937
13.93310452 25.64617729 0.3151331842
27.89946938 52.23385239 1.937084556
13.94336128 25.44185638 0.3184004128
13.94940376 25.22123337 0.3219509423
13.95728588 25.02868843 0.325047493
27.38048935 49.94607925 1.896675587
13.99715137 24.88667107 0.327234298
27.42592049 49.60778809 1.892399907
27.92604256 50.52965164 3.958421946
14.06500626 24.7973175 0.3284889162
27.76317406 49.80650711 1.899910212
28.11836815 50.45656967 3.961003304
32.36779785 58.17292404 9.180778503
32.33455276 58.07151794 16.44184494
14.09665871 24.64302254 0.3309118748
27.95029068 49.74927139 1.901702285
32.6612587 58.24201965 6.821516991
14.09964561 24.44934273 0.334064573
28.1791935 49.74585724 1.904882908
14.10394382 24.24997139 0.3373124599
39.47425079 69.49719238 2.344957113
14.10855389 24.0637989 0.3403493166
39.76077652 69.43222046 2.348175764
14.11120701 23.84615517 0.3439137936
39.85356522 68.99780273 2.343470812
14.11748028 23.66745567 0.3468354642
14.13198757 23.49518394 0.3496357501
39.83871078 67.85306549 2.327445269
14.13337421 23.3023777 0.3528138101
40.12857437 67.80005646 2.331086397
14.14575577 23.13054276 0.3556242585
27.98410225 46.64582062 1.859046936
14.17946911 23.00611115 0.3576041162
28.10888672 46.47915649 1.85871613
14.19511223 22.84320068 0.3602704406
28.24310875 46.32935715 1.858793378
14.19121647 22.64963722 0.363497138
28.46952629 46.33333969 1.862396836
28.24237061 45.94419098 3.76592803
14.22137165 22.50518799 0.3658354282
28.29869461 45.68176651 1.851085186
28.43226814 45.88986969 3.770036936
14.26341343 22.39992142 0.3674999177
28.97254562 46.41842651 1.871523142
28.7107811 45.97955322 3.783420324
14.25647449 22.20703888 0.37073946
28.61649704 45.47306061 1.853466034
29.30609894 46.59807587 3.830410957
14.29165077 22.08411789 0.3727249801
28.89309692 45.55807495 1.859074712
14.36861038 22.02902031 0.3734929562
14.38586521 21.88824844 0.3758256137
29.01185226 45.04940414 1.854537725
14.41488552 21.75860214 0.37795344
28.68740463 44.20389938 1.838414907
14.41550827 21.59450912 0.3807217479
28.744133 43.94701004 1.836152077
14.44947243 21.47518539 0.3826771677
28.85365868 43.77427292 1.835871339
14.53076267 21.42965508 0.3833035231
29.20882416 43.98007965 1.844526529
14.56805706 21.31693268 0.3851523995
29.50545883 44.09198761 1.851049304
14.6146698 21.21923447 0.3867357671
29.08560371 43.11629868 1.83184278
14.62420273 21.06655502 0.3893223405
29.2167244 42.98130417 1.832534432
14.66292095 20.95892143 0.3910991549
29.50431824 43.08008194 1.838840842
14.68539333 20.82809067 0.3933033645
29.7190361 43.06803894 1.842558861
14.76340294 20.78001595 0.3940121531
29.51873016 42.44516754 1.831615448
14.81600189 20.70291138 0.3952614069
29.61349106 42.27622604 1.83138144
5.406375408 6.983650684 2.326260328
5.396305084 6.968346119 2.667128563
14.90041733 20.66424179 0.3958102763
29.8127079 42.24342728 1.834673405
5.448517323 6.983350754 2.330376387
5.433805943 6.961518288 2.670522451
14.8970871 20.49133492 0.3987969756
29.81273842 41.90753174 1.83083427
5.488233089 6.982182503 2.334165335
5.490148544 6.984460831 2.680866003
14.93032551 20.38028717 0.4006736577
5.512134552 6.958199024 2.333508253
5.526433945 6.978186131 2.684256077
15.06685162 20.41624069 0.3998831511
30.00382996 41.56336212 1.830546856
5.555301189 6.96156168 2.338260412
5.565005302 6.974959373 2.688424587
15.14094257 20.37106133 0.4005796313
30.14819145 41.45358658 1.832072735
5.601772785 6.972125053 2.344275236
5.604531765 6.975729465 2.693355799
15.20462227 20.30346489 0.4016827941
30.32478714 41.38882065 1.83474493
5.638240337 6.965435982 2.34713006
5.636341572 6.962585926 2.695213079
15.31602192 20.30215263 0.4015850127
30.40177536 41.1855545 1.834015608
5.678401947 6.960801125 2.350641489
5.680978298 6.964234829 2.700959444
15.33361626 20.16343307 0.4039887488
5.723049164 6.964955807 2.35573411
5.71971941 6.960310459 2.70514822
5.806643486 6.982495308 0.3017470241
15.34427643 20.03183746 0.4062804878
30.9687252 41.34663773 1.846826315
5.754760742 6.953967094 2.357632637
5.758299351 6.958795071 2.709712267
5.829224586 6.958374977 0.3023591936
5.828835964 6.992212772 0.6437635422
5.791339397 6.946615219 2.360506773
5.791300297 6.946629524 2.711975098
5.840664387 6.953588009 0.6444315314
5.824632168 6.931910992 0.9856380224
5.821766853 6.927969456 1.326664209
5.824675083 6.934672356 1.669733882
5.83827734 6.952964783 2.017461061
5.840705872 6.959135056 2.367190838
5.839313507 6.957390308 2.719646215
15.52785587 19.83115768 0.4096425474
5.865088463 6.929156303 0.9864206314
5.860793591 6.92623806 1.328197122
5.861430168 6.927095413 1.671509624
5.846482277 6.907181263 2.013806343
5.853724957 6.919803619 2.36370492
5.854727745 6.921338081 2.716109991
15.58327961 19.75448799 0.4109509289
30.76835823 39.883255 1.827567458
5.899818897 6.92462492 2.369142056
5.903032303 6.929144382 2.723421097
15.59841728 19.62514877 0.4132256806
31.36038589 40.36795807 1.844531655
5.948406696 6.932361126 2.375222206
5.960951328 6.949212551 2.733837605
15.64567089 19.53883171 0.4147215486
31.55025101 40.31867218 1.847926736
5.991120338 6.932013512 2.379715204
5.988092899 6.928443909 2.734187603
15.67663479 19.43184471 0.4166003466
31.56310654 40.03895569 1.845414042
6.047153473 6.948668957 2.387720585
6.035514355 6.934008598 2.741129637
15.69109249 19.30436325 0.4188589752
31.26168442 39.35691071 1.832454205
6.081590652 6.936947823 2.389993429
6.072219372 6.925385475 2.74458909
15.7590704 19.24632835 0.4198560119
32.40949249 40.53604507 1.867914915
31.63767815 39.56554413 3.638263464
6.118450165 6.928192139 2.39290905
6.112562656 6.921237946 2.749217033
15.81569481 19.17393303 0.4211206138
6.143111229 6.90375948 2.39263916
6.146882534 6.909194469 2.751911163
15.78996754 18.99799538 0.4242811203
32.06167984 39.52196884 1.85088861
6.189752102 6.907100677 2.398116827
6.190807819 6.911921501 2.758081675
15.87834072 18.97366333 0.4246815741
31.69627571 38.79052353 1.836231947
6.233903885 6.909751892 2.403262377
6.225029945 6.902170658 2.761154652
15.90155029 18.86793518 0.4265731573
31.71979523 38.55127335 1.834519744
6.265772343 6.896805763 2.405220985
15.92422485 18.7622757 0.428468585
32.36607361 39.08319092 1.853359699
6.311282158 6.900618076 2.410696268
15.95574188 18.65420914 0.4304102063
32.71001434 39.19269562 1.861833692
15.99217129 18.55978584 0.4321097434
16.04554176 18.47949409 0.4335558116
32.70191574 38.61695862 1.856553078
16.05467033 18.36013794 0.4357225597
16.12566757 18.30859184 0.4366551638
32.63853836 37.98509216 1.849690199
16.19520569 18.25526047 0.4376256168
32.79712296 37.89852142 1.852521539
32.43486404 37.47494888 3.597660542
16.22771645 18.15163803 0.4395203888
33.11102676 37.99403763 1.860414863
32.60707855 37.40727615 3.603087902
16.1775589 17.9656601 0.4429245293
33.29876709 37.95872116 3.653727293
16.33673859 18.02395058 0.4418710768
32.91084671 37.23058701 1.849617958
33.51185608 37.9465332 3.66304493
16.3915596 17.94736481 0.4432884157
33.02001572 37.0751152 1.85089016
16.45921898 17.88568115 0.4444393218
33.17854691 36.97650528 1.853788376
16.7654953 18.10105515 0.4405344427
33.31036377 36.86057663 1.855964422
16.80516243 18.012537 0.4421854913
33.47240067 36.7918663 1.859239817
16.87579536 17.96566772 0.4430792034
33.59292221 36.66298676 1.86111474
16.95627022 17.92301178 0.4439032376
33.73168945 36.55451584 1.863605142
16.97888565 17.81632996 0.4459015727
33.87010193 36.44553375 1.866115808
17.11560822 17.83522415 0.4456129968
34.0272789 36.37004089 1.869346023
17.21419334 17.81813049 0.4459837973
34.13668823 36.2290535 1.870995641
17.34466171 17.82837486 0.4458644092
34.50769043 36.37096024 1.880967855
17.40584183 17.76335335 0.447124064
17.49964523 17.73311234 0.4477547109
34.69317627 36.06398392 1.883443475
17.76878548 17.89444542 0.4448938072
34.75587463 35.8730278 1.883743048
17.82877731 17.82652664 0.4462233782
34.86919022 35.74897003 1.885756135
17.8409729 17.71534729 0.4483416975
35.76996231 36.43425369 1.912483811
17.94010735 17.67550468 0.4491806924
35.27319336 35.64693832 1.895209432
18.0322876 17.64747429 0.4497947395
35.3320694 35.45344925 1.895527482
18.02697563 17.51299095 0.4523579776
35.43266678 35.316185 1.897263646
18.24516106 17.61265755 0.4506584704
35.62885666 35.26360703 1.901948094
18.43364716 17.6737957 0.4496734142
35.82650375 35.21153641 1.906704783
18.57470703 17.68575096 0.4495900869
36.01007843 35.14437485 1.911049843
18.53771782 17.51328087 0.4528728426
36.06800461 34.93897629 1.911440492
18.61042404 17.45691109 0.4540432692
36.2852211 34.9042511 1.916894555
18.81440163 17.52900505 0.4528865218
36.49261475 34.85866928 1.92206955
18.89296341 17.47718048 0.4539869428
37.19022751 35.28896713 1.942494154
18.94549561 17.40003395 0.4555526376
37.51398087 35.36290359 1.951377034
18.98587799 17.31774712 0.4572082162
37.51898575 35.11552811 1.950340033
19.05226326 17.25414276 0.4585389197
37.37509155 34.72785187 1.94473362
19.17943192 17.24803543 0.4588337839
37.50774002 34.60554886 1.947729945
19.23683739 17.17552757 0.4603376091
37.57299423 34.41973114 1.948676109
19.14484596 16.96366119 0.4643682241
37.78647614 34.37308502 1.954234719
19.28924179 16.97286606 0.4644040167
37.89571762 34.24090958 1.956655383
19.39254761 16.94946289 0.465025723
38.11946106 34.20198822 1.962587357
19.48130989 16.90597725 0.4660269916
38.25337601 34.07961655 1.965781093
19.74178314 17.01800156 0.464228332
38.39281082 33.96213913 1.969176888
19.66457748 16.82314873 0.4679736197
38.57049561 33.87892151 1.973781228
19.94240379 16.94781494 0.4659637809
38.81213379 33.85222626 1.980381966
20.08094597 16.93972206 0.4663677514
38.96743011 33.73511505 1.984320164
20.22857857 16.94496346 0.466527164
39.14787292 33.65192413 1.989102602
20.06054688 16.67877197 0.471560657
39.35375214 33.60244751 1.994731545
19.99205208 16.4957695 0.4751126468
39.5265274 33.510952 1.999338984
20.21457291 16.56580925 0.4741258323
20.19194603 16.42354774 0.4769555926
40.06732178 33.49359512 2.014627457
20.36343002 16.44766045 0.476808399
40.16576385 33.34767532 2.017080545
20.35673523 16.32580757 0.4792675078
40.53066254 33.42764282 2.027717113
20.64185143 16.44996834 0.4773311019
20.93717384 16.56769753 0.4755526781
20.25867844 15.8760252 0.4882301688
20.33256149 15.81794357 0.4895811379
42.23212433 33.84437561 2.077775478
20.8694706 16.13773155 0.4842103124
42.21049881 33.58049774 2.076722622
20.93348694 16.06858063 0.4857778847
20.6451931 15.71579075 0.4923900962
43.49634171 34.14062881 2.115313768
20.98759842 15.87704945 0.489857465
43.74324799 34.10124969 2.122569561
20.89590073 15.69049072 0.4935041964
42.42782593 32.80670929 2.082173824
20.9597187 15.61629486 0.4951984882
42.65919495 32.73655319 2.089006901
20.96656227 15.49750614 0.497687459
42.95991516 32.71935272 2.097991943
20.99682999 15.40338993 0.4997262061
43.13205338 32.61227417 2.103099346
21.11696625 15.37887669 0.5005423427
43.34090042 32.54491043 2.109364748
21.21848106 15.34526062 0.5015069842
43.56562805 32.48871231 2.116145611
21.41391563 15.38258171 0.5012310147
43.80105209 32.42737198 2.123282671
21.64619255 15.44031811 0.5006276369
44.08601379 32.40217209 2.131965399
21.53988266 15.24234486 0.5045205355
44.46891403 32.44854736 2.143670082
21.68274498 15.23156166 0.5051353574
44.73238373 32.40311813 2.151768446
21.8993969 15.2684269 0.5049486756
44.90765381 32.29087067 2.157212734
22.09482002 15.29982281 0.5048251748
45.13102341 32.21331406 2.164160252
22.08980179 15.17789936 0.507407248
45.39318466 32.16285324 2.17232728
22.23332596 15.16398335 0.5081136227
45.71712112 32.15546036 2.182416677
22.25676727 15.06300163 0.5103415847
45.97009277 32.09490967 2.190377951
22.24230957 14.93536091 0.5130361915
46.19060135 32.0098114 2.197386503
22.354105 14.89185429 0.5143021941
46.49923325 31.98592377 2.207122326
22.58644867 14.94400787 0.5138744712
46.84017563 31.99484825 2.217865467
45.82795715 31.32932472 6.114748001
22.65199471 14.87820435 0.515493691
47.07257462 31.91362572 2.22535038
43.43322754 29.43100166 5.828133583
41.93066406 28.40295029 7.463519096
22.81497192 14.86788082 0.5162162781
47.47513962 31.93665504 2.238094807
44.03136826 29.58784485 4.00626564
41.92126083 28.16918564 7.448785305
22.88580704 14.79324341 0.5180549622
47.73670578 31.8598938 2.246576071
42.65563583 28.42656898 5.720368862
42.10184479 28.06742477 7.464363575
23.06941223 14.8010664 0.518460393
48.07691956 31.84742928 2.257479429
41.56653214 27.46521759 5.586467743
42.26905441 27.96649742 7.478500366
23.15888023 14.74399471 0.519987762
48.43016052 31.85373116 2.268795252
41.76361465 27.3872242 5.601340771
42.47213364 27.89994812 7.49897337
23.28039169 14.71393967 0.5210333467
48.66278076 31.77670479 2.276459455
41.77074051 27.19104385 5.594778061
42.36596298 27.62416077 7.470694542
23.34536743 14.64554882 0.5227407813
49.00758743 31.76091003 2.287626028
41.85814285 27.04932594 5.597539425
42.54693222 27.53153038 7.487231731
23.49291992 14.62575722 0.5236571431
49.36786652 31.75305557 2.299309492
46.92835617 30.16343689 4.193287373
42.03617859 26.95721626 5.610390663
42.63190079 27.3744297 7.488732338
23.58144569 14.56042576 0.5253863335
49.67253113 31.69380379 2.309369564
42.64145279 27.13464737 5.671849251
42.69799042 27.19436073 7.48679018
23.68054199 14.50749874 0.5268837214
50.01027679 31.66658974 2.320452929
41.91647339 26.44954872 5.581446648
42.74851608 27.01514435 7.48311758
23.76946831 14.4475584 0.5285078883
50.29638672 31.60374641 2.329998016
42.0573616 26.31121635 3.829647779
42.8901062 26.87253761 5.68537426
42.92145157 26.91572189 7.498708248
23.98117828 14.46596718 0.5288205147
50.72233582 31.62891197 2.343877077
42.15170288 26.16445541 3.833220959
42.02483749 26.10513115 5.579401016
42.97747803 26.74032402 7.496106148
24.13930321 14.44874287 0.5297460556
50.97981644 31.55623627 2.352589369
42.0847168 25.93712425 5.579156399
42.23583603 26.06654167 7.369867802
24.2509594 14.40707111 0.5310603976
51.35286331 31.54271698 2.364936352
46.47903442 28.52388382 6.072162628
42.3021431 25.90229797 7.369300842
24.29238129 14.31493759 0.5332598686
51.69369507 31.51898193 2.376293898
44.97260666 27.35143471 5.893548965
24.46329498 14.30930519 0.5339891911
52.05582809 31.49380302 2.388399124
41.62956619 25.05965614 5.507639885
24.59982872 14.263587 0.5354999304
52.31856537 31.39224052 2.397546053
42.75441742 25.53439903 5.627737045
42.59503937 25.46933365 7.382807732
24.67386818 14.1965704 0.537271142
52.80242157 31.43720627 2.413497686
42.11129761 24.91185188 3.812214851
41.53315735 24.58982468 5.483334541
42.80770874 25.39555168 7.40527916
24.88710976 14.20795822 0.5377883315
53.21886444 31.43768501 2.4274261
42.28156281 24.82414627 3.821785212
41.45298767 24.34245491 5.467911243
45.13674927 26.61065102 7.754451275
25.07332039 14.20153141 0.5386146307
53.53665543 31.37574959 2.438365698
42.17931747 24.56106377 3.811718225
41.4312439 24.13197136 5.459200382
46.77228165 27.3849926 7.9957757
25.27696419 14.20423412 0.5393050313
54.06053543 31.43517685 2.455712557
41.90107727 24.19436073 3.789121389
45.76930237 26.53619576 5.941536903
44.0543251 25.53248596 7.566574574
45.33591843 26.33781052 9.653821945
25.38803101 14.15062046 0.5409334898
54.46166992 31.41786957 2.469328403
43.53726196 24.99259186 5.683824062
45.23591614 26.02804756 7.737933636
25.47833824 14.08426094 0.5427798629
54.80651093 31.36465645 2.481257677
43.00615692 24.47450829 5.617904186
25.66868019 14.07591438 0.5436900258
55.26555252 31.37600708 2.496771097
41.91878891 23.63663292 5.48983717
45.87282562 25.97692299 7.815006256
25.79523468 14.02933788 0.5452356935
55.58177948 31.30133057 2.507921219
41.71061707 23.29715347 3.765553713
43.72509003 24.49010468 5.686365128
44.04566956 24.7010231 7.525328636
25.99114609 14.02190876 0.5461589098
56.17026901 31.38127327 2.527556896
46.38618469 25.79426003 4.096779823
42.2224884 23.4214325 5.51223278
26.26031113 14.05485058 0.546446681
46.99602127 25.90177917 2.244527578
42.4932251 23.38084602 5.536799431
43.55656433 24.02316475 7.432056427
26.41944885 14.02972507 0.54764539
46.9324646 25.64912987 2.243802309
42.83272171 23.38733864 5.569345474
43.02179337 23.51897621 7.341326237
26.59003639 14.00394917 0.548910141
47.02116013 25.48334694 2.247830868
47.20035934 25.62093735 4.147486687
42.04049683 22.74512672 5.475419521
43.14400864 23.39040756 7.350896358
46.37538528 25.24733925 9.745282173
26.76600266 13.980093 0.5501582623
58.25114441 31.51839066 2.598193645
42.10136795 22.58685493 5.476807594
44.6783371 24.05010605 7.575071335
46.60754013 25.15466118 9.776138306
27.01477623 13.98910713 0.550943315
58.67174149 31.48510361 2.612932682
42.09774399 22.38354111 5.470834732
44.12961578 23.54272842 7.482720375
27.0605011 13.89755535 0.5532505512
59.02092743 31.40988922 2.625508547
46.78556824 24.73773575 4.111008167
45.91783142 24.36232948 9.618040085
27.20868111 13.85550117 0.5548284054
59.32283401 31.3068924 2.636667728
46.78926849 24.53880882 4.109229565
43.19129181 22.60704803 5.58215189
45.77391434 24.03918266 7.713943958
27.43968201 13.85710239 0.5557338595
59.83070374 31.31308365 2.65430665
43.7314415 22.70415115 5.636885166
46.4284935 24.18685913 7.803945541
27.70359612 13.86845493 0.5565536022
60.4310379 31.36505508 2.674901724
43.64331055 22.45101738 5.621734619
43.10746384 22.19896698 7.293790817
27.80899048 13.80647469 0.5584405661
60.97415543 31.38235664 2.693781614
51.30310059 26.29095078 4.422915459
44.19291306 22.55747223 5.677772522
42.83869934 21.86354637 7.245126724
27.92215347 13.74186325 0.5604278445
61.40304565 31.33588028 2.709158421
47.84425354 24.28273201 6.076396942
42.98905182 21.75211525 7.259786129
28.04229546 13.68034458 0.5623783469
61.96533966 31.35603714 2.728778601
43.18981552 21.64108276 5.557088375
42.88965607 21.50951385 7.23695612
45.98411179 23.15392303 9.556963921
28.47599411 13.77357292 0.5620131493
62.52704239 31.35806274 2.74856019
44.14289474 21.90807343 3.910370588
43.94689941 21.83227158 5.635665894
42.81403732 21.27139091 7.217472553
45.74468994 22.82663155 9.499749184
28.71759796 13.77150536 0.5630894899
62.9415741 31.29460144 2.763693094
43.94864273 21.60440445 3.894949913
46.89454651 23.15062523 5.955830097
42.91511917 21.13481331 7.225029945
45.90570068 22.69804573 9.518414497
29.19781303 13.89501667 0.5622204542
63.66104126 31.39704704 2.788365841
43.06143188 21.0304985 7.239823341
45.85575485 22.49136162 9.498781204
29.33506012 13.83615971 0.5642081499
63.99099731 31.28444672 2.800978422
44.62385178 21.57867241 3.939770222
49.07485199 23.84969711 6.186184406
43.55105591 21.08949471 7.305687904
29.57608032 13.82823563 0.5654412508
64.51776886 31.26803589 2.81985116
49.13183212 23.66429901 6.187497616
43.21199417 20.73002052 7.247619629
29.65601349 13.73911476 0.5679143667
65.04517365 31.24836922 2.838819981
47.31024551 22.57623672 7.852403164
46.83328247 22.37810135 9.65093708
29.71232605 13.6381855 0.5705730319
65.51576996 31.1972332 2.856072187
44.60478973 20.98766518 3.934242964
47.59741592 22.51283455 7.887480259
29.86726379 13.58506203 0.5725292563
66.36804199 31.3283844 2.885461807
51.52818298 24.19344521 6.435904026
47.99518967 22.5015583 7.939070702
30.01137352 13.52583504 0.574590981
67.07950592 31.39974403 2.910369396
45.49288177 21.03158379 3.994343519
46.85769272 21.71738625 5.919592381
30.16917801 13.47876549 0.5764282346
67.69110107 31.41853142 2.932199955
44.00192261 20.13355446 3.888154268
44.34309006 20.32301331 5.640354633
48.45162964 22.32913971 7.992586613
30.1823349 13.36246014 0.5792914033
68.04897308 31.29857635 2.946196318
44.76365662 20.31601715 3.940767765
44.25085449 20.09932137 5.626514435
30.2591095 13.26978397 0.58187747
68.76521301 31.34454155 2.971642971
45.24173355 20.34992409 3.973370314
44.41337585 19.98735046 5.640413284
46.21511078 20.86277008 7.645927429
36.58159256 16.07552719 0.5426556468
69.37017059 31.33369827 2.993647099
45.43466949 20.24768829 3.985935211
47.52937698 21.28010941 7.833913326
36.56976318 15.91519451 0.5464933515
69.80519104 31.24043083 3.010328531
45.16347122 19.93032455 3.965884924
46.64569092 20.64207077 5.876459122
47.63808823 21.12940407 7.843083382
36.59547806 15.77258492 0.5500808954
60.89722061 26.88174438 2.729200363
45.07214355 19.69810295 3.958556414
46.75620651 20.49596024 5.884706974
46.60027313 20.45304298 7.682703018
36.60240936 15.62176991 0.5537903905
46.40224075 20.13892937 5.842427254
46.52031326 20.22096634 7.664329529
36.60691452 15.47027493 0.5575137138
46.15008545 19.80330658 4.032717228
36.63092041 15.32788181 0.5611137748
47.70320129 20.32976723 5.97682476
36.65621567 15.186306 0.5647082329
46.06621552 19.38132286 4.025371075
46.76756668 19.71858978 5.871585846
36.68645859 15.04716301 0.5682748556
74.21511841 31.40710258 3.16979599
60.63271713 25.54330826 5.048336506
46.87149048 19.56983376 5.879503727
36.71435547 14.90719414 0.5718591213
59.95829773 25.00090981 5.000181675
46.98589325 19.42536545 5.888630867
36.74354553 14.76802826 0.5754383206
60.43764114 24.94610023 5.033131599
36.762043 14.61697578 0.5792693496
79.1182785 32.56172562 3.337934017
46.90174103 18.99286079 5.873006344
36.8907814 14.52746296 0.5821121335
79.18261719 32.26399612 3.34368372
60.52355957 24.48551178 5.037995338
48.10803604 19.3171196 6.000841141
37.11810303 14.47058487 0.5846276283
79.19582367 31.96165657 3.347642183
48.12258911 19.12641144 5.999386787
37.31874084 14.40897083 0.5871397257
79.15439606 31.62142563 3.350063086
62.36568832 24.81272125 7.538318157
37.56731415 14.35040855 0.5898178816
70.49856567 27.76369476 3.073406219
60.16662216 23.61179352 5.011727333
37.64630127 14.22968102 0.5932304859
65.83932495 25.60205078 2.925539494
37.76949692 14.12634945 0.5964329243
65.54116821 25.21688271 2.919080973
38.09712601 14.10294628 0.5986448526
71.15100861 27.16543007 3.105057955
61.27646255 23.30805016 5.089031696
19.38506699 6.77296257 2.881458521
38.20403671 13.9836235 0.6021869183
66.30233765 24.98596191 2.950466394
61.4455719 23.12774849 5.100843906
19.39427948 6.694735527 2.881387949
19.3663578 6.569971085 0.6954774857
19.37088203 6.587574959 1.420437932
19.38573647 6.617535114 2.879533768
19.44081688 6.655157089 3.624263525
38.38783264 13.76289368 0.608694613
19.41549301 6.527122974 1.422891974
19.36832237 6.5250144 2.147207975
19.3768959 6.540484905 2.877678633
19.37427139 6.551815987 3.612627745
38.39642715 13.60517406 0.6127431989
19.37030029 6.456825256 2.876006842
38.50740814 13.48612976 0.616335392
19.38384438 6.381011963 2.87654233
38.94007492 13.49315357 0.6183565259
70.84487915 25.33182716 3.117228031
19.39398575 6.307874203 2.876788139
19.39707184 6.321458817 3.610258102
39.09901428 13.39707947 0.6216248274
19.40011597 6.233379364 2.876634121
19.42618942 6.259299278 3.612833023
39.17441559 13.27760983 0.6250730753
19.38791656 6.156183243 2.874577284
19.44765854 6.194296837 3.614331484
39.40572357 13.21379566 0.627902329
19.37353897 6.07848978 2.872317076
39.38689041 13.05217648 0.6319646239
19.39004517 6.008263588 2.873374462
39.72224045 13.01520252 0.6346578598
19.40254974 5.936684608 2.874032021
40.02622223 12.95727348 0.6377386451
71.46704865 23.8890152 3.161036253
62.29819489 20.76021767 5.164640427
40.56494904 12.97758675 0.6400291324
71.33349609 23.56438255 3.160652399
62.19544601 20.46977234 5.158234119
40.96689224 12.96361351 0.6425015926
62.37506104 20.30095291 5.171657562
41.77505112 13.08297539 0.6436516047
41.82358551 12.93717384 0.6477111578
63.79315567 20.28830719 5.27326107
42.04512405 12.83975983 0.6514331102
82.13435364 25.99480629 3.539061308
63.62352753 19.98611069 5.262399673
43.56207657 13.16755486 0.6509221196
63.55883408 19.71989822 5.258983612
70.42323303 21.61724472 3.155158281
63.61850357 19.49453926 5.264385223
69.75010681 21.13422966 3.136751413
63.59366226 19.24253273 5.263907909
69.80342102 20.89708138 3.142596006
64.00585175 19.127985 5.294270992
66.36056519 19.58090401 3.030324459
64.52132416 19.05508614 5.33191967
47.42795944 13.52556992 0.6622795463
66.49255371 19.36802483 3.03891325
47.46134949 13.345994 0.6672279835
66.67920685 19.21455383 5.487059593
66.76561737 18.9308548 3.056768417
48.90712738 13.40877438 0.6734494567
49.06821442 13.27023506 0.6780353189
49.40586472 13.18123341 0.6822767854
33.4729538 8.513371468 0.7196285129
35.74800491 8.610351562 0.7296622396
35.79259491 8.488614082 0.7332154512
54.25663376 13.13075256 0.7106575966
72.96052551 17.47458649 3.325928688
73.02391052 17.22001839 3.333257437
72.95368195 16.66347313 3.341162682
72.3470993 15.16626358 0.7577423453
97.46921539 20.81162262 4.234041214
75.57069397 15.04041386 0.7799013853
78.53351593 15.09389305 0.7956339121
38.17765427 6.907058716 2.151941538
38.17033005 6.74096632 0.7952099442
38.19079971 6.771109104 2.15535593
38.21915054 6.638257504 2.159338713
38.2352562 6.503038406 2.16290617
71.73532867 3.771255732 1.085912347
74.63790894 3.176391125 1.121938229
66.27867889 2.487745285 1.091607094
74.344841 2.640311003 1.136596441
74.37669373 2.381836414 1.144753695
98.58093262 3.52319479 4.707047939
74.37966156 2.122008562 1.152790904
98.30901337 2.408036232 1.291539788
41.30540848 -3.116196156 1.113886476
66.63594818 -4.422319412 3.644513607
41.3223877 -3.22956872 2.564224482
41.35700226 -3.191953897 4.016366005
41.36327362 -3.304321051 5.481403828
41.37397385 -3.271932602 6.953671932
41.34263229 -3.381111145 8.440511703
65.0838089 -5.251456738 3.609677315
65.10779572 -5.48116684 3.618759871
65.80858612 -5.478673935 5.960083008
65.79251862 -5.696516991 5.967147827
65.67449951 -5.929682732 5.967126369
64.65943909 -6.192283154 1.358170867
65.46961975 -6.195468903 3.659032822
65.62817383 -6.156322956 5.972368717
64.66938782 -6.408923149 1.365393162
65.39468384 -6.419040203 3.664010286
65.9506073 -6.413619041 6.006859779
66.41212463 -6.673731804 6.052079201
66.08221436 -6.94151926 3.711094618
65.85486603 -6.856688023 6.017056942
66.32696533 -7.197191238 3.730445862
66.07131195 -7.108584881 6.043503761
65.94831848 -7.340651989 6.043503761
60.36222458 -7.06680727 3.481838942
60.38376236 -7.281881809 3.490695953
60.61317062 -7.257433891 5.636091709
59.48377609 -7.407119751 3.458621025
60.3086319 -7.438177109 5.620472908
59.26387405 -7.592319965 3.456585646
60.15098572 -7.643957615 5.617068291
66.20274353 -8.651040077 1.44953537
58.45915222 -7.69768858 3.42773056
60.18647766 -7.839253902 5.627896786
66.21495056 -8.886734962 1.45754385
58.45860291 -7.904327393 3.435523033
59.31676102 -7.95915556 5.567199707
66.14547729 -9.124287605 1.465135574
58.21016312 -8.090899467 3.432491541
58.87966156 -8.11542511 5.540791512
66.23931885 -9.37068367 1.474027872
58.43219376 -8.32529068 3.450484276
58.56483078 -8.284191132 5.524212837
91.34387207 -12.9042778 1.745149374
57.92224884 -8.465881348 3.435125828
58.69636536 -8.508758545 5.543777466
57.58234787 -8.625824928 3.427467346
58.72032928 -8.720152855 5.554721832
89.79968262 -13.33936024 1.75061512
57.65371704 -8.840202332 3.438672781
58.10750961 -8.844871521 5.513951302
88.98344421 -13.5428133 1.752632499
57.45327377 -9.016862869 3.437404871
57.90915298 -9.023533821 5.506835461
88.20249939 -13.74595356 1.754870415
57.63143158 -9.236862183 3.453238726
57.64710617 -9.191856384 5.494531155
57.67483139 -9.44861412 3.46331501
57.96047974 -9.4432621 5.529286861
81.94859314 -13.40507984 1.705763578
57.47449493 -9.623904228 3.46210742
57.50557709 -9.570961952 5.500781536
86.78097534 -14.4523344 1.770528555
57.03476715 -9.760741234 3.44971323
57.78574371 -9.819393158 5.533027172
86.9029007 -14.78207111 1.782575727
56.66186905 -9.905335426 3.440371037
57.36782455 -9.959828377 5.507996082
86.96832275 -15.10379982 1.794029474
56.89012527 -10.14513111 3.459197283
58.34125519 -10.33257008 5.598089218
87.002388 -15.436759 1.805702925
56.31163025 -10.26294613 3.440541267
58.23667526 -10.52414608 5.599043846
61.42973328 -11.38494396 1.514057994
55.99668503 -10.41139603 3.433809042
60.9947319 -11.52983093 1.516489387
55.94909668 -10.60421181 3.43970561
61.08321762 -11.76492882 1.525154948
55.85166168 -10.78810883 3.443264246
57.01610947 -10.93628693 5.526772976
61.06060791 -11.9808054 1.532510996
56.00115967 -11.00601292 3.458203316
56.7624588 -11.09585667 5.515317917
60.76781845 -12.13584328 1.536173105
55.84738159 -11.17953777 3.45913744
56.71230698 -11.29110622 5.520832539
87.61672974 -17.41550446 1.877921939
56.03473663 -11.41621876 3.47644186
56.72409821 -11.4875946 5.531094074
87.66451263 -17.74142265 1.889567256
55.86595154 -11.58638096 3.476706028
56.88994217 -11.72399044 5.554831028
56.93733978 -12.04513836 1.510516524
55.79077911 -11.77386379 3.481488466
56.93937302 -11.939291 5.568925381
56.92156982 -12.24838448 1.517535806
55.67580032 -11.95311928 3.484365463
57.32432938 -12.22145653 5.611344814
56.74631882 -12.41943645 1.522508264
55.98906708 -12.21843529 3.508066177
56.80715942 -12.32532024 5.577905655
33.56045151 -7.83552599 1.226516008
55.56346893 -12.3342905 3.495897055
57.15306854 -12.60238361 5.617290974
56.25148773 -12.72819614 1.530478597
33.52963638 -7.922767639 2.427079201
57.15039444 -12.80962944 5.627358437
55.94775772 -12.8682785 1.533651948
57.73190308 -13.14103413 5.687080383
56.45860291 -13.18367481 1.547738314
56.08612061 -13.05487919 3.547435999
56.84664154 -13.16065884 5.62234354
57.56710434 -13.64581871 1.570475221
56.11503601 -13.27649689 3.558092356
57.29916763 -13.47797871 5.671914101
57.07512665 -13.7564106 1.57155776
55.7571373 -13.41186619 3.549650908
56.97981644 -13.62681389 5.655802727
57.69264603 -14.10711098 1.587546706
55.99330902 -13.67016983 3.57022953
58.11627197 -14.09352303 5.76376915
56.956604 -14.14792633 1.584777355
56.15668869 -13.90334797 3.586855888
57.29058456 -14.11638546 5.703869343
56.09355545 -14.08468056 3.592250824
57.31775284 -14.32282925 5.716538906
56.60650635 -14.41377163 3.627024651
58.14887619 -14.72080612 5.798570633
58.7309227 -15.19920444 1.632378578
56.69996262 -14.65575123 3.64136672
58.29876709 -14.98215771 5.82327652
58.83918762 -15.45404911 1.642108679
56.30994034 -14.76931 3.630923033
58.33525467 -15.21724701 5.838316441
58.71683502 -15.63047314 1.647736907
56.38934708 -14.98720741 3.643719673
59.54014587 -15.72226715 5.953697681
85.40922546 -22.62706757 2.04955554
57.16636658 -15.39331341 3.692505598
85.49156952 -22.98176003 2.062768221
57.8612175 -15.79521656 3.737896681
61.4611702 -16.65652084 6.144675732
61.76761627 -17.09620667 1.717606902
58.15380478 -16.09786606 3.76301074
61.7881546 -16.98172951 6.186144829
61.7705574 -17.3274765 1.725964189
58.19858932 -16.32662201 3.77507472
60.6925087 -16.92281532 6.102637291
62.53722382 -17.76516914 1.74605763
59.14420319 -16.78720474 3.833105803
60.1620903 -17.00748444 6.068392277
61.75170135 -17.77307129 1.741968393
58.87697983 -16.92475891 3.828842163
60.27901077 -17.2530117 6.090354443
61.96132278 -18.0512352 1.75321269
58.82616043 -17.13155556 3.836264133
59.79734039 -17.33528519 6.059669495
61.6284256 -18.20236969 1.756854892
58.64093399 -17.31180573 3.837242126
59.73037338 -17.55238152 6.066761494
58.24482346 -17.48291016 1.712016106
58.27453232 -17.43971252 3.828765869
59.86972046 -17.82775879 6.092204094
58.23353958 -17.71055412 1.720244765
58.27655411 -17.67115784 3.839512348
58.36083221 -17.94596481 1.729530096
58.09674072 -17.81707954 3.839239597
58.56929779 -17.89116859 6.001094341
58.32966995 -18.15792465 1.737103224
58.21137238 -18.07097244 3.855499744
58.24224854 -18.02779579 5.985033512
58.04184341 -18.30425644 1.740888357
57.99655533 -18.23875809 3.854951382
57.61627197 -18.06232262 5.941561222
57.68982697 -18.41828156 1.743154645
58.0194931 -18.46634293 3.866492271
58.10683441 -18.42931366 5.998027802
57.55944061 -18.59825706 1.749055266
57.52975845 -18.53738213 3.85080266
58.14766312 -18.66316986 6.014374733
57.58890533 -18.82743454 1.757640958
57.55528641 -18.76510811 3.862528086
58.0238533 -18.84686089 6.015995026
57.58693695 -19.04744339 1.765732884
57.18673706 -18.85869789 3.852677107
58.30830765 -19.15793991 6.054532051
57.43874359 -19.21021652 1.770941734
56.59041595 -18.88855743 3.831023932
58.15629959 -19.33336067 6.053767204
57.02803421 -19.29873276 1.772016168
56.57831955 -19.10228348 3.840741396
57.25567245 -19.25693512 5.984425068
56.70353317 -19.42363167 1.774909258
56.54130554 -19.31917381 3.849688292
57.22156906 -19.4773941 5.994915009
57.34716797 -19.8666153 1.794741988
56.444664 -19.51664543 3.855447769
57.19419098 -19.70033646 6.006105423
57.03590775 -19.98469353 1.79747951
56.87733078 -19.87960434 3.889579535
56.98776627 -19.85303497 6.000353336
57.45567703 -20.3482666 1.813207626
56.75554657 -20.0592804 3.893593788
57.35130692 -20.19637108 6.046866417
57.25871658 -20.50452423 1.817992568
56.11152649 -20.06019592 3.868945837
57.07180023 -20.32424545 6.034526825
56.42455673 -20.43914986 1.811193585
58.1225853 -20.97349739 3.990424156
57.17078781 -20.58075523 6.057037354
56.3163147 -20.62194633 1.817457557
56.61880875 -20.67552757 3.918379545
57.41920853 -20.89056969 6.09349966
56.20370865 -20.80289459 1.823642492
56.62257385 -20.89876366 3.929475546
57.17376709 -21.02901268 6.084423065
56.07546616 -20.97790146 1.829536676
56.23799896 -20.98390579 3.919014931
57.84029007 -21.4907093 6.160035133
56.08769608 -21.20332718 1.838058591
56.22924423 -21.20222092 3.929468155
57.60254669 -21.63280296 6.151860237
55.91125107 -21.36036873 1.843055844
56.17836761 -21.40568733 3.937623501
57.43939972 -21.80073738 6.150635242
55.9538269 -21.5975647 1.852201104
56.05356598 -21.57090759 3.941110611
57.38052368 -22.00627899 6.159190178
56.99562836 -22.19788742 1.880126834
56.11738586 -21.81711578 3.955815792
57.65702057 -22.33665085 6.199298382
15.55141544 -6.826396465 0.5087060928
58.90009308 -23.14396858 1.925485134
56.69041061 -22.24492645 3.99889636
15.9634304 -6.896879196 2.289697647
15.559865 -6.836749554 1.09043014
15.59019279 -6.833616734 1.67384994
15.57904243 -6.814623356 2.257425308
59.16835785 -23.73010254 1.94901228
56.58582306 -22.68024254 4.016869068
15.55710697 -6.871594429 2.259473085
58.54048157 -23.72279549 1.94559741
56.86653137 -23.01635933 4.04443121
15.35956383 -6.857350826 2.244682789
58.19989777 -23.82426643 1.947756886
56.99873352 -23.29700089 4.063642025
15.22723484 -6.867246151 2.236023903
59.14133835 -24.43370819 1.975601435
58.73297501 -24.15908241 6.390203476
59.3588562 -24.77251244 1.989580631
57.09431076 -23.79572678 4.092670918
57.1784668 -24.06138229 4.109436989
58.69532013 -24.97081566 1.993903518
57.62005997 -24.47457695 4.14715004
58.56651306 -25.15704346 2.000403166
57.40050888 -24.61889839 4.146437168
58.77596664 -25.49639702 2.014420748
57.2889061 -24.81885147 4.152653217
58.54783249 -25.64133644 2.018885612
58.82964325 -25.70347977 4.255700588
59.50754929 -26.2918911 2.048486471
58.90958405 -25.9796257 4.273055077
60.6663475 -26.6558075 6.687272072
58.64706802 -26.10989571 4.27018404
58.83724213 -26.49263573 2.053032637
58.67929077 -26.3666935 4.28484726
57.82104111 -26.29089355 2.04045105
57.79695892 -26.53329468 2.049709558
58.13962173 -26.61609459 4.278184414
57.74077225 -26.73771858 2.057361841
57.96346664 -26.78038025 4.280440807
57.15446091 -26.71509743 2.053762436
57.92342758 -27.00526237 4.290931225
57.35503387 -27.04697609 2.067574501
57.88979721 -27.23348618 4.301873684
58.44046402 -27.78843117 2.101388454
57.91698456 -27.49012566 4.316588879
57.82020569 -27.74791336 2.096977949
57.82528305 -27.69272995 4.324130058
56.8207283 -27.52518272 2.083754301
56.82839966 -27.47213554 4.276145935
56.81773758 -27.76594734 2.093142033
56.86320114 -27.73057556 4.29135561
57.00753784 -28.11164284 2.107512236
57.87289047 -28.46662521 4.367631435
56.75897598 -28.23657227 2.111295462
56.87786484 -28.23661423 4.319329262
56.37474823 -28.28211021 2.111376762
57.44966125 -28.74620056 4.36762619
56.25003052 -28.46445274 2.117986917
56.27167511 -28.71896553 2.128089905
56.60671616 -28.8271656 4.341886997
56.02742004 -28.84187508 2.13186574
56.27794266 -28.90958405 4.334690094
55.94016647 -29.04252243 2.139400005
56.19556046 -29.11366081 4.343010902
55.67609406 -29.16571617 2.143128872
56.22680283 -29.38777542 4.359279633
55.63964462 -29.40407753 2.152399063
55.91010284 -29.48522568 4.353469372
55.32833862 -29.48872566 2.154430389
55.75641251 -29.65250206 4.357347012
55.71218872 -29.93379021 2.173697472
56.47364807 -30.25972557 4.41651392
55.1942215 -29.89692688 2.170064449
54.96869278 -30.01132011 2.173674107
55.40504456 -30.18486404 4.374782085
55.00439072 -30.28873444 2.18486619
55.64056778 -30.57066345 4.404737949
54.93494415 -30.5108242 2.193435907
55.65414047 -30.82781982 4.419727325
3.875103712 -2.958739758 1.986641765
55.9080925 -31.27493095 2.227905273
56.24409866 -31.39853477 4.472579002
55.42635345 -31.26418114 2.22552681
56.21229935 -31.63559723 4.484931946
55.16066742 -31.36932182 2.22866869
56.33163071 -31.95669937 4.507347107
55.62511063 -31.8796196 2.25097394
56.39705658 -32.24987411 4.526346207
3.838733435 -3.008709192 1.986559391
55.65054703 -32.16146469 2.262386799
56.53743744 -32.59962082 4.55120945
3.851103306 -3.03391695 1.993431449
61.10940933 -35.52287292 2.418912411
62.00292206 -35.96312332 4.932223797
3.853232861 -3.053603172 1.99713707
61.16168594 -35.83496475 2.431676865
62.04283905 -36.27196503 4.951376915
3.848931789 -3.068876505 1.998704076
61.6803627 -36.41722488 2.457145691
60.98728943 -35.95280457 4.896855831
3.870327711 -3.103256941 1.843446136
3.841214895 -3.082244158 1.999213576
61.63201904 -36.67625046 2.46741271
60.69313431 -36.06611633 4.893386841
3.845626116 -3.107025623 1.839342356
3.848519087 -3.104202032 2.004486322
61.05105209 -36.62442017 2.463109493
60.55068207 -36.26638794 4.900170326
3.844532251 -3.124283075 1.841700554
3.850701571 -3.123349905 2.008174419
3.904044628 -3.229337215 0.4194404483
3.905992031 -3.226240396 0.5787118673
3.904862404 -3.221333504 0.7375187278
60.60541534 -36.58262253 4.920437336
3.85849762 -3.150373459 1.848219514
3.851129532 -3.141571045 2.011334896
3.860057354 -3.221397161 0.4233484864
3.863616228 -3.219307661 0.5810655355
3.879594564 -3.224671125 0.7382585406
3.833734989 -3.153924704 1.844109416
3.843158722 -3.154943466 2.011847496
3.872445345 -3.247255564 0.4219328761
3.862369537 -3.236916065 0.5812170506
3.86291194 -3.233026266 0.7388854027
3.88629961 -3.23091507 0.8964831829
3.83513999 -3.1682899 2.012359619
3.862754345 -3.255582094 0.5812788606
3.865013123 -3.252726555 0.739274621
3.843910694 -3.223778963 0.8960374594
3.888058901 -3.246201754 1.055965424
3.879962444 -3.236142874 1.214188457
3.88373661 -3.234119892 1.374487042
3.84032917 -3.189500809 2.017114639
3.869932652 -3.257964134 0.8975225687
3.859353781 -3.247298241 1.055067182
3.854722738 -3.239322662 1.21282959
3.867028236 -3.242495775 1.373720765
3.876112223 -3.243646145 1.536299944
3.837949991 -3.21085 1.85351336
3.845415592 -3.210777998 2.021873236
3.858269691 -3.269354343 0.897944212
3.844720364 -3.255897284 1.055085063
3.887274265 -3.277658463 1.217859507
3.846922159 -3.248719931 1.372437239
3.846341372 -3.243111849 1.532549381
3.853895664 -3.243308067 1.696316957
3.836409092 -3.228217363 1.855880141
3.847512484 -3.229450941 2.025547028
3.878932238 -3.295494556 1.058568597
3.850094557 -3.273437738 1.215180635
3.857649326 -3.272856951 1.375761509
3.848159313 -3.262678623 1.535025477
3.841002464 -3.252964258 1.695622087
3.838528872 -3.246964455 1.859149575
3.839233637 -3.242809772 2.026062489
3.888069868 -3.310297012 1.382210493
3.844852209 -3.279173851 1.536523104
3.847695827 -3.275575161 1.699697375
3.840145826 -3.266420126 1.862447023
3.834192514 -3.25816083 2.027640343
61.04231262 -39.22674179 2.568907738
3.823885679 -3.280300379 1.696678996
3.844558239 -3.2886343 1.86670053
3.835647106 -3.277565718 2.031344891
59.41737747 -38.43009949 4.989705563
3.839387178 -3.30405426 1.8681463
3.840285063 -3.299047947 2.036114693
3.831291199 -3.316725969 1.868638039
3.846447945 -3.321621418 2.041419744
58.74998856 -38.6506424 2.537381172
59.34135437 -38.96418381 5.019169807
3.837505102 -3.339418888 1.873336434
3.839474201 -3.336008072 2.042470932
58.31228256 -38.65755081 2.53618145
58.86237335 -38.94752502 5.002472878
3.840326548 -3.360090733 1.877108812
3.832445145 -3.350377321 2.043522358
57.86184692 -38.65311813 2.534487724
3.84305048 -3.380809784 1.880883932
3.835087299 -3.370988369 2.047769308
33.39352036 -23.00205421 0.4098859131
33.44493103 -22.88938141 1.804190636
57.42956924 -38.5923996 4.934314251
3.833817244 -3.394826412 1.881431103
3.842484474 -3.394793749 2.053617477
