# .PCD v0.7 - Point Cloud Data file format
VERSION 0.7
FIELDS x y z
SIZE 4 4 4
TYPE F F F
COUNT 1 1 1
WIDTH 1340
HEIGHT 1
VIEWPOINT 0 0 0 1 0 0 0
POINTS 1340
DATA ascii
1.223865032 20.14635658 4.945607662
1.308675528 21.3390255 5.995157242
4.3902812 74.07029724 2.30251193
2.370423794 39.23101425 3.003913879
1.313625216 21.08533669 2.774784803
1.26516974 20.03519821 3.420621157
1.259595633 19.76847458 4.12488842
1.287658691 19.9932766 4.915513039
1.387866735 21.36951828 6.002623081
1.380934119 20.9355793 2.760954618
1.317279458 19.70795441 3.379347563
1.344281197 19.96507263 4.156667233
1.357284307 19.94574356 4.906326294
1.80459106 26.41699219 2.295147419
1.467370629 21.08771706 2.774437904
1.388225436 19.69343567 3.377440453
1.405464292 19.79491043 4.12928009
1.431975961 19.97628212 4.912621498
5.146095276 73.61346436 2.2870543
1.814366579 25.18341446 2.226580381
1.604274392 21.94293022 2.851468086
1.468905091 19.81723785 3.39296627
1.470257401 19.69153595 4.112723827
1.410972953 18.67566681 4.655953407
2.470573902 33.05755615 8.741604805
5.432490826 73.96208954 2.29207778
1.898949385 25.02927208 2.21759057
1.70511806 22.22731018 2.876950264
1.538090825 19.77449036 3.387588739
1.498602867 19.06393623 4.011576176
1.487561107 18.7409687 4.669231415
2.583420277 32.98689651 8.725989342
5.685538769 73.66659546 2.284107208
2.10352993 26.51191139 2.298891068
1.554882526 19.18837547 2.602273464
1.60039866 19.60065842 3.365769625
1.556447268 18.91304398 3.987436295
1.555658221 18.73581123 4.668626308
2.713906527 33.06878662 8.746272087
5.967426777 73.92144012 2.287326813
2.145644426 25.83960915 2.261407137
1.628778815 19.23253632 2.606141329
1.630542278 18.9725666 3.997320175
2.625232935 30.83959007 7.06145525
2.837684155 33.13317871 8.762522697
6.19237566 73.626297 2.279662132
2.329246283 26.91260338 2.32013464
1.696801543 19.20298386 2.603381157
1.823703647 20.58411026 3.489635944
1.705237269 19.03377342 4.007525444
1.719082236 19.04150581 4.730047703
2.904381275 32.60193253 8.639233589
6.548447132 74.71592712 2.29965353
2.382886171 26.40899849 2.292014599
1.759580255 19.15564728 2.599047184
1.768373013 19.10699844 3.304029942
1.772012472 19.03993416 4.008868694
1.789133072 19.08471107 4.739146233
3.026340008 32.6578598 8.653700829
6.806753635 74.78150177 2.299275637
2.420806408 25.82224846 2.25937438
2.079273701 21.88897896 2.845862627
1.829884171 19.05171585 3.297256231
1.853925467 19.17139244 4.030518532
1.85966754 19.12962341 4.748635292
2.191764116 22.5408802 6.283352852
3.40648222 35.36768723 2.784667015
2.010556459 20.35900497 2.707686663
1.890482664 18.9903183 3.289747477
1.924995303 19.21636963 4.038223267
1.925821185 19.12545013 4.748470783
2.269436121 22.53951073 6.28407383
2.704485178 26.90488625 2.318412304
2.045097589 19.98751831 2.674162388
1.969718814 19.08640099 3.30209589
2.018755436 19.48706818 4.082449913
2.036109447 19.52882957 4.829012871
2.352541208 22.55104446 6.287950993
7.695758343 75.81383514 2.314855337
2.816781521 27.00016212 2.323378086
2.121975422 20.02194977 2.677328587
2.035532475 19.04397011 3.297059298
2.098903656 19.53663826 4.091052532
2.098362207 19.40428352 4.805236816
2.453053713 22.72888947 6.330918789
7.8689785 74.75098419 2.292025805
2.907505512 26.92865372 2.319207907
2.19984746 20.02798271 2.677966356
2.089720964 18.86083984 3.27437377
2.158357382 19.42132378 4.07302475
2.164163351 19.35407066 4.796177387
2.469641685 22.07510757 6.178919315
8.141676903 74.806633 2.29158926
3.297468185 29.58233261 2.46501255
2.730830908 24.2383709 3.058387995
2.185112715 19.09815407 3.304616213
2.206743002 19.179842 4.034671307
2.272161961 19.65630341 4.856983662
2.533509254 21.9252491 6.145125389
8.346616745 74.48661041 2.283889532
4.569968224 40.14267349 3.045866728
2.764250278 23.78583145 3.017682552
2.254739285 19.15439034 3.312070847
2.301406145 19.45548058 4.079877377
2.348051071 19.75255394 4.876944065
2.594479561 21.82835579 6.123674393
8.724259377 75.46235657 2.301789761
3.509815931 29.65317726 2.468575478
2.83532691 23.68559074 3.008829594
2.353212595 19.39489174 3.342804193
2.346603632 19.25956726 4.048902035
2.590308666 21.23392296 5.171319962
2.675223351 21.83678627 6.127158642
8.931997299 74.93504333 2.289926052
3.616985083 29.6930027 2.470642567
2.916142941 23.63607407 3.004605055
2.429376364 19.43395424 3.348223448
2.358028889 18.76318932 3.969382048
2.402144909 19.02723312 4.735396385
2.75465107 21.83332825 6.127925396
9.165026665 74.64541626 2.282833815
3.430499554 27.27364731 2.337461948
3.145204544 24.80032921 3.110093832
2.532976151 19.69333649 3.381432533
2.417804241 18.68637466 3.957770586
2.453345776 18.87477493 4.706325054
2.738655567 21.06420326 5.948863506
9.411027908 74.47415161 2.278138876
3.531336069 27.28336716 2.337935686
3.276899099 25.12528038 3.13979888
2.608263254 19.71401024 3.384625673
2.502685547 18.81115532 3.978834629
2.540768385 19.0141964 4.735145092
2.8206532 21.10108566 5.959202766
9.839297295 75.73008728 2.301695585
3.237010717 24.10626221 3.0480721
2.715198755 19.97646904 3.418325663
2.583611727 18.89837837 3.993875027
4.108686447 30.43882179 7.001562595
2.903442144 21.14152336 5.970457554
3.399092197 24.6596508 3.098505497
2.789616823 20.00876617 3.423039675
2.669374228 19.01658821 4.013991356
2.897686481 20.62223625 5.05663538
2.993149281 21.25937271 5.999904633
10.34932804 75.58222961 2.296424627
4.781216145 34.27587891 2.722556114
2.689415455 18.82376671 2.571241379
2.88164854 20.14058113 3.440375566
2.725358486 18.93732452 4.002118587
2.992702484 20.78763771 5.09085083
3.081898689 21.33582497 6.019794464
10.60534954 75.56737518 2.295052528
4.207722664 29.30714035 2.449311256
3.595036268 24.7978878 3.111924171
2.952750206 20.1428051 3.441381216
3.197034121 21.78663635 4.465001106
3.065679789 20.76168823 5.087246418
3.1706388 21.435606 6.045161724
10.91076088 75.80316925 2.29860878
5.032421112 34.32967377 2.725696325
2.808475256 18.70261192 2.56104517
3.033206224 20.1835537 3.447324991
3.022839069 20.05023003 4.184676647
3.174153566 21.0079422 5.137661934
3.239838839 21.36872101 6.031475067
11.37800026 77.23091125 2.325722933
5.136254311 34.22592926 2.720128775
2.883606195 18.74006653 2.56486702
3.216685772 20.9470768 3.544468164
3.084280729 19.96350288 4.171832561
3.10113883 19.99329948 4.937817097
3.021174431 19.39676476 5.569001198
11.65034485 77.19080353 2.323917627
4.466383457 28.91877747 2.428317547
3.024238586 19.23477364 2.610080242
2.954388618 18.69278526 3.260850191
3.069226503 19.39876747 4.081406593
3.18672657 20.09365463 4.959339142
3.104649544 19.47294235 5.588959217
11.97691631 77.50554657 2.329139471
4.100778103 25.7707901 3.20229125
2.996124268 18.51181602 3.238862991
3.123362064 19.28268242 4.063845158
3.287810087 20.26486588 4.995103359
3.177279711 19.47565079 5.591679096
12.30269718 77.79920959 2.333988667
4.184247971 25.69738197 3.19635272
3.200805902 19.31860542 4.071000576
3.356557131 20.2243576 4.988855362
3.19690299 19.1453228 5.515920162
5.981212616 36.41189194 2.84139514
3.247194767 19.28287697 2.616043806
3.149632454 18.60622787 3.252617121
3.168109417 18.67194176 3.967325687
3.437325239 20.25917816 4.997647285
3.255964756 19.07079315 5.500517368
5.832746983 34.69207764 2.747073412
3.32127142 19.29508591 2.617748737
3.214491844 18.57759476 3.24997282
3.254721403 18.77389717 3.985273361
3.401077986 19.58703804 4.865792274
3.314858675 18.99801445 5.485578537
7.025913239 41.05715179 3.097918749
3.398768663 19.32666779 2.621241808
3.278778076 18.56692505 3.249584675
3.309172153 18.68076706 3.971564293
3.479961872 19.62164688 4.874612331
3.506611586 19.73027039 5.660715103
6.160095215 35.23588181 1.496215463
6.037434578 34.39870834 2.731709719
3.449110031 19.21915054 2.612121105
3.344390154 18.54373169 3.247699022
3.366003275 18.62505341 3.963901758
3.582988977 19.81513977 4.915051937
3.541067839 19.50507164 5.60995245
6.283654213 35.20041275 1.495209098
6.146645546 34.33529282 2.728644371
3.439732552 18.69037628 3.267346144
3.878296137 21.13976479 4.374660492
3.710391521 20.11770058 4.97742939
3.586574078 19.35084724 5.575985909
6.411944866 35.19207764 1.494758129
5.985446453 32.7191658 2.640084505
3.626846075 19.40653419 2.630533695
3.519339561 18.74282455 3.275121212
3.519271612 18.70047188 3.97926259
3.719587326 19.75133324 4.906524658
3.63381958 19.21188736 5.545659542
6.543092251 35.19903183 1.49462986
6.359449863 34.11289978 2.717399597
3.70710659 19.44674683 2.634942055
3.702461004 19.35916901 3.354379654
3.601510048 18.76590538 3.991540909
3.765282631 19.5974865 4.878008842
3.740504265 19.40042114 5.592881203
6.684186459 35.25859833 1.495554447
6.430434227 33.81566238 2.70157361
3.761862516 19.34758568 2.626727104
3.737573147 19.1569767 3.330007076
3.673374653 18.77275848 3.994331598
3.852215528 19.66926575 4.894566536
3.807909727 19.37212181 5.588871479
6.692088127 34.60823822 1.482606649
6.587989807 33.98737335 2.71163702
3.820790768 19.27373314 2.620835543
3.745777607 18.82025146 3.288589716
3.720227242 18.64742851 3.97561717
4.011807919 20.11852837 4.986606598
3.880651951 19.37229538 5.59167099
6.80905962 34.54935837 1.481262445
6.728325844 34.06230164 2.716406107
3.745250463 18.50534248 2.551831961
3.787133217 18.66686821 3.270430326
3.900452614 19.21413422 4.069844246
4.032959938 19.8387146 4.933088779
3.963501692 19.42383194 5.606717587
6.943325996 34.61297226 1.482345462
6.728040218 33.44801331 2.683148384
3.819344282 18.54371452 2.55612421
3.850558996 18.6484642 3.269357443
4.012629986 19.43371773 4.107460022
4.133625507 19.98903656 4.965466499
4.076213837 19.64196205 5.661222935
7.087026596 34.68857956 1.483676553
6.25297451 30.41508675 2.516452312
3.906507492 18.6280098 2.56467104
4.418418884 21.1277256 3.585618973
3.904107094 18.51100349 3.958761454
4.126619339 19.56221962 4.882698536
4.325143337 20.50803757 5.869812489
7.190814972 34.56371307 1.481109619
6.342905045 30.29920769 2.510727644
3.994523048 18.69562531 2.571784258
4.15943718 19.46914291 3.376427412
3.954424381 18.41419601 3.944833994
4.205429554 19.58631134 4.890051842
4.336476803 20.18773079 5.796937466
7.302290916 34.47969055 1.47936523
6.447894096 30.25935745 2.509232759
4.194710255 19.33580971 2.630995274
4.107445717 18.86388779 3.300973892
3.976236105 18.20002937 3.911644697
4.264060497 19.53014565 4.881261349
4.407076836 20.16123581 5.793870926
7.403017521 34.37703705 1.477283239
4.889571667 22.34053802 2.072250605
4.079961777 18.41140556 3.244833469
4.05232954 18.23253059 3.918923378
4.380606651 19.7483654 4.927520275
4.47471714 20.13907814 5.791735649
7.518995285 34.348423 1.47666955
4.926771641 22.13872528 2.061638832
4.774478436 21.37166595 2.818631649
4.147854328 18.41727448 3.247012615
4.117889881 18.23069954 3.920532465
4.463889122 19.80487442 4.941450119
4.559540749 20.19667435 5.808640003
7.797021389 35.03723145 1.490098596
4.996614456 22.09304428 2.059678316
4.329125404 18.97332573 2.600937128
4.197604656 18.32328415 3.236586332
4.18474865 18.2344265 3.923096895
4.5356493 19.78933907 4.941131592
4.511328697 19.62907791 5.676919937
5.093895435 22.15353012 2.06364584
4.739381313 20.49859428 2.741261244
4.261365891 18.2950592 3.234567881
4.205280304 18.01355934 3.888988018
4.626554966 19.85975647 4.958137989
4.573901653 19.57538605 5.667552471
4.819241047 20.55539322 1.975797534
4.796293259 20.40427017 2.733844757
4.32542181 18.26855469 3.23280406
4.29309845 18.09713936 3.904829979
4.706736088 19.88002586 4.965145588
4.637009144 19.52530289 5.659100056
6.09120369 25.78374672 2.266096592
4.834396362 20.23019028 2.719161749
4.381804943 18.20895195 3.226851463
4.367855072 18.1206646 3.91087985
4.791514397 19.91910934 4.976008415
4.723908424 19.57942772 5.675572395
5.432854176 22.52321434 2.086161375
4.961102486 20.44223785 2.739809036
4.731741905 19.38247108 4.120439529
4.892699242 20.02665901 5.000728607
4.972544193 20.32168007 5.85648489
5.524435997 22.52847862 2.087229013
4.977185249 20.17864609 2.716984272
5.032264709 20.36635971 3.506021023
4.90814352 19.7974987 4.191247463
5.124932289 20.66563225 5.132771015
5.044640541 20.29871941 5.854842663
5.582753658 22.41200447 2.081531048
5.139210224 20.51484871 2.749162197
5.18774271 20.68842316 3.54918623
4.874085426 19.34070206 4.118626118
5.037224293 19.99043465 4.999792576
4.951491356 19.59193993 5.689701557
5.677302361 22.46522331 2.085235834
5.379131317 21.19264412 2.812589169
5.925520897 23.40546799 3.898904562
4.685394287 18.27898788 3.946205139
5.204854965 20.37795639 5.08108902
4.991045952 19.46207809 5.662282944
5.983490467 23.37514496 2.13657093
5.401011944 20.96783066 2.793351412
5.073121071 19.59899521 3.413668156
4.72058773 18.15037346 3.927343845
5.328240395 20.55984497 5.12121582
5.053533554 19.41259384 5.654336452
5.91266489 22.71574402 2.100825548
5.500304699 21.04168701 2.801603556
5.068421841 19.27906036 3.374682665
4.843479633 18.3456707 3.962169647
5.413039207 20.56700516 5.126335144
5.095701218 19.28359413 5.627378941
12.07374763 46.71427917 1.71957922
6.000288963 22.71631432 2.101737261
5.541596413 20.86896133 2.787329435
5.10224247 19.11903763 3.356192589
4.920998573 18.37087822 3.968898773
5.437811852 20.35421562 5.086863995
5.162659645 19.25456619 5.624433517
6.936403275 26.00804138 2.285924673
5.006289482 18.43870544 3.982594013
5.432394505 20.04556847 5.027804375
5.406322956 19.90596008 5.784965992
12.13730717 45.63462448 1.699041367
7.03145504 26.0081501 2.286942005
5.473223686 20.00607681 2.710988045
5.255883217 19.15317917 3.364649534
5.08591938 18.46900368 3.990284204
5.506476879 20.03234673 5.028736591
5.459851265 19.83160019 5.771173954
6.240520477 22.68815231 1.249801755
6.41450882 23.30210495 2.137155533
5.37677002 19.36402702 2.653348207
6.018630505 21.71761513 4.530424118
5.580440998 20.03310585 5.032379627
5.480835438 19.62253189 5.725232601
6.310849667 22.63838387 1.249009848
6.511644363 23.34441185 2.140478134
5.476730347 19.45487404 2.663250923
5.359126568 18.99642372 3.348716259
6.178370476 21.99789429 4.580095291
5.887001991 20.87955856 5.207894802
5.528470039 19.53109932 5.707385063
6.409670353 22.67798805 1.249994755
9.883311272 35.3938942 2.814364195
5.53716135 19.41169357 2.660763025
5.406274796 18.89729309 3.338168859
6.185621738 21.72787476 4.538525581
5.893388271 20.6215744 5.159255028
5.748099804 20.05482674 5.838039875
12.88416004 45.88367844 1.705472112
11.145154 39.50019073 3.045354128
6.372367859 22.15929985 2.915944099
5.504933357 18.99987602 3.353535891
5.857551098 20.23892593 4.294882774
5.65512228 19.47389603 4.929915905
6.027670383 20.79415321 6.020767212
13.09720135 46.0175972 1.70857656
5.772492886 19.74310112 1.942224264
5.708651066 19.49456215 2.671574116
5.49743557 18.70736885 3.318098307
5.969907761 20.37164688 4.319968224
5.735467911 19.50243568 4.939361572
5.966533661 20.28940392 5.90378046
6.798827648 23.1303463 1.259587526
5.566135883 18.7410202 1.887093663
5.697164536 19.17079544 2.643401861
5.546550751 18.62134933 3.309305429
5.637664318 18.90994835 4.08047533
5.804009438 19.47491455 4.937656879
6.671595097 22.48295212 6.438704491
6.853058338 23.01926994 1.257667899
5.654773712 18.8050518 1.891570091
5.710089684 18.96615219 2.626066446
5.578588963 18.49041748 3.294611931
5.719901562 18.95010948 4.090115547
5.878693581 19.48212624 4.942889214
6.74846077 22.46092796 6.438533306
6.903347492 22.91866875 0.390142113
6.901855469 22.87617302 1.255145788
5.692083359 18.69035339 1.886052966
5.777941704 18.9548378 2.626633883
5.629829407 18.41567993 3.287317038
5.784767151 18.92926979 4.089660168
6.215157986 20.37160301 5.12841177
6.152013302 20.12277603 5.877949238
6.975750446 22.85796738 0.3905797601
6.994306564 22.88458061 1.25561738
6.920260906 22.59672737 2.106299162
5.857680321 18.97093964 2.629859209
5.844697475 18.8966465 3.35202527
6.14088726 19.86828423 4.249559879
6.037313938 19.48694801 4.95220089
6.234174252 20.13313866 5.885499001
7.059363365 22.82074165 0.3906031847
7.105165958 22.95396042 1.257306218
6.950107098 22.39833641 2.09635973
6.007204056 19.20711136 2.653632879
5.943016529 18.97512054 3.364714861
6.187431812 19.76173592 4.235219479
6.135016918 19.5561657 4.970519066
6.344481468 20.2364769 5.915690899
7.157021523 22.86038589 0.3894011676
7.165198803 22.85246849 1.255646706
5.957614422 18.81999016 1.896401763
6.074776173 19.19097519 2.65386796
6.074159145 19.15952492 3.39121747
6.222303867 19.63162231 4.216790676
5.849536419 18.373312 4.732470512
6.487297058 20.44368172 5.971237659
7.289510727 22.99784088 0.3865315616
7.230406284 22.78462029 1.254646063
6.00706625 18.74861145 1.893390298
6.00059557 18.69923019 2.610006332
6.137435436 19.12989044 3.389874697
5.977225304 18.57904053 4.044335365
5.738764763 17.77508736 4.613975525
7.202216625 22.51893234 6.480784416
7.314134121 22.76309013 1.254591227
6.061877251 18.68369865 1.890811563
6.064745903 18.67739868 2.609728336
6.00354147 18.45256615 3.304474115
5.994576454 18.40835571 4.018986702
5.992497444 18.3746109 4.740719795
6.477799892 19.90653801 5.851066113
7.400181293 22.74889565 1.254697323
9.636362076 29.87189865 2.522651911
6.074997902 18.47180557 2.592453241
6.060647011 18.39941406 3.300187826
6.202463627 18.83586884 4.094008446
6.045730114 18.31068039 4.731785774
6.63996172 20.17015266 5.920668125
7.471722126 22.6886425 1.253908873
7.488976955 22.71104622 2.120338917
6.135115623 18.42778206 2.590239525
6.144503117 18.43121338 3.307002306
6.195881844 18.56661797 4.052570343
6.144814014 18.38020325 4.750528812
6.915305138 20.7818222 6.075365067
7.552705288 22.65864182 1.253733754
7.571157455 22.6848278 2.120239973
6.206286907 18.40714836 2.59033227
6.20676899 18.39464188 3.304950714
6.2204175 18.41154289 4.030083656
6.186596394 18.29263115 4.736618996
6.875449181 20.4018116 5.988379955
10.19352341 30.49708366 2.563409567
7.53010273 22.26281929 2.952532053
6.39690876 18.76286507 3.355657578
6.242463112 18.26325226 4.008555889
6.238209248 18.23671341 4.729250431
6.963607311 20.43466568 6.001885414
15.83870602 47.37520981 1.744504929
10.31229877 30.50873184 2.565887213
6.378552914 18.50198364 2.602951288
6.458981991 18.72167969 3.353128195
6.412492275 18.56709671 4.063094139
6.298354149 18.19634819 4.725346088
6.979397774 20.23470688 5.95882225
8.950637817 26.02851677 2.314003229
6.432802677 18.43998909 2.599176645
6.473820686 18.5390625 3.332122326
6.342838764 18.12206078 3.992029905
6.37900877 18.20682526 4.732208252
8.262917519 23.83388138 6.846271515
16.27252579 47.52614975 1.749503374
9.053274155 26.02368927 2.315439701
6.292389393 17.78954124 2.540347576
6.573224545 18.59996033 3.34316349
6.230197906 17.57034492 3.902675629
6.324631691 17.82757378 4.658375263
7.307667732 20.71248627 6.088149548
13.16060066 37.81723785 1.557485461
7.894298077 22.30882072 2.106151104
6.367640972 17.79771805 2.54314208
6.64286232 18.58264923 3.343863964
6.281508446 17.51123619 3.896327972
6.353982925 17.70153618 4.636817932
6.852331161 19.13683128 5.707496643
17.06987762 48.77790451 1.776464105
7.927656174 22.14333344 2.098272324
6.487782955 17.93556595 2.558160305
6.739469051 18.65444374 3.35615778
6.404626846 17.66109467 3.925332308
6.42034483 17.68497086 4.637942791
7.630314827 21.17455101 6.213892937
13.45044804 37.80431366 1.558917642
9.858403206 27.43473625 2.401121616
6.604355335 18.0701828 2.572833061
6.823047161 18.67589378 3.362049818
6.512602806 17.77415085 3.948033333
6.659412384 18.17332458 4.743607521
7.671336651 21.04686356 6.188978672
16.33261108 45.57505035 1.714858532
7.981286049 21.79694366 2.081579208
6.689490318 18.10159111 2.577952385
7.168084621 19.43828011 3.465545654
6.794759274 18.36794281 4.052473545
6.709146023 18.10386276 4.733986855
7.474637032 20.24872589 5.998887539
16.46577644 45.4367981 1.713221312
9.813096046 26.6991291 2.362961769
6.877799511 18.42166328 2.610343218
7.29133606 19.56095505 3.485009432
6.9226017 18.51539612 4.08150053
6.778936386 18.09158897 4.736288548
7.550423145 20.23006821 6.000694275
16.57792664 45.26721191 1.710926294
9.821332932 26.42047119 2.349000931
6.940246105 18.38450432 2.609105825
7.152424335 18.96348763 3.409350872
7.711159706 20.49226761 4.421370983
6.80675602 17.96274185 4.71438694
7.512709141 19.90827751 5.927382946
16.40242004 44.28246689 1.6923908
8.541300774 22.60203171 2.132491112
6.983516216 18.30529785 2.603804111
6.853470325 17.92765236 3.275784731
6.828114033 17.8482933 3.976113796
6.88563633 17.98632812 4.724005699
7.710253716 20.2261982 6.012478828
16.29514885 43.52763748 1.678388119
8.614193916 22.56052017 2.131759405
7.072960377 18.34259415 2.60966444
6.958732605 18.02228546 3.29132843
6.871305466 17.76517677 3.966034412
7.597772598 19.71747017 5.090267181
7.506103039 19.45861053 5.82875824
16.48124504 43.55492401 1.680139184
8.706264496 22.55846786 2.133401632
7.189212322 18.46104813 2.623144388
6.987093449 17.89753151 3.27804637
6.947257996 17.78129196 3.972686529
7.54443121 19.36675835 5.02227354
7.932269096 20.38724709 6.065482616
16.78759766 43.92517853 1.688757062
9.671045303 24.90989876 2.2700634
7.269246101 18.48008728 2.627248764
7.074912071 17.94311333 3.28719759
7.037279606 17.83408737 3.98565793
7.490242958 19.020298 4.955055714
7.997428894 20.34827614 6.062354088
16.91335106 43.78595734 1.687234163
7.529554367 18.97280312 1.930695295
7.497598648 18.87940788 2.667658329
7.048114777 17.67531967 3.254953146
7.103387356 17.80278015 3.984755993
7.684041977 19.31212616 5.021974564
8.215660095 20.7010231 6.156991959
17.06403923 43.71364594 1.687085867
7.525179386 18.75435257 1.919683218
7.563372135 18.83514786 2.666119814
7.800355434 19.44464493 3.493584871
7.195842743 17.84992027 3.997114658
7.819495201 19.45576096 5.057771683
8.186271667 20.40148354 6.089617729
16.27806854 41.21792603 1.638036728
7.638972759 18.84536934 1.926511049
7.29493475 17.94798851 2.584023476
7.660932541 18.87514687 3.421431541
7.226215363 17.74506187 3.983284712
7.598302364 18.68696022 4.901798248
8.038565636 19.8027668 5.947573185
17.30126572 43.40543365 1.683570743
7.630138874 18.63024712 1.915618777
7.376414299 17.96331406 2.5879848
7.739719868 18.87427902 3.424952507
7.765365124 18.93177795 4.19133091
7.686910629 18.71348953 4.913014412
7.697588921 18.72291756 5.685142517
16.44221687 40.77600861 1.631716132
7.699577808 18.60726929 1.915910244
7.411246777 17.85971832 2.580622673
7.980597973 19.28285217 3.483203173
7.789100647 18.79083633 4.171843052
7.719441891 18.59729385 4.89426136
7.794891357 18.77039337 5.703780174
16.62888527 40.82244873 1.634007692
7.773384571 18.59517097 1.916854978
9.642017365 23.26065826 3.10007906
8.180972099 19.58123779 3.526922941
8.200314522 19.62197495 4.319638252
8.077755928 19.29754639 5.047703743
7.854971886 18.72338104 5.698890686
16.61444283 40.36725235 1.626141667
10.24503326 24.52389908 2.262529373
9.692486763 23.14381599 3.092227221
7.940947533 18.78146362 3.423736811
7.944499493 18.7733593 4.178660393
8.327693939 19.70473671 5.140054226
7.94987011 18.7628727 5.715734959
16.72206116 40.22016525 1.624548316
13.19130135 31.50982285 2.670600414
7.985616207 18.70249176 2.669449568
7.824288368 18.29975319 3.362952232
9.175404549 21.59661484 4.670838833
8.344164848 19.54126167 5.111722946
8.090782166 18.91376877 5.760652065
19.47413635 46.51351929 1.75428164
13.26535702 31.36947441 2.665304661
8.075346947 18.73679161 2.675401211
7.985358715 18.5018692 3.393879175
7.98421526 18.49266624 4.139734745
8.454787254 19.61890984 5.134130001
8.294477463 19.21340179 5.843149662
19.65864754 46.51525116 1.755915403
10.690135 24.86184502 2.288861513
8.019837379 18.41052437 2.646829605
7.99529314 18.34525871 3.376489639
8.035543442 18.42653084 4.133226871
7.979976654 18.2774868 4.8559618
8.249035835 18.9180069 5.775824547
19.70569229 46.16420746 1.750453472
13.79985619 32.03198242 2.709673643
8.094384193 18.40963173 2.64943099
8.002990723 18.17642403 3.357633114
8.077812195 18.34892464 4.124510765
8.075750351 18.32889938 4.87261343
8.411929131 19.11379814 5.832541466
19.31835938 44.7912178 1.724058986
10.71392441 24.43180084 2.268346786
8.150630951 18.3556633 2.647087336
8.071540833 18.15397263 3.35850811
8.15072155 18.33530617 4.127173424
8.148471832 18.31522369 4.875825882
8.483429909 19.08991051 5.834043503
19.9548912 45.84173584 1.74735868
11.13069916 25.16388702 2.313589096
8.23400116 18.36565399 2.650952339
8.108036995 18.0564518 3.349282503
8.243823051 18.36862373 4.13805294
9.153548241 20.47907829 5.343050003
8.521879196 18.98876572 5.8160882
18.52285004 42.07167435 1.671612144
11.06404686 24.76000977 2.292395592
8.065266609 17.77669907 3.315404654
8.282442093 18.27460861 4.126841545
8.379574776 18.4852314 4.924566269
8.601499557 18.98414421 5.822587013
18.45871353 41.51543808 1.661844254
11.18602657 24.79638863 2.297020674
8.287470818 18.12341881 2.633372068
8.125346184 17.73763084 3.314083338
8.364711761 18.28193474 4.133318424
8.46161747 18.49022293 4.932035923
9.409286499 20.64668846 6.251935959
18.6103611 41.47969437 1.662729144
11.28267765 24.7737236 2.298215866
8.360006332 18.10905075 2.634958744
8.23236084 17.81424713 3.328298092
8.502825737 18.41545105 4.161906242
8.482877731 18.3565712 4.909910202
9.462018013 20.57458878 6.241707325
18.59755898 41.0525856 1.655632854
11.36068058 24.7087059 2.296948671
8.471252441 18.19056702 2.645760298
8.26511097 17.71295547 3.318607569
8.446209908 18.11655235 4.114715099
8.492824554 18.20833588 4.88432169
9.715976715 20.94572067 6.344684124
18.7209053 40.95606995 1.655301213
11.42249775 24.61992836 2.294173002
8.722444534 18.57368279 2.686180115
8.453885078 17.96993065 3.357505798
8.525880814 18.11773872 4.120269775
8.505166054 18.05877304 4.858747959
9.804496765 20.95093346 6.354397774
19.41879845 42.11345673 1.681129575
8.783464432 18.53747559 2.685660362
8.562721252 18.03627396 3.3707726
8.580379486 18.07150841 4.117297173
8.530313492 17.94837952 4.841245651
9.931492805 21.03039169 6.383600712
20.00143623 42.99534988 1.701358914
11.16652489 23.60040092 2.23893261
9.924752235 20.86128998 2.916148663
8.597145081 17.93777466 3.361601353
8.698637962 18.15657234 4.137712479
8.924171448 18.63814163 4.996418953
10.09153652 21.1801033 6.430929184
19.25960541 40.97959518 1.661257267
11.22257042 23.49784851 2.23543644
8.761054993 18.13384056 2.652574778
8.664196014 17.91137505 3.362305164
8.450731277 17.4446125 4.01791048
8.908029556 18.42524147 4.957412243
10.2592659 21.34311104 6.481894493
19.39624405 40.89222717 1.661324263
11.43947792 23.74300385 2.252624989
8.674478531 17.77440643 2.620524168
8.714436531 17.84873772 3.358082533
8.554288864 17.50110817 4.033284187
8.955073357 18.35150337 4.948408127
10.31398964 21.25972557 6.469927311
19.50367355 40.74285126 1.660119534
11.51166534 23.67407036 2.251198292
8.759669304 17.78739166 2.625005245
8.787100792 17.83449364 3.360530138
8.630661964 17.49810028 4.038245201
9.070096016 18.42335892 4.970949173
10.38482189 21.21148682 6.467027187
10.95927334 22.3051281 2.171973228
8.802807808 17.72744179 2.622023344
9.103524208 18.35236549 3.435762167
8.687228203 17.4692421 4.038137436
9.114362717 18.36122894 4.963859558
10.48781681 21.25116158 6.485846996
11.98499775 24.24997711 2.29079628
9.793479919 19.63873672 2.813837528
9.138736725 18.25431252 3.426880121
8.739002228 17.41399765 4.033952713
9.153152466 18.27102852 4.951416969
11.91328239 23.87689209 2.271303177
9.182612419 18.18632126 2.673962116
9.289577484 18.39767456 3.451326847
9.50404644 18.84089088 4.292954445
11.22439957 22.40156746 5.857193947
11.99164772 23.819067 2.270676374
10.22315693 20.16148376 2.872950554
9.768374443 19.21328545 3.568848848
9.635462761 18.93743134 4.316295147
9.468497276 18.58302879 5.033883572
11.3534193 22.29725456 2.182076693
9.284498215 18.05931664 2.668290138
10.01544094 19.54100227 3.619254112
9.693800926 18.8825531 4.312788963
9.548044205 18.57472038 5.039550781
11.56763172 22.52795982 2.198705673
9.411262512 18.1501255 2.680818081
9.998450279 19.328125 3.594868183
9.779004097 18.88239098 4.319087505
9.459733009 18.22654915 4.970970631
25.58338737 50.4920578 1.881789684
11.43813705 22.06384659 2.1734972
10.15093422 19.46876335 2.815663338
10.11737919 19.399786 3.609731436
9.843170166 18.83945847 4.317811012
9.497036934 18.1356411 4.958567619
11.81997013 22.79063988 6.945280552
25.74627113 50.37036514 1.881912231
11.51803017 22.02386093 2.173859358
10.2521677 19.5027256 2.822715282
10.05500984 19.1002636 3.573255777
11.12341595 21.22415161 4.751124382
11.23081398 21.42679977 5.688054085
25.95197487 50.33378983 1.883889198
11.62629318 22.04974556 2.178098679
11.76305485 22.30822182 3.106976032
10.24829102 19.30944824 3.607665539
11.20367336 21.19241333 4.752748966
11.34540367 21.46118546 5.704581738
26.02853584 50.0435524 1.8804667
12.18318176 22.94276047 2.235162497
10.53347397 19.70402336 2.85073781
10.1250391 18.89554596 3.555143356
11.60037899 21.77928162 4.865661621
11.39777851 21.3727417 5.694180489
26.12355423 49.79250336 1.877901554
11.95784283 22.30191612 2.199178696
10.5986805 19.65483665 2.849848986
10.24741554 18.96428108 3.570060015
11.72425652 21.8265934 4.881860256
26.25402641 49.6123848 1.876884699
18.1946106 34.10432053 2.921624899
10.63058758 19.54181671 2.842573881
10.3099432 18.91619682 3.568682909
11.01646709 20.27378082 4.609391212
26.36922073 49.4259491 1.875611305
12.32868004 22.61778069 2.224430323
10.70161819 19.50468826 2.842945576
10.62507439 19.35834122 3.635991335
11.05774212 20.17416191 4.598709583
26.60803413 49.45392227 1.879154682
12.40209961 22.55879402 2.223896265
10.70100975 19.34062386 2.83033371
10.70094681 19.33179092 3.637852669
11.89067173 21.58126068 4.86062479
26.68187904 49.17022705 1.875975013
12.46367264 22.48765373 2.222484589
10.74979019 19.26281357 2.826632977
11.26427269 20.21907806 3.768747568
27.01814079 49.37809372 1.883522034
17.40007401 31.47924232 2.778434515
10.81041813 19.20772362 2.825250864
11.57351112 20.61849594 3.831211805
19.49683571 35.07971191 1.574071527
17.82478333 31.99434662 2.814572334
10.89926624 19.2049942 2.829212189
11.65386009 20.58857727 3.833128929
19.59819221 34.96763992 1.573850989
17.79942703 31.67616463 2.799448729
12.5895071 22.13155746 3.131279945
11.72461891 20.54094124 3.832583427
18.08812714 31.9323101 2.819840431
12.67337608 22.09456635 3.132477999
18.41955376 32.26015091 2.844809294
18.66500282 32.68975067 4.220164776
27.93643951 49.00197601 1.890911102
18.09092903 31.40295601 2.796247005
18.70769882 32.49248886 4.207381725
28.13581467 48.94952774 1.893041849
18.18659973 31.31016159 2.795134544
18.42520714 31.73481178 4.136716366
31.18209648 54.31253433 8.693180084
18.19824219 31.08315086 2.785433292
18.73763084 32.02018738 4.173437119
31.18740463 53.89870834 8.649848938
18.33831596 31.06978798 2.789333105
18.8155632 31.90446091 4.168654442
30.27138901 51.86187363 8.373934746
18.42853737 30.96938515 2.787825346
18.71678543 31.45782471 4.13047266
31.6781311 53.85011673 8.677778244
19.46386147 32.48785782 1.537159324
18.57962227 30.97398949 2.792951584
18.7609787 31.27543449 4.119153976
19.54800797 32.37836456 1.536946774
19.10526848 31.61501694 2.838273048
18.70318222 30.92139626 4.090022087
19.68734169 32.34956741 1.538693547
18.59760094 30.50008202 2.772841692
19.15229988 31.44042397 4.151228428
29.93170166 49.25240326 1.924163103
18.69011116 30.41947937 2.772426128
19.25238419 31.35301781 4.149934292
20.19391251 32.66896057 1.550848961
18.80243111 30.34746742 2.773086071
19.2196312 31.0451107 4.125647545
20.10452271 32.25806808 1.543999791
18.84380722 30.17076683 2.766865969
19.69877434 31.57244682 4.189178467
20.09645081 31.99844933 1.540459871
16.02282906 25.32299423 2.462134838
19.77476883 31.45611954 4.184680939
20.51082611 32.41517258 1.552569747
16.06446457 25.19668388 2.458156824
16.34846497 25.65193558 3.581710815
20.70486641 32.46918488 1.556423903
16.0310154 24.94029236 2.446055412
16.41969299 25.56099701 3.578903198
30.98249435 48.64773178 1.93309021
16.09230232 24.8385582 2.443869829
16.53168106 25.53574944 3.583071232
20.80804634 32.11926651 1.553644419
16.19694138 24.79639816 2.445765257
16.66597748 25.54543877 3.59100461
20.83013153 31.88756943 1.551081181
16.27667999 24.72463036 2.445563793
16.79019547 25.52804565 3.596493721
31.45581245 48.23457336 1.93577826
16.32274055 24.60047722 2.441991091
16.91313744 25.51807404 3.60249424
31.52843094 47.99061203 1.93397522
16.36272049 24.4679184 2.437880278
16.98869896 25.43390846 3.60064292
36.03731537 54.57842636 2.092917919
16.48570824 24.47389984 2.442582369
17.34041977 25.78512955 3.645082474
17.22310448 25.61044121 4.742641449
36.25897217 54.49591064 2.095747471
16.65702438 24.55286598 2.452106953
17.69245148 26.13097572 3.689200163
17.32374573 25.56363678 4.745489597
16.75106049 24.49341965 2.453099012
20.82950592 30.68385315 4.186697006
17.44394493 25.54626846 4.752821445
22.53597641 33.01092148 1.594366908
16.90569305 24.53468132 2.460515022
17.20982742 24.98873138 3.581486702
18.17823219 26.45230675 4.899038315
17.03860092 24.54198074 2.465761423
17.13345718 24.68998528 3.556182623
17.46157646 25.17687225 4.717338085
34.65488815 50.46720123 2.018908978
19.22418976 27.60133171 2.672669649
17.54091072 25.10246468 3.608300209
17.64634705 25.25579071 4.739368439
34.95064926 50.5180397 2.024857998
16.97747421 24.08205414 2.444706917
17.33562088 24.606287 3.561911821
17.81180191 25.30419159 4.756946087
28.70776367 41.01825714 1.800184011
17.06660652 24.0260334 2.445820332
17.38481903 24.48823166 3.556551456
17.62013435 24.82942772 4.695223808
28.85372734 40.91788864 1.801708698
18.08533478 25.3176651 2.536877155
17.44244766 24.38326454 3.552633524
17.79839134 24.89699936 4.715807915
35.38973999 50.02931213 2.027282476
19.5641861 27.26185417 2.671886921
17.50427246 24.29434013 3.550112247
18.08945847 25.13463211 4.76198864
28.88735199 40.36360168 1.796012878
17.51177979 24.12086678 2.466753006
17.60432816 24.25118065 3.553030014
17.53112221 24.14481926 4.621129513
28.70932007 39.8215065 1.786559343
17.41582489 23.80018044 2.450237751
17.69395828 24.19297791 3.554345369
17.62392426 24.10132408 4.624274254
28.93909454 39.84505081 1.791182876
17.58382225 23.85492897 2.458995581
17.8159523 24.18952179 3.561369896
17.80484009 24.17251587 4.645653248
29.06118011 39.7162323 1.792095304
20.01465797 27.08084488 2.682290792
17.87989807 24.09492302 3.558760166
17.94373322 24.18303299 4.657840729
29.1838913 39.58868408 1.793065429
18.6748848 25.01645088 2.547940969
18.51865196 24.79852486 3.644917727
17.985466 24.05764389 4.649123669
17.85120583 23.69224548 2.463212252
18.07315826 23.99718475 3.563814163
18.07201004 23.99489975 4.650129795
17.67976761 23.27846336 2.44020009
18.21721649 24.01287842 3.573642969
18.60341072 24.5405674 4.745849133
18.05634499 23.61386108 2.468432665
17.8430233 23.3237896 3.50452733
19.19078445 25.16286087 4.853541374
18.12134933 23.52351952 2.467588902
17.9300518 23.27421951 3.506575346
18.72320366 24.3435955 4.736947536
19.27550507 24.90049744 1.441697955
18.29286003 23.5849762 2.476966858
18.08789444 23.31056976 3.518765926
18.95477676 24.480299 4.769145966
19.35691071 24.82194138 1.442528725
18.79103279 24.06998062 2.516017675
18.29946899 23.42569351 3.539567709
19.05948067 24.43637085 4.773735046
19.0141964 24.38583755 5.89249754
19.7586956 25.17591667 2.598170757
18.23356247 23.16335678 3.518115997
19.28153229 24.5470314 4.80279398
19.09697151 24.3132534 5.89233017
19.92771149 25.19966125 1.457981229
19.82722473 25.06851959 2.596954346
18.67358971 23.56681824 3.57234621
19.67553139 24.88044739 4.867326736
19.91698837 24.98793983 0.3152541816
18.25223541 22.83369827 2.446748972
18.31231308 22.91255569 3.506618023
19.16457939 24.02183914 4.743700504
19.97906494 24.88192368 0.3171005249
19.68384361 24.50172997 1.446025968
18.33841324 22.77468109 2.44816494
18.38156891 22.83131027 3.505721331
19.03713799 23.67886162 4.700879574
20.05172157 24.78997803 0.3186972141
19.78384972 24.45687294 1.447676659
18.71059608 23.08220673 2.475409031
18.60606575 22.94932747 3.527748823
19.06684113 23.55005455 4.691466808
20.32462502 24.9623661 0.315479517
20.45648575 25.13140869 1.468310833
19.35904121 23.73599815 2.527313471
18.74008942 22.95812416 3.536933184
19.20062447 23.54596519 4.702608585
19.47757339 23.71875381 2.531753302
18.96255112 23.06922913 3.558470249
19.17652321 23.35003662 4.682462692
18.85136223 22.75738525 2.4694345
18.32312775 22.10424423 3.454972982
19.23462677 23.2505455 4.678376675
18.94449806 22.71352577 2.471862316
18.51639557 22.18167305 3.472538471
19.16935349 22.99770355 4.649537086
20.4327774 24.37881851 2.597265244
18.64157486 22.17282295 3.480185509
20.30208588 24.23052597 4.861386299
19.1944561 22.67824554 2.481493711
18.61754036 21.97163773 3.465840578
20.45992279 24.23772621 4.875968933
19.5413723 22.92591667 2.505681992
18.70703125 21.91897583 3.468445778
20.57598686 24.20165443 4.88299942
19.58509827 22.8355751 2.504380941
19.64151001 22.90652847 3.592776537
23.54448128 27.64083099 5.457394123
19.65228271 22.74874687 2.504273653
19.66559219 22.76750183 3.58567977
21.94942856 25.51957321 5.124190807
19.85751152 22.82712555 2.516224623
19.74006653 22.68970108 3.58583498
22.01807785 25.41561508 5.12106657
25.31063843 29.36603546 7.176530361
21.76991844 24.92906189 2.676240206
20.05039978 22.89191055 3.619353771
23.81608391 27.36457825 5.457110882
24.71465874 28.44572639 7.001944542
20.44346428 23.18444443 2.555180311
19.72830772 22.34508324 3.563689709
24.91798592 28.47503471 5.655643463
26.31407547 30.12574005 7.378703117
23.59697342 26.7044487 2.821026325
20.35092354 22.91872787 3.641454458
24.02744865 27.226408 5.464100838
23.44334793 26.55672264 6.63839817
20.68201447 23.13273621 2.564238787
20.59856415 23.03944588 3.665817976
23.98646355 26.98164368 5.438801765
23.43925095 26.35973167 6.61526823
20.77755356 23.06594658 2.566317797
20.03082085 22.21640778 3.576536417
24.06748581 26.87998772 5.437343597
23.44392776 26.16499138 6.593494892
20.85034943 22.98134422 2.566774368
20.16874504 22.20451736 3.585355043
26.54817581 29.52920151 5.897889614
23.86588669 26.45967865 6.676026344
20.91752625 22.89053535 2.566793203
20.3067131 22.20797348 3.595151424
25.81680107 28.48409271 5.739129543
24.05351639 26.49191475 6.701528549
21.00402069 22.83011246 2.568772793
24.27659988 26.53281593 4.132404327
23.86843681 26.09157372 6.634554386
24.09181976 26.12871552 2.824218035
24.31614876 26.38562775 4.126366138
26.04915047 28.33623314 5.748067379
23.09010696 25.02937698 6.423363209
24.16174126 26.0178299 2.82379365
24.56513023 26.47271919 4.149094582
26.2696991 28.37829208 5.772424221
23.14817429 24.91361809 6.417201996
24.55253792 26.26232529 2.850377798
23.68262863 25.30529404 4.017423153
23.15356445 24.72531509 5.165755272
23.39094543 25.00288963 6.455934525
24.61735535 26.14409447 2.849545002
23.92234993 25.38614845 4.039234161
23.19252396 24.59869385 5.158673286
24.54534531 26.09894562 8.030812263
24.5197506 25.8490963 2.83520174
24.01976204 25.31859589 4.042220592
23.3652935 24.609972 5.176089764
27.02958107 28.6282692 7.292707443
24.59451294 25.7530899 2.835647583
25.09386063 26.30049515 4.176616669
23.30435753 24.36658669 5.149719715
27.13172913 28.53404236 7.294532776
24.62321854 25.81937599 8.003655434
24.80673409 25.79593849 2.847247839
23.65513802 24.56256294 3.971942186
24.90408516 25.91357803 5.433398724
25.12242889 26.16496086 6.79182148
24.75151634 25.77242851 8.015845299
24.8531189 25.65973473 2.845098257
23.82240295 24.56436157 3.984143019
24.90291595 25.73540688 5.418380737
25.04351234 25.8927803 6.752437592
24.57042313 25.39379311 7.938021183
24.83859062 25.45959473 2.837982178
23.82987404 24.40419579 3.975462675
23.51551247 24.07681274 5.145850182
23.71799278 24.30741882 6.418472767
24.91204262 25.58398247 8.013687134
24.95859528 25.41197205 2.842318773
23.93411064 24.33836746 3.979293346
24.76594162 25.23163033 5.363218307
23.25125694 23.64006042 6.289039135
24.98460388 25.47726059 8.009939194
29.91851425 30.42203712 3.24371314
23.98429108 24.22445679 3.976473331
24.83453369 25.12228775 5.360890388
23.49945641 23.7387867 6.330084324
23.41706467 23.65964317 7.534968853
28.22277451 28.4515934 3.098376513
24.05765915 24.12639236 3.976305962
23.50997925 23.57200813 5.103638172
23.56553268 23.63693237 6.32721138
23.49642754 23.57241249 7.535028934
25.54964638 25.48678207 2.873749733
23.98502731 23.88634109 3.957396269
23.68579292 23.5841198 5.121932983
23.7613945 23.67812729 6.355773926
23.58761597 23.50593567 7.539701939
25.64131737 25.39757156 2.875534534
24.00301361 23.72428703 3.949632645
24.21373749 23.94782257 5.203718662
23.91397667 23.65621758 6.372309685
27.37425041 26.97033501 3.010344505
24.00194359 23.55239296 3.93995595
24.68886566 24.25988197 5.27614975
23.99760246 23.56303406 6.372782707
23.81642723 23.38625526 7.558008194
27.49072647 26.89463615 3.013864279
24.34163666 23.71795273 3.974545717
24.35777473 23.74190712 5.201399803
24.10438347 23.50186348 6.379620552
24.10424614 23.50985718 7.617478371
27.58164597 26.79299164 3.015352726
24.56193161 23.76849174 3.993875742
25.06171227 24.27849388 5.314868927
24.32796288 23.55779266 6.413514137
24.34893417 23.58724022 7.664490223
27.68492889 26.70373535 3.017879963
24.64889717 23.68419266 3.995802164
25.27373123 24.32441139 5.33982563
24.70166779 23.76169968 6.481894016
26.63726997 25.70361519 8.286643982
25.11328316 23.98237038 4.047230721
25.85143089 24.72229195 5.429674625
24.47856712 23.3782711 6.413669109
24.83930016 23.74484444 7.759313583
24.95918274 23.65001106 2.78828454
24.68004036 23.3834877 3.981784582
24.79634476 23.51471901 5.227422237
24.62157059 23.35112 6.428950787
24.96907043 23.70237541 7.77359724
24.99446678 23.51403618 2.78607893
24.57349396 23.11931229 3.959386349
24.86245346 23.41020012 5.225910187
24.55873489 23.13016891 6.398076534
24.76662254 23.34257889 7.69631815
24.97474098 23.33379555 2.779788256
25.58705902 23.93659973 4.080888748
24.83703804 23.21707344 5.208194256
24.60359192 23.00741768 6.391139507
24.82497215 23.23169708 7.69106102
25.13799477 23.32280731 2.787886143
25.52837753 23.7077198 4.064151287
24.78059006 22.99549866 5.185153961
25.21317673 23.43017197 6.512563229
24.49622154 22.74743271 7.57862711
25.1557827 23.17152977 2.784442902
25.53891754 23.54701996 4.056428909
24.91490173 22.95847702 5.1960783
25.25024986 23.29722977 6.503746033
24.49855042 22.58607864 7.558490753
25.14965248 22.99842644 2.779168606
25.69874763 23.52926064 4.067868233
29.44240761 27.09884453 5.982102394
25.15945053 23.04320717 6.466213226
24.59947968 22.5196743 7.565752506
28.04178238 25.54261971 1.654500127
25.44757462 23.1134491 2.797985077
25.5286026 23.19896507 4.037302971
25.73461342 23.40280914 5.314912319
25.40287781 23.10735321 6.504205704
28.12794495 25.439188 1.656377435
25.6650219 23.15021133 2.810415983
25.7559967 23.24473763 4.057434559
25.83900452 23.33206558 5.320352554
26.39538956 23.87250137 6.710147858
24.83801651 22.4204998 7.590504169
28.25895309 25.36748123 0.3124856353
28.30429649 25.4289341 1.661100388
28.93497467 26.02599907 3.062864542
25.80910492 23.1263752 4.055454254
25.82001495 23.15450287 5.304890633
26.83474541 24.11020279 6.791228294
26.22665215 23.55382729 7.949565887
28.30475235 25.23569107 0.3151554465
28.41939354 25.35176277 1.663915992
25.7027359 22.8514595 2.80408287
25.93212509 23.08138275 4.062804699
28.06855774 25.06783867 5.684560776
26.75321388 23.86983109 6.756597042
26.45933342 23.60831451 7.992936134
28.41793633 25.15703392 0.3168877959
28.47387314 25.21870613 1.664887667
25.7869854 22.77162361 2.806352615
25.80846405 22.80096626 4.038674355
29.80769348 26.48528671 5.973577023
26.83882141 23.776577 6.758577824
26.7950325 23.74718094 8.063087463
20.06553459 17.36943245 0.4577828348
28.5410881 25.0976944 1.666277289
25.86034775 22.67351723 2.807578325
26.02160263 22.83034134 4.057046413
30.31135368 26.75437737 6.046731472
26.82352638 23.5912075 6.738261223
20.12325478 17.29394722 0.4593771994
28.70713997 25.06641579 1.670733571
26.03694153 22.66900063 2.816890478
25.74962234 22.41871643 4.014591217
28.10051727 24.55879974 5.649885178
27.16401482 23.72973251 6.796863079
27.52253151 24.06620598 8.217657089
20.04081726 17.09268379 0.4632443786
28.97447777 25.12513733 1.67832458
26.21678925 22.66621017 2.826460838
25.85268402 22.3488369 4.019294739
27.30087662 23.66202736 5.498790264
27.41925812 23.78824425 6.836427689
26.65864754 23.11446953 7.963977814
26.56772041 23.04407692 9.249174118
19.98409843 16.91616821 0.4666680396
26.16308975 22.45367813 2.817911148
26.06547356 22.37669373 4.037718773
28.1876545 24.2831955 5.638827801
26.51294899 22.80598259 6.620335102
26.78824615 23.06345177 7.978532791
19.94735718 16.75882912 0.4697492421
26.33832169 22.44577599 2.827171564
25.55914307 21.76515388 3.966667891
27.13669014 23.17510605 5.445593357
26.85017014 22.94027138 6.67834425
27.17877579 23.24366188 8.062963486
19.98184586 16.66535378 0.4716852307
33.18606567 28.28697205 1.805816531
26.44486237 22.37625885 2.83113122
25.83947754 21.85364342 3.993632555
27.19322586 23.05685997 5.443057537
26.72676659 22.6652565 6.635352135
19.97976494 16.54028893 0.4741937518
33.26197433 28.14870644 1.807548761
26.41744423 22.18933678 2.824789524
26.56593323 22.32979965 4.075744629
27.21492767 22.90846634 5.434666634
27.24619484 22.95565605 6.732956409
29.71397591 25.12938309 8.697724342
19.97102165 16.41020393 0.4767963886
33.18579865 27.8889637 1.804676414
26.55643463 22.1481514 2.831325054
26.4314518 22.05039024 4.051216602
27.57019043 23.05905151 5.48381424
27.39712143 22.92025566 6.749936581
29.91464043 25.13147736 8.730505943
19.91011238 16.24212837 0.4800704718
26.55382919 21.99229813 2.827209949
25.70182228 21.26822281 3.953934431
27.51081467 22.84846687 5.462337494
28.07868576 23.35072517 6.882905006
28.2196846 23.49350739 8.261200905
19.85287666 16.07853699 0.4832662046
26.92051506 22.15359497 2.851462603
26.82579041 22.08353806 4.084984303
27.45443535 22.63376045 5.440958023
28.04444885 23.16008759 6.860295773
28.27106667 23.36709595 8.254712105
19.86172104 15.96644402 0.4855558872
26.51927757 21.64238739 2.816506386
26.58998108 21.72153854 4.048357487
27.61743546 22.60744858 5.45685482
28.02802658 22.96916008 6.840167522
28.20667076 23.13395691 8.216889381
19.81944466 15.80590725 0.488730818
26.71502686 21.64897156 2.827519178
26.41671753 21.40825653 4.019239902
27.72403336 22.52424622 5.462664127
28.17376137 22.92498779 6.855956078
28.07995224 22.85837364 8.164006233
19.78256226 15.6570673 0.4916847646
27.32581139 22.00205803 2.870166063
26.4146862 21.2495594 4.011596203
28.39467621 22.92225456 5.563982487
28.1306076 22.72146416 6.831182003
30.06855202 24.36260986 8.665735245
19.7694931 15.52914238 0.4942680001
27.41299057 21.91305733 2.872866392
26.49756622 21.16250229 4.014387131
28.52129364 22.86005211 5.573597431
29.17917252 23.42975426 7.040580273
28.12298775 22.56194305 8.136875153
19.74035263 15.38877296 0.4970764816
27.63532639 21.93564606 2.885864258
28.57214737 22.72213745 4.259224892
28.60960197 22.76566124 5.576836586
29.32094765 23.37588692 7.055192471
28.09513664 22.37391281 8.110719681
19.74295425 15.27543545 0.4994060993
34.30784225 27.22455597 1.835528612
27.5216713 21.68085861 2.873396397
32.54318237 25.8154068 4.732953072
28.3849144 22.41409302 5.527871609
28.9977684 22.93907928 6.970691681
28.6508522 22.66720963 8.236530304
19.75432205 15.16984081 0.501601696
34.323452 27.0378437 1.835701466
29.81195641 23.38691521 3.042878389
31.90726852 25.10800552 4.647371292
29.30789757 23.00212479 5.670425415
29.02658844 22.79432678 6.961576462
19.73562622 15.04049873 0.5042233467
34.48728561 26.98179245 1.840442061
27.64860725 21.4645977 2.87548399
32.04071808 25.0317688 4.655103207
29.14293098 22.7077713 5.632126808
29.2233696 22.78636742 6.988245487
19.71975327 14.91991806 0.5066759586
34.60277557 26.88616371 1.843731642
28.40718269 21.92315865 2.929175615
30.98078728 24.00480652 4.519532681
28.66111374 22.16108513 5.54151535
29.1765728 22.58936501 6.964069366
19.74395752 14.83203316 0.5085512996
34.79944992 26.84508324 1.849513531
28.36072731 21.7318306 2.92214179
27.82936478 21.32021141 4.133143425
