# .PCD v0.7 - Point Cloud Data file format
VERSION 0.7
FIELDS x y z
SIZE 4 4 4
TYPE F F F
COUNT 1 1 1
WIDTH 1266
HEIGHT 1
VIEWPOINT 0 0 0 1 0 0 0
POINTS 1266
DATA ascii
23.48802185 -1.606704712 4.832666397
20.83424568 -1.360440016 5.33948946
20.79332352 -1.352508068 6.215261459
22.04968643 -1.557816744 4.635647297
20.77361298 -1.435119867 5.331021309
21.46720505 -1.50176239 6.359726429
21.89502144 -1.631616116 4.616306305
20.85938454 -1.528262496 5.34825182
20.9560833 -1.537651777 6.254648685
21.94117737 -1.725117683 4.624823093
20.54885483 -1.581170678 5.296414852
21.92674065 -1.722896218 6.462019444
20.68695641 -1.679834366 5.3229146
21.69790268 -1.78266263 6.41645956
20.80358315 -1.772903323 5.34563303
21.48597908 -1.847178459 6.374641418
20.49449348 -1.822776556 5.294152737
22.04602623 -1.997858405 6.495913982
20.90754318 -1.955014229 5.368980408
20.86535072 -1.9489851 6.249512672
20.74530029 -2.016664743 5.343148232
20.90429497 -2.034525871 6.26065731
21.01705551 -2.130952597 5.393344402
21.93946075 -2.243497372 6.482672691
22.0059433 -2.34095645 6.500107288
20.38742828 -2.218962431 6.160670757
20.34004211 -2.292164326 6.153771877
20.74365044 -2.431266546 6.242772102
21.85203171 -2.672595024 6.481573582
13.05927277 -2.909125328 2.27050209
13.0342226 -2.963862896 2.27066493
-5.049860954 -33.37093735 1.929895401
-6.196033001 -60.89518738 4.757246494
-5.001623631 -27.65901566 0.8035235405
-5.168324471 -33.34519577 1.936051011
-5.100925922 -27.64966965 0.8090976477
-5.287565231 -33.33701706 1.94263804
-5.198980808 -27.62001801 0.814866662
-5.40634203 -33.32042694 1.9490242
-5.299365044 -27.62994576 0.8202322721
-5.529192448 -33.27313614 1.954984784
-5.81661129 -39.31111908 3.5128057
-5.404768467 -27.71335411 0.8248922825
-5.63909483 -33.21418762 1.959963918
-5.50406456 -27.7006073 0.8304867744
-5.759829521 -33.23428726 1.967277288
-5.605334759 -27.71544266 0.8358175159
-5.879914761 -33.24198914 1.974292636
-5.704889297 -27.70598602 0.8413702846
-6.000939846 -33.26123047 1.981618524
-5.803613186 -27.68622017 0.8470082283
-6.116030693 -33.20030594 1.98687911
-5.904056072 -27.68802834 0.8524479866
-6.231508255 -33.14896011 1.992376208
-6.00542593 -27.69944763 0.8578050137
-6.346993923 -33.1012001 1.99795866
-6.109876156 -27.6881485 0.8636232615
-6.475775719 -33.14016342 2.006184816
-6.209310532 -27.67692947 0.8691619635
-6.592228413 -33.10551453 2.012120724
-6.30351305 -27.66386223 0.8744357228
-6.713003159 -33.11824036 2.019335508
-6.407501221 -27.69773674 0.8796133995
-6.824262142 -33.09331894 2.025197268
-6.508397102 -27.69940567 0.8850429058
-6.943140507 -33.08532333 2.03186965
-6.606965065 -27.67884827 0.8906339407
-7.05969429 -33.05504227 2.037934542
-6.710345268 -27.7016716 0.8959061503
-7.182655334 -33.0296669 2.04448247
-6.812529564 -27.71220207 0.9012699127
-7.291201591 -32.9833374 2.049753666
-6.91744709 -27.7442131 0.9064916372
-7.406311035 -32.94390869 2.055559635
-7.016028881 -27.72223854 0.9120774865
-7.526844978 -32.95174789 2.062705517
-7.117256641 -27.72175407 0.91751647
-7.641889572 -32.91350555 2.068547964
-8.3419981 -39.14941406 3.656876087
-7.22008419 -27.73280716 0.9228833318
-7.760983944 -32.90859222 2.075350285
-7.323019505 -27.74349022 0.9282547235
-7.877254486 -32.88145828 2.081517458
-7.426900864 -27.75974464 0.9335973263
-7.995247364 -32.86777878 2.088081598
-7.530930042 -27.77562523 0.9389466047
-8.11562252 -32.87152481 2.095166683
-7.63199234 -27.76935005 0.9444220662
-8.23191452 -32.84513855 2.101372957
-7.732461929 -27.75876427 0.9499162436
-8.346385956 -32.80648041 2.107216597
-7.832308769 -27.74386787 0.955427587
-8.463562965 -32.78720856 2.113642216
-7.93854332 -27.77012825 0.9607337117
-8.577068329 -32.74380875 2.119342089
-8.038129807 -27.75253487 0.9662541747
-8.694301605 -32.72571182 2.125810385
-8.143070221 -27.76815796 0.9716182947
-8.804306984 -32.66179276 2.130879641
-8.242947578 -27.75182533 0.9771252871
-8.921253204 -32.64290237 2.137328625
-8.351786613 -27.7883873 0.9824101925
-9.035540581 -32.60782242 2.143281698
-10.80878925 -43.77253342 4.072991848
-8.461605072 -27.82848167 0.9876946211
-9.149300575 -32.57038116 2.149160624
-8.567403793 -27.81409264 0.9934704304
-9.27515316 -32.56896591 2.156529903
-8.665667534 -27.78643608 0.9990147352
-9.386588097 -32.51889801 2.162016392
-11.15880489 -42.9769249 4.051142693
-11.18272018 -43.52145386 5.670312405
-8.760972023 -27.77116394 1.004235864
-9.50286293 -32.53050995 2.169115067
-11.17364502 -42.21793747 4.009688377
-11.19881535 -42.796772 5.605848789
-8.867860794 -27.7900238 1.009617448
-9.618641853 -32.50524521 2.175402403
-11.20057583 -41.5110054 3.971957445
-11.21910286 -42.0344162 5.538319111
-8.974943161 -27.80848312 1.015008211
-9.731735229 -32.46582413 2.18123579
-11.32002926 -41.33029938 3.969691753
-11.24456215 -41.32925034 5.476380348
-9.074193954 -27.78531837 1.020521522
-9.850625038 -32.45743942 2.188082218
-11.22992229 -40.04529572 3.892079592
-11.26083374 -40.6009903 5.411737442
-11.2022438 -40.64649963 6.910085678
-9.176067352 -27.77554321 1.025992632
-9.96571064 -32.42900467 2.194282532
-10.92998409 -37.71704102 3.742507458
-11.28477192 -39.93961716 5.353738308
-11.23152924 -40.00696564 6.832388401
-9.281908035 -27.78500557 1.031416178
-10.08338833 -32.41389847 2.200928211
-11.06534386 -37.69431305 3.75017786
-11.30609703 -39.2883873 5.296508312
-11.27221394 -39.44948578 6.765923977
-9.388271332 -27.79603958 1.036840439
-10.19790173 -32.38269806 2.207050085
-11.29516029 -38.14466095 3.790472984
-11.32029247 -38.62385941 5.237602711
-11.29993057 -38.84558105 6.692681789
-9.492341042 -27.79493141 1.042295694
-10.3203001 -32.3902626 2.214473724
-11.4165144 -38.044384 3.792948484
-11.34842587 -38.05142212 5.188066483
-11.31346226 -38.19151306 6.612091541
-9.591474533 -27.76997375 1.047794938
-10.43261814 -32.34846497 2.220253944
-11.55588341 -38.03361511 3.801626682
-11.48298073 -38.01719284 5.194911003
-11.40705776 -37.95331192 6.589953423
-9.694745064 -27.76421928 1.053256035
-10.54970741 -32.32975006 2.226816654
-11.69813442 -38.03602219 3.811255217
-11.62948227 -38.00635147 5.204789162
-11.54731369 -37.9477272 6.600688457
-9.815917969 -27.81559181 1.058906913
-10.67128754 -32.3034935 2.233493567
-11.85023403 -38.05007553 3.822215557
-11.77211189 -38.01006317 5.215734482
-11.70096493 -37.9711647 6.616199493
-9.915528297 -27.79146004 1.064401388
-10.7861166 -32.27417755 2.239710808
-11.99446392 -38.05920029 3.832401991
-11.91150665 -37.99769974 5.225035667
-11.84144878 -37.96452332 6.626943111
-10.01314068 -27.7817688 1.069599986
-10.90476513 -32.26201248 2.24652791
-12.13077354 -38.06347275 3.84181118
-12.0569191 -38.01202774 5.237228394
-11.98073864 -37.95155334 6.636861324
-10.11620426 -27.77254486 1.075069785
-11.02027798 -32.26244736 2.253432512
-12.27270412 -38.05987549 3.851186752
-12.20338249 -38.02969742 5.249842644
-12.11968708 -37.968647 6.650548458
-10.2188406 -27.76099968 1.080541134
-11.13402557 -32.22802353 2.259498119
-11.62467766 -34.60343552 3.615919113
-12.34240723 -38.04451752 5.26168108
-12.26433754 -37.97786713 6.663788319
-10.32887363 -27.78021622 1.08599484
-11.24946022 -32.20098495 2.265828609
-11.71088791 -34.41311646 3.611232996
-11.6494751 -34.4210434 4.884317875
-11.67485809 -34.78155899 6.217381477
-10.43113232 -27.7659626 1.091468692
-11.36248875 -32.16381836 2.271807671
-11.74588013 -34.01097488 3.591373444
-12.02726364 -35.47814941 5.007776737
-11.71884727 -34.40654373 6.174568176
-10.53624821 -27.76299858 1.096939564
-11.47252274 -32.11461639 2.277359486
-11.84567356 -33.89035416 3.591511965
-11.75092125 -33.75430679 4.832368851
-12.69335175 -37.97722244 6.699940205
-10.64674854 -27.78099442 1.10241425
-11.58659744 -32.08252335 2.283523083
-11.96078014 -33.83536911 3.596344233
-11.83850479 -33.58734512 4.824163437
-12.84044552 -37.99200439 6.714316368
-10.74322414 -27.74233818 1.107882619
-11.67207718 -31.93558693 2.28554678
-12.05068588 -33.67929077 3.59389472
-12.01122379 -33.74513626 4.851574898
-12.9853878 -37.9966011 6.727309227
-10.85993767 -27.76212883 1.113641739
-11.70108509 -31.54478645 2.279026747
-12.10625935 -33.36474991 3.580373526
-12.07565403 -33.48873138 4.833671093
-12.13474178 -33.95236206 6.153893948
-10.96228695 -27.74598312 1.11911273
-11.93679333 -31.99399185 2.302701235
-12.21331882 -33.28573608 3.583398104
-12.35460091 -34.08649063 4.908661366
-12.17748165 -33.60801697 6.115045547
-11.06617546 -27.73526573 1.124587417
-12.04637623 -31.94480515 2.308262587
-12.30648232 -33.15424347 3.58259654
-12.34247875 -33.53261566 4.858352184
-12.28357601 -33.52093887 6.113524437
-11.17525387 -27.74348831 1.130081654
-12.17558098 -31.97063446 2.316597223
-12.42818069 -33.13443756 3.589936256
-12.50157166 -33.65098572 4.881346703
-12.54055977 -34.01825714 6.197329998
-11.28001404 -27.75458145 1.135311842
-12.2921381 -31.97046471 2.323627472
-12.53827953 -33.09458923 3.595391035
-12.62816525 -33.66644287 4.892668247
-12.50537586 -33.41257477 6.119592667
-12.66440773 -34.23847198 7.537094593
-11.3845911 -27.74464607 1.140793324
-12.40353203 -31.92780876 2.329457283
-12.65570927 -33.05854416 3.601585627
-12.67970181 -33.37624741 4.870934963
-12.67030525 -33.55031204 6.151102543
-12.80754948 -34.2831192 7.558119774
-11.49244595 -27.74587822 1.146294951
-12.50306416 -31.84238243 2.333676815
-12.78457165 -33.06442642 3.61090064
-12.76006126 -33.19936752 4.861586094
-12.82600403 -33.64906693 6.177052021
-12.97358513 -34.41086578 7.594558239
-11.60474586 -27.76210785 1.151827693
-12.62840176 -31.85099792 2.341443777
-12.90131855 -33.02560806 3.616940498
-12.84194279 -33.03194046 4.853234768
-12.90826416 -33.47594452 6.163098335
-13.12047291 -34.46377182 7.617394447
-11.70349598 -27.72982788 1.157274842
-12.74467373 -31.82643509 2.347971201
-13.06593513 -33.15731049 3.635697365
-13.03235912 -33.25703812 4.888376236
-13.03391838 -33.46294403 6.17274332
-13.27306843 -34.53506088 7.643759727
-11.80825329 -27.7183342 1.1627599
-12.90985394 -31.97246933 2.361054897
-13.19115734 -33.14629745 3.643899441
-13.13841915 -33.17694473 4.889771461
-13.22229767 -33.67250443 6.21538496
-11.91414642 -27.71030045 1.168252945
-13.03162861 -31.96417809 2.368272543
-13.35734463 -33.27665329 3.662738323
-13.23527145 -33.06594086 4.887729645
-13.4773941 -34.10964203 6.29199791
-12.01838398 -27.69612122 1.173732638
-13.15851402 -31.97270012 2.376160383
-13.46187878 -33.19181061 3.665492535
-13.36694717 -33.07690048 4.899316311
-13.46210766 -33.59809494 6.227972031
-12.13241768 -27.71411705 1.179299712
-13.28673363 -31.98456001 2.384206533
-13.56254578 -33.0951767 3.667352438
-13.55383587 -33.27429962 4.931874752
-13.61901855 -33.68758392 6.253217697
-12.25255108 -27.75078773 1.184935927
-13.40473938 -31.96148872 2.390907049
-13.68960285 -33.08805466 3.675987959
-13.57182884 -32.89910507 4.900231361
-13.77446365 -33.7687912 6.277369976
-12.36358833 -27.75639153 1.190493464
-13.53965569 -31.99341965 2.399795771
-13.81729889 -33.08237839 3.684769869
-13.74305725 -33.04009247 4.926616669
-14.04384804 -34.22666931 6.358041763
-12.48192978 -27.78447533 1.196133614
-13.6784544 -32.0362587 2.409156561
-13.96385098 -33.1372261 3.698212624
-13.88110638 -33.06809616 4.940376282
-14.12886715 -34.06556702 6.346244812
-12.59092045 -27.78157425 1.201681137
-13.83257961 -32.1262207 2.420444489
-14.12395477 -33.23336029 3.714891195
-13.97655201 -32.95688248 4.938429832
-14.31306267 -34.22973251 6.38333559
-12.71220303 -27.81635094 1.2073735
-14.01401997 -32.29932785 2.435143471
-14.26624203 -33.26981735 3.727075338
-14.15398979 -33.10915375 4.966431141
-12.82519436 -27.8239994 1.21297884
-14.15102577 -32.32883835 2.444138765
-14.4513731 -33.43870926 3.749544382
-14.23884487 -32.96492767 4.960786819
-12.94398117 -27.84830093 1.218662739
-14.28528214 -32.34828568 2.452763557
-14.59490967 -33.47385025 3.76179266
-14.92377567 -34.69283676 5.169146061
-11.48742008 -23.0154686 0.3237541616
-13.06303692 -27.87212753 1.22435987
-14.41607857 -32.35579681 2.460935354
-14.73264694 -33.48943329 3.772587061
-15.08588505 -34.76925659 5.189339638
-11.5470295 -22.91756439 0.3305507302
-13.18366241 -27.89925766 1.230088353
-14.57602215 -32.45005035 2.472705841
-14.9926796 -33.87376022 3.812195778
-16.32514 -38.1200943 5.586106777
-11.61253071 -22.83844757 0.3367062807
-13.31037521 -27.94294167 1.235911489
-14.70303535 -32.4431839 2.480361462
-16.56351089 -38.16844559 4.158155441
-16.48434258 -38.14408493 5.601553917
-11.68933296 -22.79317093 0.3417474031
-13.3997879 -27.87639427 1.241218209
-14.42303658 -31.23810196 2.438148737
-16.70795441 -38.14664078 4.167490005
-16.62673569 -38.1165657 5.611133575
-11.77382183 -22.77029419 0.3460534811
-11.82415581 -23.02495956 1.222088933
-14.54215336 -31.22036362 2.445108414
-16.86786461 -38.16960526 4.180391788
-16.77936363 -38.11862946 5.624201298
-11.86558819 -22.76784515 0.3496982753
-13.6226902 -27.87078476 1.252449155
-11.8110733 -23.00439644 2.106795549
-11.76976681 -22.99693298 2.990945101
-16.93540573 -38.12950134 5.63836956
-11.96279907 -22.78011322 0.3528697193
-13.71553612 -27.81457138 1.257781148
-15.3153019 -32.70498657 2.523467302
-17.17489243 -38.17403412 4.203105927
-11.80898666 -22.96618843 3.883109093
-11.7735014 -22.97683144 4.778784275
-12.07244682 -22.82582664 0.354988575
-13.87308407 -27.93872643 1.264124393
-15.44844532 -32.70851517 2.53175354
-17.33298302 -38.18758011 4.215447426
-17.24090767 -38.12877274 5.664324284
-11.84362316 -22.9097805 4.777535439
-11.80645847 -22.91659737 5.680076599
-11.7558651 -22.89994812 6.5876894
-12.20789242 -22.94053841 0.3549576402
-14.03231812 -28.0640049 1.270531416
-15.65339375 -32.91086197 2.548586369
-17.47993088 -38.16856384 4.22524786
-17.39623833 -38.13406754 5.678080082
-11.83625889 -22.86258316 6.590492249
-11.77776527 -22.81183243 7.500813007
-11.73430347 -22.8061924 8.436631203
-12.75088501 -24.14260483 0.3213217556
-14.13045025 -28.01958084 1.275963187
-15.79029751 -32.92060089 2.557248354
-17.63843536 -38.18088913 4.237607479
-17.56196785 -38.14560699 5.693315983
-11.82778835 -22.80670738 8.450665474
-12.84228706 -24.12160301 0.3257071078
-14.24996567 -28.03294373 1.281746864
-15.85746574 -32.72130585 2.557296515
-17.79582405 -38.18882751 4.249676228
-17.71162415 -38.13282394 5.705108166
-12.94200706 -24.1355648 0.3288162053
-14.37043381 -28.04768753 1.287554622
-16.0410862 -32.87475586 2.571825266
-17.9534626 -38.19613647 4.26175642
-17.86344147 -38.12506104 5.717565536
-13.03418446 -24.11573219 0.3331447542
-14.49821758 -28.08064651 1.293497443
-16.17418289 -32.87172318 2.580011368
-18.11270523 -38.20656204 4.274149418
-18.01618004 -38.13978195 5.732089996
-13.12416935 -24.08996391 0.3376407027
-14.60274506 -28.05143356 1.299035311
-16.35701752 -32.99895477 2.593966961
-18.25953293 -38.18275452 4.283818245
-18.18297958 -38.1699295 5.749208927
-13.23583889 -24.11976624 0.3404347599
-14.71948814 -28.05355072 1.304791927
-16.50872803 -33.04134369 2.604256392
-18.42342377 -38.20312119 4.297141075
-18.33465958 -38.15848541 5.761468887
-13.33979893 -24.12862206 0.3438639641
-14.83272076 -28.04589462 1.310486436
-16.89254189 -33.68124008 2.641227245
-18.58478355 -38.21537018 4.309869289
-18.48786736 -38.15017319 5.774176598
-13.41514492 -24.06459618 0.3494791985
-14.95634747 -28.06382751 1.31637907
-17.02319145 -33.66010666 2.648921251
-18.74062347 -38.21209717 4.321385384
-18.64980316 -38.16350555 5.789557457
-13.51399899 -24.05971909 0.3532996476
-15.14922428 -28.25397873 1.323607326
-16.92834282 -33.06797791 2.630903244
-18.90462303 -38.2286377 4.334593296
-18.80768585 -38.16506577 5.803614616
-13.62495041 -24.08409882 0.3562406898
-15.30167294 -28.33926582 1.330097437
-17.05257225 -33.03552628 2.637981892
-19.06159019 -38.22595596 4.346279621
-18.96792603 -38.17155457 5.818348408
-13.72329617 -24.07656479 0.3601264656
-15.39370251 -28.27383423 1.335415125
-17.5804615 -34.00328827 2.690661192
-19.21573639 -38.21525955 4.357355595
-19.12843704 -38.17738724 5.83309412
-13.82784462 -24.08341789 0.3635801971
-15.5189085 -28.28948784 1.341386318
-17.77443886 -34.13133621 2.705382109
-19.37901688 -38.22612762 4.370290279
-19.2854557 -38.17334747 5.846730709
-13.93409443 -24.0935421 0.3669327497
-15.63593674 -28.28430557 1.347198248
-17.91166687 -34.1180191 2.713685989
-19.54332352 -38.23817444 4.38339138
-19.44787979 -38.18157959 5.861942291
-14.01647472 -24.04611015 0.371961832
-15.76467514 -28.30632401 1.353253365
-18.1348877 -34.31081772 2.731568813
-19.70329666 -38.23851013 4.395573139
-19.61208916 -38.19281387 5.877615929
-14.11352921 -24.03336143 0.3759633601
-16.00926781 -28.60030365 1.361740947
-18.33486557 -34.44352722 2.746783972
-19.86657715 -38.2455368 4.40838623
-19.77426147 -38.19787598 5.892625809
-14.20745182 -24.01289368 0.3801770508
-16.13169479 -28.60243416 1.367710114
-18.53752327 -34.57893753 2.762229919
-20.02544022 -38.2408905 4.420275211
-19.93283653 -38.19310379 5.906520844
-14.30374813 -23.99757576 0.3842304647
-16.28443527 -28.67383575 1.374333024
-18.74993324 -34.7335701 2.778685093
-20.18917847 -38.24659729 4.433108807
-20.09311676 -38.19137573 5.920873165
-14.40808964 -24.00020027 0.3877595365
-16.43383598 -28.73534966 1.380903006
-18.94220924 -34.8376236 2.792860746
-20.35079575 -38.24615097 4.445483685
-20.25671577 -38.19630051 5.936136723
-14.50207901 -23.97862434 0.3919724524
-16.61606216 -28.86939621 1.388210654
-19.15857887 -34.99386215 2.809613943
-20.5173645 -38.25601959 4.458806515
-20.41662788 -38.19142914 5.950280666
-14.60093975 -23.96764755 0.3958727121
-16.72949791 -28.84536743 1.394022822
-19.31661797 -35.01371765 2.819952488
-20.6778183 -38.25059128 4.47088623
-20.59499168 -38.22779846 5.969642162
-14.70395374 -23.96540451 0.3995169699
-16.85685349 -28.85193253 1.400145769
-19.27451134 -34.58192444 2.808591843
-20.83840561 -38.24452972 4.482970238
-20.75298882 -38.21611786 5.983127117
-14.79219723 -23.92997742 0.4040849209
-17.06775475 -29.04196167 1.408170104
-19.85131454 -35.5362854 2.864155293
-19.56853485 -35.03805542 4.217496395
-19.78199959 -35.66791916 5.679069996
-14.88447762 -23.90333366 0.4083908498
-17.29763794 -29.26905823 1.416675091
-20.30384445 -36.19765854 2.905995846
-19.59368515 -34.75951767 4.204943657
-19.6185894 -34.96305847 5.604669094
-15.00891399 -23.92313957 0.4117508531
-17.4624424 -29.33631897 1.423884273
-19.67612076 -34.45018005 2.831263065
-19.73485947 -34.72333908 4.214035511
-19.82340431 -35.04838562 5.630775928
-15.09271717 -23.88864708 0.4160748422
-17.63088989 -29.43670464 1.430876255
-19.70433044 -34.20382309 2.828100204
-19.94770622 -34.87530899 4.238504887
-20.18319321 -35.5189743 5.703635693
-15.18410873 -23.87014389 0.4199458063
-17.78418922 -29.48855782 1.437693119
-20.25147438 -35.07520676 2.880157232
-19.86339188 -34.36685562 4.205564976
-20.28124809 -35.41397858 5.703955173
-20.49621582 -36.01288223 7.219565868
-15.28840733 -23.86731148 0.4235546291
-17.99457169 -29.65897369 1.445886016
-19.75225639 -33.68716431 2.820780516
-20.04626274 -34.43719864 4.223510742
-20.48000526 -35.50923157 5.730463982
-20.62150955 -35.94506454 7.225299835
-15.3867588 -23.85144424 0.4275107682
-18.07508469 -29.55408669 1.450989962
-20.35036659 -34.63733673 2.877655745
-20.13530731 -34.30660629 4.223741055
-20.59839439 -35.43095779 5.734998703
-20.37878418 -35.09256744 7.100278854
-15.47381783 -23.81179047 0.4320997298
-18.36897659 -29.89204216 1.461259961
-20.43533516 -34.49694824 2.880237818
-20.2879734 -34.3107872 4.235949993
-20.77269554 -35.47074509 5.75467205
-20.47290421 -34.96622467 7.095970631
-15.55985546 -23.77004242 0.4367277026
-18.56905937 -30.03052711 1.469303489
-20.47783661 -34.27003479 2.87840867
-20.50398064 -34.4454689 4.259894848
-21.04794121 -35.71937943 5.801281929
-20.81518936 -35.3607254 7.178981304
-15.68101406 -23.78863335 0.439899534
-18.70413017 -30.03338814 1.475771666
-20.67033005 -34.35399246 2.892302513
-20.66018105 -34.45353317 4.272631645
-21.09281921 -35.46973038 5.784758568
-21.06170654 -35.54837799 7.227705479
-15.78834057 -23.78912735 0.4433769584
-18.90335083 -30.1646843 1.483841777
-20.75517654 -34.20091629 2.894649744
-20.56415558 -33.94530106 4.23893404
-21.10188103 -35.16627502 5.760425091
-21.17950249 -35.45059967 7.229476929
-15.89960957 -23.80739212 0.446205169
-19.06342506 -30.214468 1.490958571
-20.91924667 -34.23991394 2.905859709
-20.72969818 -33.97436523 4.253538132
-21.09679031 -34.83823395 5.732753277
-21.24934959 -35.28775787 7.218535423
-15.97841835 -23.74988174 0.4512022138
-19.24382782 -30.30281448 1.498602271
-21.00411606 -34.10358429 2.90855813
-20.86894417 -33.94918442 4.263302326
-21.22746277 -34.80382919 5.742348194
-21.36315155 -35.19969559 7.221100807
-16.08425331 -23.74554253 0.4547856748
-19.41689873 -30.37421417 1.506080508
-21.16019821 -34.10980606 2.918625355
-21.01004791 -33.92699814 4.273392677
-21.34471512 -34.72672653 5.747173786
-21.45804214 -35.07410049 7.217328072
-16.1835022 -23.71723366 0.4591590464
-19.63814735 -30.5372982 1.514814258
-21.30207443 -34.08686066 2.927218199
-21.18725967 -33.97537231 4.289987564
-21.37747383 -34.4825592 5.730172157
-21.40642548 -34.65868759 7.164126873
-16.3048439 -23.7311058 0.4624263942
-19.82298851 -30.61290932 1.522792339
-21.53951073 -34.23438263 2.945285797
-21.32753754 -33.93459702 4.299115181
-21.41397095 -34.23366928 5.713184834
-21.52130318 -34.56171417 7.1659832
-16.40360641 -23.71124077 0.466388613
-19.99290848 -30.6709671 1.530248523
-21.694664 -34.21917725 2.954896927
-21.52750397 -34.02396393 4.319667816
-21.35437775 -33.80130386 5.671908855
-21.70697021 -34.60336685 7.191657543
-16.50836563 -23.71269608 0.4696217775
-20.14954376 -30.71518898 1.537219763
-21.93572044 -34.39746475 2.973819494
-21.78847504 -34.24285507 4.351716995
-21.43538666 -33.67591476 5.669445992
-21.79817963 -34.49082947 7.189198017
-16.61380196 -23.70438957 0.4732712209
-20.32435417 -30.77876282 1.54483223
-22.24889374 -34.70888138 2.999982595
-21.7691555 -33.90824127 4.333197117
-21.76613617 -34.02914429 5.730416298
-22.30370903 -35.17400742 7.324030876
-16.74541473 -23.73384666 0.4761286676
-20.48835182 -30.80678749 1.552321434
-24.36224556 -38.37285233 3.207275867
-21.89833641 -33.84401321 4.340348721
-21.8382988 -33.85570908 5.72324276
-16.84356308 -23.71051025 0.4801470637
-20.62918663 -30.80359268 1.559051037
-24.54830933 -38.37504959 3.219244957
-22.00902557 -33.75971222 4.345021725
-22.55996895 -34.90428543 5.879130363
-22.50346947 -34.9123764 7.317241669
-16.93839645 -23.69087029 0.4838908911
-20.87561417 -31.00655556 1.568483353
-24.71625328 -38.37505722 3.230018377
-22.54603195 -34.48214722 4.424886227
-24.53613281 -38.30191422 6.349003792
-22.63972855 -34.88123322 7.329356194
-17.02358818 -23.65336418 0.4880700409
-21.06274986 -31.08419609 1.576493144
-24.88918304 -38.38315582 3.241278887
-22.53995323 -34.17667007 4.409009933
-22.87992477 -34.92925262 5.912459373
-17.12401581 -23.62306404 0.4923960567
-21.22546959 -31.11542511 1.583854556
-25.07693863 -38.40076828 3.253686428
-24.98181152 -38.34751129 4.816912174
-23.06520271 -34.95649338 5.932867527
-17.21232986 -23.58078194 0.4968343973
-21.39613914 -31.1462822 1.591588259
-25.26517296 -38.40148544 3.265805244
-25.17832375 -38.36384583 4.833716393
-23.2102356 -34.92368317 5.94449234
-17.340168 -23.59845924 0.4999560118
-21.58523941 -31.22127342 1.599696636
-25.44002151 -38.39300156 3.276893616
-25.35872459 -38.36568832 4.848511696
-23.36053467 -34.88505554 5.956212044
-17.43901062 -23.5838871 0.5035256147
-21.79777718 -31.33535385 1.608472943
-25.62195396 -38.3959465 3.288670063
-25.54814339 -38.38240814 4.864817142
-23.54879189 -34.94299698 5.979533672
-17.53619957 -23.55607986 0.5075765252
-21.99741745 -31.4240303 1.616912484
-25.80614471 -38.40156555 3.300653696
-25.73111153 -38.3861084 4.879973412
-25.6179657 -38.31958008 6.457129955
-17.65137482 -23.55905151 0.5108731985
-22.16394043 -31.45280266 1.624440908
-25.99159813 -38.40812683 3.312746763
-25.90250778 -38.36824799 4.893136024
-25.80561066 -38.33099747 6.476730824
-17.76371956 -23.55633736 0.5143027306
-22.42336082 -31.63985252 1.634601831
-26.18439674 -38.42596436 3.325541496
-26.09294891 -38.38247681 4.909487247
-25.9896946 -38.33466721 6.495402813
-17.88128471 -23.56175423 0.5175334215
-22.5892601 -31.66330528 1.642143011
-26.36251068 -38.41703796 3.336880445
-26.27376747 -38.37861252 4.924177647
-26.16313362 -38.3186264 6.511476994
-17.99313545 -23.54691505 0.5214086175
-22.72807121 -31.63952065 1.648918152
-26.55095863 -38.42456436 3.349214315
-26.46588135 -38.39289856 4.940728188
-26.35958481 -38.32525253 6.531723976
-18.08234024 -23.50323868 0.525785923
-22.87309837 -31.62545395 1.655871272
-18.17471886 -23.92582893 2.527873039
-26.65535736 -38.40114975 4.956790924
-26.5475235 -38.33161545 6.55114603
-18.21565628 -23.54229355 0.5280449986
-23.1057415 -31.75651741 1.665351748
-18.28037071 -23.91631126 2.53453517
-18.49762726 -24.35303116 3.588048458
-26.73681259 -38.33882523 6.570820808
-18.3422451 -23.55934334 0.5309895277
-23.30019188 -31.82133484 1.673751235
-18.22285843 -23.62459755 2.525208473
-18.57842445 -24.28814888 3.591552973
-26.91959953 -38.34933472 6.590147018
-18.4649334 -23.56899834 0.5341046453
-23.43078995 -31.7793293 1.680306077
-18.3092804 -23.57457924 2.529858351
-27.21649361 -38.40546417 5.003543854
-27.1033802 -38.34469604 6.608417511
-18.08692741 -23.42296982 5.519771099
-18.58579445 -23.57467651 0.5373108387
-23.68489265 -31.93785095 1.690470099
-18.47356033 -23.65213966 2.542010546
-18.74230766 -24.16273308 3.599022865
-18.77259445 -24.29331779 4.648386478
-18.15326691 -23.34068489 5.518735409
-18.70265579 -23.57301331 0.540682137
-23.8434639 -31.93857765 1.697856784
-18.4450531 -23.4140358 2.535611391
-18.78794861 -24.041008 3.596867323
-18.85622215 -24.23246193 4.65210104
-18.85256767 -23.62338066 0.5428666472
-23.99063683 -31.91994095 1.704910517
-18.62438774 -23.51434708 2.549188614
-18.8339653 -23.92097664 3.594844818
-18.92398262 -24.14598083 4.652204514
-18.97848701 -23.63409424 0.5459569097
-24.09742928 -31.8363781 1.710766673
-18.64488602 -23.35784721 2.547544956
-18.92672729 -23.87704849 3.60046792
-18.96621323 -24.01883507 4.646522522
-19.12182045 -23.67123222 0.5484525561
-24.36133385 -32.00070953 1.721292496
-18.6314888 -23.14909935 2.54270649
-19.09670067 -23.95598602 3.618569136
-19.8848362 -25.29390526 4.841064453
-18.91234779 -23.87732315 6.720021725
-19.19008827 -23.58980942 0.5535997152
-24.52324867 -32.00182724 1.728797436
-18.66495705 -23.01665688 2.542376995
-19.27698517 -24.04919815 3.638249159
-19.00938606 -23.70245934 4.626133442
-18.16674995 -22.43000031 5.421199322
-19.01329613 -23.84565163 6.729911327
-19.28936386 -23.54745293 0.5580207109
-24.67461395 -31.98539162 1.73598969
-18.75577545 -22.97515488 2.547517538
-18.77490616 -23.06933784 3.548457861
-18.86193275 -23.28055954 4.577900887
-18.25861359 -22.39458656 5.428620338
-19.3678093 -23.47285461 0.5631356835
-24.83401489 -31.96794701 1.743556142
-18.91660881 -23.03305626 2.55911541
-18.87547302 -23.03289795 3.555177212
-18.99747849 -23.29703712 4.59321785
-18.35339165 -22.35452843 5.435940266
-19.44496727 -23.4058094 0.5678957701
-24.99004936 -31.95685768 1.750891447
-19.09113884 -23.11019135 2.571978092
-18.96316338 -22.98537636 3.560292721
-19.04829025 -23.18107033 4.589458466
-19.48786163 -23.29625893 0.5733958483
-24.73459435 -31.33265686 1.745588422
-18.59547806 -22.17893982 2.522019863
-19.03130722 -22.91690445 3.562761307
-18.48718643 -22.14356422 4.450436592
-19.09258842 -23.13881874 5.611581802
-19.54240417 -23.20499611 0.5784695148
-25.31902504 -31.96975327 1.765953779
-18.61799049 -22.04683876 2.52101016
-19.1919384 -22.98038292 3.579437494
-18.52972412 -22.04171181 4.44697237
-19.14297295 -23.04157639 5.607395649
-19.58288193 -23.08426476 0.5843120217
-25.50017357 -31.99310493 1.774066091
-18.77080727 -22.10355568 2.532085657
-19.26081276 -22.90346336 3.58159709
-18.64026833 -22.03492355 4.458003044
-19.24811935 -23.01903152 5.618053436
-19.66970825 -23.0331459 0.5886303186
-22.05761528 -26.63772583 1.670738697
-18.90308189 -22.12795067 2.541214705
-8.419643402 -6.473984718 1.8719275
-18.65087318 -21.87724113 4.446936131
-19.33364105 -22.96641159 5.623095036
-19.73839378 -22.9552536 0.5935010314
-19.90014458 -23.25406837 1.606259346
-18.88281059 -21.92478371 2.536085844
-8.456441879 -6.473177433 1.875026703
-18.75674438 -21.86322021 4.456977367
-19.43654442 -22.93976593 5.633122444
-19.91154861 -23.02109718 0.5954751968
-9.025607109 -7.177332878 1.271193862
-19.00043106 -21.9269352 2.54384923
-8.502233505 -6.485399723 1.879521132
-19.32597351 -22.53475761 4.568557262
-19.35627556 -22.64070892 5.591259003
-19.78230667 -23.33706284 6.770709515
-20.09905624 -23.10571671 0.5970713496
-9.059670448 -7.163610458 1.272898078
-19.04779243 -21.81701851 2.544914007
-8.529236794 -6.46688652 1.880950928
-19.00844574 -21.88357544 4.485080242
-19.40464973 -22.52604294 5.585178852
-19.81374168 -23.19161797 6.755560398
-20.21461487 -23.09376717 0.6005365849
-9.087744713 -7.144149303 1.274383664
-20.02674866 -23.05846214 2.63237977
-8.558280945 -6.454084873 1.882833123
-19.06818008 -21.7916069 4.484363079
-19.53049278 -22.52545738 5.600989819
-19.84235954 -23.05243683 6.740906715
-20.34909058 -23.11695862 0.6031084657
-9.127212524 -7.140976906 1.276224017
-19.85189819 -22.63754463 2.613060236
-8.629281998 -6.501761913 1.891189694
-19.53888512 -22.30315399 4.57336235
-19.61475754 -22.48117447 5.606972694
-19.91025734 -22.97158241 6.739971161
-21.15634918 -24.08209038 0.5864821076
-8.21497345 -5.787670135 1.24815917
-19.76664925 -22.3412323 2.601956129
-8.684710503 -6.52616024 1.897111893
-19.29811478 -21.79314232 4.508902073
-9.431624413 -7.642072678 2.752190351
-20.02249146 -22.95510864 6.754314423
-21.30216408 -24.09397125 0.5897444487
-8.246359825 -5.782581806 1.249645114
-19.82686043 -22.25472069 2.604325771
-8.715155602 -6.514410019 1.899181485
-19.87133789 -22.43317223 4.618652821
-9.467042923 -7.629119873 2.7553339
-20.28086281 -23.14740753 6.818427086
-21.4765873 -24.15373611 0.5918687582
-8.266133308 -5.761089802 1.250763774
-19.60724258 -21.76635551 2.580826283
-8.706421852 -6.447266579 1.895267606
-19.832304 -22.20510292 4.597187519
-20.46174049 -23.22576523 6.855801105
-8.308038712 -5.772823811 1.252557874
-8.237392426 -5.719915867 1.534675717
-8.729575157 -6.428217888 1.896375537
-19.96055412 -22.22302055 4.612277985
-9.544695854 -7.612437725 2.763504744
-21.79235268 -24.23166084 0.5968223214
-8.394699097 -5.843381882 1.255803227
-8.702759743 -6.337004662 1.889778972
-20.02666855 -22.15322304 4.614104748
-19.91374588 -22.05237007 5.600140095
-21.98826599 -24.30656052 0.5988467932
-8.329201698 -5.749585152 1.541288376
-8.735070229 -6.325818539 1.892059922
-20.107481 -22.08704948 4.617815018
-9.602775574 -7.567847252 2.766316175
-22.10571098 -24.28227234 0.6026802659
-8.421380997 -5.776732922 1.257677794
-8.406587601 -5.804298878 1.547410607
-8.781457901 -6.333804607 1.896465063
-20.18921089 -22.02218628 4.621756554
-9.646512985 -7.562696934 2.771421432
-22.37124634 -24.45640564 0.602611959
-8.449394226 -5.765930653 1.259056449
-8.640872955 -6.073201656 1.567838073
-8.790125847 -6.292729378 1.89530921
-8.74223423 -6.247351646 2.202265501
-9.673662186 -7.537707329 2.772343874
-23.45150185 -25.71382523 0.5814820528
-8.497779846 -5.784711838 1.261067033
-8.756835938 -6.178604603 1.577444792
-9.353374481 -7.003416538 1.977428198
-25.29609871 -27.97481537 0.5410718322
-8.773073196 -6.151477337 1.578027844
-9.000511169 -6.490410328 2.248428106
-8.595014572 -5.816560268 1.265160084
-8.800024986 -6.136155128 1.579538107
-9.945687294 -7.67710638 2.060385704
-8.830955505 -6.213088989 2.209344149
-21.06484604 -22.59263229 5.805076599
-9.117452621 -6.435000896 0.9599618316
-8.81486702 -6.104818344 1.579955697
-9.99719429 -7.682993412 2.065172672
-8.909540176 -6.265524387 2.221807003
-9.627748489 -7.236112118 2.73531723
-9.161302567 -6.439154625 0.9608545303
-8.599027634 -5.725356102 1.266225576
-8.807727814 -6.044903755 1.578397274
-8.421882629 -5.554932594 1.828994513
-9.096669197 -6.459662914 2.256634951
-9.632221222 -7.182921886 2.730461836
-9.356246948 -6.634734154 0.958193481
-8.564509392 -5.633235931 1.265555978
-8.668670654 -5.814225674 1.564983964
-8.433441162 -5.523377419 1.828564048
-9.643590927 -7.139219761 2.72749567
-9.405892372 -6.64422226 0.9590126872
-8.589710236 -5.618666172 1.266831756
-8.646702766 -5.735211849 1.562098265
-8.497247696 -5.559571266 1.835841894
-9.098215103 -6.353046417 2.248942137
-9.165142059 -6.476900578 2.932461739
-9.47663784 -6.682765961 0.9592444301
-8.562959671 -5.537982941 1.266398907
-8.972251892 -6.106791496 1.590462565
-8.497704506 -5.513689041 1.833788157
-9.202848434 -6.472276211 2.937680721
-9.475670815 -6.62746048 0.9612652063
-8.669792175 -5.626852989 1.270357609
-8.857132912 -5.910222054 1.579262614
-8.57783699 -5.569734573 1.843423367
-9.834322929 -7.210535526 2.759924173
-9.232154846 -6.456641197 2.940191269
-9.473145485 -6.570689201 0.9632977247
-8.724934578 -5.649402142 1.272621274
-8.828759193 -5.825677395 1.575856328
-8.607777596 -5.561226845 1.845688105
-9.415800095 -6.602981091 2.302285194
-9.277161598 -6.460959435 2.947735548
-9.484092712 -6.531163692 0.9650011659
-8.748985291 -5.632675648 1.273858786
-8.98918438 -5.978666306 1.58929801
-8.651370049 -5.569730282 1.849939466
-8.972992897 -5.991599083 2.208663702
-22.03220367 -22.48881721 5.922113419
-9.316193581 -6.457349777 2.953346252
-26.99941444 -28.07482719 0.5774468184
-8.761655807 -5.601877689 1.274716854
-8.562775612 -5.399065018 1.550481677
-9.093835831 -6.075242519 1.91208601
-9.500321388 -6.445952892 0.9684856534
-8.783024788 -5.581914425 1.275861025
-8.583443642 -5.379745007 1.551519513
-8.969192505 -5.8711586 1.891797781
-8.982334137 -5.904952526 2.203410149
-8.937992096 -5.898694038 3.140924454
-8.927377701 -5.711801529 1.281107068
-8.630542755 -5.392854214 1.554902792
-8.952547073 -5.802462101 1.887226105
-8.996032715 -5.873261929 2.20264554
-9.574778557 -6.60323143 2.664285421
-8.986112595 -5.909629822 3.151300669
-9.576890945 -6.434803009 0.9706165195
-8.956762314 -5.70051384 1.28252542
-8.632177353 -5.350153923 1.554255843
-8.929180145 -5.726259232 1.881723642
-10.03038216 -7.090621471 2.406024933
-9.657059669 -6.650557995 2.680062294
-9.014751434 -5.896116257 3.154371738
-9.639569283 -6.45553112 0.9712668061
-8.973340988 -5.673736572 1.283513427
-8.993711472 -5.743001461 1.585417271
-9.337626457 -6.174144745 1.938270211
-9.896900177 -6.868813992 2.375123024
-9.638255119 -6.573822975 2.669902563
-8.911088943 -5.537057877 0.9881879091
-9.051333427 -5.71796751 1.286584139
-9.131750107 -5.859291077 1.596721411
-9.382585526 -6.175537586 1.942358255
-9.923956871 -6.846222401 2.376538754
-9.621538162 -6.497759342 2.660106659
-8.924443245 -5.507497787 0.989543438
-8.882104874 -5.470952988 1.28131175
-9.102657318 -5.776809216 1.593318582
-9.242277145 -5.957843781 1.920090318
-9.975097656 -6.852473259 2.382736921
-10.16926861 -7.102376461 2.794036627
-9.389997482 -6.182988644 2.929994822
-8.955823898 -5.499227047 0.9905266762
-8.912051201 -5.461259842 1.282733083
-9.209664345 -5.870637417 1.913291693
-9.938239098 -6.753693104 2.371536493
-9.50293541 -6.251695633 2.619743109
-9.408373833 -6.1545434 2.929334641
-8.989625931 -5.491378784 0.9915421009
-8.932891846 -5.440804005 1.283845663
-9.031305313 -5.599027634 1.585409522
-8.69304657 -5.214498997 1.83777833
-9.539073944 -6.225809097 2.288906336
-9.521475792 -6.222895622 2.619436979
-9.044575691 -5.510040283 0.992066741
-8.952141762 -5.416302681 1.284922481
-9.147340775 -5.686264992 1.59473443
-8.771075249 -5.260369778 1.846834183
-9.578058243 -6.221085072 2.292983294
-9.51808548 -6.165940285 2.61339426
-9.266872406 -5.885727406 2.872992754
-9.112854004 -5.543478012 0.9923490286
-9.026597977 -5.457586765 1.28785336
-9.28119278 -5.794905663 1.60563302
-8.795126915 -5.244833469 1.848321438
-9.701142311 -6.313967705 2.31351161
-9.326226234 -5.906965256 2.885169029
-9.178797722 -5.573506832 0.9926964045
-9.076378822 -5.469848156 1.289949536
-9.034583092 -5.464238644 1.583279967
-8.812600136 -5.22168684 1.848885417
-9.714579582 -6.278574467 2.3125422
-9.411097527 -5.942499638 2.576947689
-9.291353226 -5.655617237 0.9921946526
-8.979543686 -5.315349579 1.287043214
-9.027791977 -5.411775112 1.581912041
-9.449871063 -5.907753944 1.93660593
-9.81910038 -6.347856045 2.329316616
-9.76270771 -6.298310757 2.659828186
-9.326129913 -5.648859978 0.9931641221
-8.953383446 -5.242351532 1.286535621
-9.06957531 -5.41483736 1.584781766
-9.044632912 -5.399478912 1.87767899
-9.058988571 -5.431111813 2.178294897
-9.769566536 -6.255353928 2.65661335
-9.190117836 -5.451282501 0.9972194433
-8.928116798 -5.171100616 1.28605032
-9.083602905 -5.386334896 1.585235596
-9.054678917 -5.36655283 1.877158403
-9.074466705 -5.404057026 2.178172588
-9.560732841 -5.968251705 2.600055695
-9.243027687 -5.465585232 0.9978217483
-8.961287498 -5.165480137 1.287563801
-9.112139702 -5.374185085 1.586952567
-9.433234215 -5.746632099 1.928083062
-9.110929489 -5.400677681 2.182114363
-9.546635628 -5.904010773 2.591920137
-9.28669548 -5.469232082 0.9985972643
-8.983738899 -5.147856236 1.288708329
-9.059146881 -5.271414757 1.58160615
-9.415099144 -5.679846764 1.923541188
-9.193796158 -5.448806286 2.194972515
-9.513735771 -5.819368839 2.579231977
-9.32370472 -5.465276241 0.9994934797
-9.235330582 -5.381158352 1.297751904
-8.878061295 -5.028607368 1.56520164
-9.523544312 -5.753510475 1.936612844
-9.13080883 -5.334495068 2.179804325
-9.549027443 -5.811275005 2.583365202
-9.259127617 -5.350828648 1.002118707
-9.335682869 -5.446459293 1.301599741
-8.893312454 -5.003839016 1.565809369
-9.656720161 -5.852982998 1.953060269
-9.15252018 -5.314620972 2.180932999
-9.596277237 -5.816168785 2.590417385
-9.469944954 -5.53452158 1.000084281
-9.091507912 -5.138493538 1.293531418
-8.927378654 -4.999610901 1.568042994
-9.439164162 -5.568752766 1.920959592
-9.255887985 -5.383899689 2.197643042
-9.605023384 -5.778567314 2.588062763
-9.318936348 -5.328109264 1.004104257
-9.109797478 -5.116006374 1.294528127
-8.966908455 -5.001074791 1.57074523
-9.022332191 -5.072670937 1.86154151
-9.654345512 -5.771830559 2.270394564
-9.596207619 -5.722112656 2.581475496
-9.361164093 -5.329657555 1.004895449
-9.456476212 -5.443279266 1.306931019
-9.090961456 -5.092843533 1.580711365
-9.024127007 -5.032838345 1.860007167
-9.445380211 -5.500150681 2.227563143
-9.615244865 -5.696197033 2.581697226
-10.00916862 -5.941280842 0.3356152773
-9.773468018 -5.721513271 0.9997791648
-9.51564312 -5.461663723 1.309367061
-9.118654251 -5.080504417 1.582380414
-9.066576004 -5.036641598 1.864070058
-9.447339058 -5.457446098 2.224874735
-9.865810394 -5.918323517 2.637871265
-9.41347599 -5.446645737 2.842987776
-10.01199245 -5.912353516 0.6685351133
-9.809401512 -5.725871563 1.319984913
-9.139472008 -5.060790539 1.583459973
-9.184301376 -5.119851112 1.878433704
-9.404192924 -5.367160797 2.213707924
-9.926048279 -5.934617519 2.64789319
-9.434244156 -5.424226761 2.843739748
-10.03038025 -5.868778706 0.3411338925
-10.0176754 -5.870989323 0.6709486842
-9.36362648 -5.203191757 1.009220839
-9.785409927 -5.65473032 1.319536328
-9.112019539 -4.990412712 1.580409169
-9.269749641 -5.167670727 1.888331175
-9.535225868 -5.461439133 2.235384226
-9.815538406 -5.770022869 2.616867065
-9.468393326 -5.415994644 2.848431826
-10.06225109 -5.854709148 0.3413894176
-10.06486988 -5.872702599 0.670622468
-9.757525444 -5.567941666 1.004641056
-9.567948341 -5.383915424 1.312310696
-9.082756996 -4.91886282 1.57721746
-9.24818325 -5.102787495 1.883605599
-9.525859833 -5.407166004 2.230618715
-10.09340858 -6.014723301 2.679053783
-9.456604958 -5.359304905 2.839702368
-9.788403511 -5.55470562 1.005680323
-9.561935425 -5.334019661 1.31246531
-9.296722412 -5.111232758 1.888447285
-9.509318352 -5.345885277 2.224550247
-10.10382271 -5.977164268 2.677036762
-9.504184723 -5.365061283 2.84833622
-9.775273323 -5.508524895 1.320315838
-9.252454758 -5.023702145 1.88068223
-9.536584854 -5.330383301 2.22670579
-10.14697838 -5.973655224 2.682848692
-9.523281097 -5.340940475 2.848674536
-9.343747139 -5.013206959 1.015177965
-9.658593178 -5.345631123 1.31658113
-9.745508194 -5.474529743 1.631608725
-9.275858879 -5.006313324 1.882125616
-9.533041954 -5.281052113 2.222984314
-10.22047234 -6.001030445 2.695854425
-10.44139099 -6.241818905 3.109262466
-9.40381813 -5.032515526 1.015676737
-9.651823997 -5.293218136 1.316717863
-9.980565071 -5.666083336 1.650811434
-9.287666321 -4.975047112 1.881919861
-10.37559128 -6.108457088 2.727910757
-10.51825905 -6.267785072 3.125256538
-9.410302162 -4.997790813 1.016941667
-9.746898651 -5.34520483 1.320425034
-9.900681496 -5.539981365 1.643271923
-9.915290833 -5.56673193 1.964827657
-10.28755379 -5.957262993 2.35697341
-10.33066368 -6.0139575 2.71280098
-9.453550339 -4.999694347 1.017686486
-9.639512062 -5.195164204 1.316983342
-9.930155754 -5.524585247 1.645027637
-9.953279495 -5.559661865 1.968071938
-10.21062183 -5.832190514 2.339584827
-10.5314703 -6.167423725 2.755656481
-9.512560844 -5.016800404 1.018221617
-9.449999809 -4.965945721 1.310618162
-10.01912594 -5.568114758 1.651819587
-9.943285942 -5.504680634 1.964872479
-10.47712421 -6.050658226 2.385579824
-10.41085052 -5.997609138 2.72282362
-9.463677406 -4.940579891 1.311415315
-9.923604012 -5.428950787 1.643002748
-10.03813934 -5.555892944 1.975833416
-10.11643696 -5.645296574 2.316086054
-10.4657011 -6.003716469 2.731281519
-9.919978142 -5.332449436 1.015448928
-9.429535866 -4.866746902 1.310528636
-9.928834915 -5.392188549 1.642756224
-10.01228046 -5.485501766 1.970530629
-10.16044235 -5.642810822 2.32115078
-10.43371582 -5.926333427 2.719651222
-10.51901817 -5.866655827 1.009087205
-9.425154686 -4.822392464 1.310692549
-9.945006371 -5.364074707 1.643401384
-10.09584618 -5.522318363 1.979857683
-10.27008343 -5.706363678 2.33836174
-10.47159672 -5.9156003 2.724162102
-10.191185 -5.503548145 1.014845848
-9.44506073 -4.801669598 1.311717033
-9.757089615 -5.139056683 1.626864791
-10.10245419 -5.483902931 1.978912473
-10.23298264 -5.621964455 2.328429937
-10.56893158 -5.962404251 2.742486
-10.23810482 -5.503628731 1.015683055
-9.512230873 -4.823943615 1.314441204
-9.790685654 -5.12706089 1.628969669
-10.08412838 -5.419539928 1.974579692
-10.26426697 -5.606466293 2.331158876
-9.723916054 -4.984224319 1.322314739
-9.787075043 -5.081602097 1.627983332
-10.30556297 -5.60041666 2.335708618
-10.94279003 -6.222026348 2.820102453
-10.1278944 -5.311574459 1.019839048
-9.751677513 -4.969293594 1.323627114
-9.810789108 -5.062297821 1.629296184
-10.07888508 -5.326619625 1.970333338
-10.32675457 -5.575054646 2.336610794
-10.94614315 -6.175324917 2.816432238
-9.978957176 -5.267621994 2.917674541
-10.16121197 -5.2993536 1.020809054
-9.792571068 -4.966514587 1.325408816
-9.843186378 -5.051089764 1.631337523
-10.09620476 -5.299394608 1.970871687
-10.19773197 -5.408232689 2.310378075
-10.96647549 -6.144937038 2.816707611
-9.997592926 -5.241956234 2.917980671
-9.785108566 -4.918695927 1.325456142
-9.859513283 -5.0247612 1.632033706
-10.07994461 -5.240880966 1.966993093
-10.17479706 -5.342629433 2.303411007
-10.47855759 -5.638405323 2.700442314
-10.01040936 -5.210874081 2.91668582
-33.96975708 -27.06346893 0.7501254082
-10.36759663 -5.413597107 1.346690536
-10.36956024 -5.455240726 1.673985362
-10.00348759 -5.127080441 1.955224395
-10.2633667 -5.38116169 2.316547394
-10.51143265 -5.623138428 2.70392251
-10.09190559 -5.243915081 2.93453455
-9.784176826 -4.836914062 1.326040506
-10.38432598 -5.4243927 1.674505591
-10.03325653 -5.112297535 1.957453251
-10.19632149 -5.275316715 2.301711798
-10.5399456 -5.603703022 2.706409216
-10.10467243 -5.212560654 2.933235884
-10.59100437 -5.517286777 1.021392107
-10.31342316 -5.315494537 1.667889118
-10.06887817 -5.102756023 1.960450172
-10.15932655 -5.198145866 2.29234004
-10.52770615 -5.546815872 2.69962883
-10.60589027 -5.485864162 1.022615552
-10.27721786 -5.200858116 1.344425082
-10.20338249 -5.17232275 1.658035278
-10.10303783 -5.091699123 1.963254213
-10.17468929 -5.16933012 2.292378664
-10.58369064 -5.552523136 2.70839262
-10.6430254 -5.474389553 1.023592234
-10.32676506 -5.202467442 1.346533418
-10.28981018 -5.207559109 1.664545655
-10.15938663 -5.100460529 1.968952656
-10.39006615 -5.321197033 2.3280828
-10.62664032 -5.546004772 2.714180708
-10.7535038 -5.527731895 1.023797512
-10.34949207 -5.179914474 1.347672701
-10.3869915 -5.251565933 1.671937823
-10.3790617 -5.254912376 1.995910287
-10.39548683 -5.282345295 2.32630229
-10.29397678 -5.201881409 2.63509202
-10.71280289 -5.446937084 1.025590181
-10.38114166 -5.165213108 1.349133134
-10.41138554 -5.230061531 1.673279405
-10.41834259 -5.246588707 1.999326229
-10.40812683 -5.250125885 2.325825453
-10.3152256 -5.177865982 2.63617754
-10.73829556 -5.426980972 1.026615143
-10.55010128 -5.272734165 1.355554223
-10.37324047 -5.155572414 1.669474602
-10.40433884 -5.193189144 1.995909691
-10.40916252 -5.209917068 2.323445082
-10.34123707 -5.160216808 2.638532162
-10.7674408 -5.40571022 1.027733564
-10.59119129 -5.265127182 1.357361674
-10.26810932 -5.021070957 1.660106063
-10.42255306 -5.166288376 1.996604085
-10.51493168 -5.257586002 2.339325905
-10.79694939 -5.386882782 1.028777838
-10.33067226 -4.994826794 1.348224044
-10.28220654 -4.989603519 1.660586357
-10.58889866 -5.26614666 2.016372442
-10.51992607 -5.218531609 2.337520599
-10.08980274 -4.863249779 2.892086267
-10.77626228 -5.325024128 1.030299306
-10.1720438 -4.817428589 1.342751265
-10.29665184 -4.960608959 1.661131382
-10.19307709 -4.880820274 1.963623166
-10.47676277 -5.138001919 2.327266693
-10.35466576 -5.042319775 2.630487919
-10.8085804 -5.308705807 1.03130126
-10.13559628 -4.7461586 1.34171164
-10.3655653 -4.978317261 1.666171193
-10.24643803 -4.88579607 1.968929172
-11.1217804 -5.649628162 2.437868595
-10.35144329 -4.997508526 2.626214266
-10.18921852 -4.8676548 2.910188675
-10.8210001 -5.275474072 1.032484412
-10.19647121 -4.757786751 1.344214678
-10.41795349 -4.981395721 1.66984272
-10.32264805 -4.909825802 1.977162957
-10.734375 -5.272758484 2.367177248
-10.2018652 -4.837582111 2.90920186
-10.84554577 -5.252501011 1.033548594
-10.18398666 -4.707383633 1.344040751
-10.47197437 -4.985463142 1.673644423
-10.29755116 -4.858971119 2.288160563
-10.21288872 -4.806224823 2.907805681
-10.87416077 -5.230708599 1.034635425
-10.30180359 -4.765897274 1.348625302
-10.42055321 -4.900754452 1.668776155
-10.24409771 -4.761959553 1.963981509
-10.28673363 -4.807021618 2.283672571
-10.91090679 -5.21771431 1.035583854
-10.77164555 -5.149737358 1.696934104
-10.58486462 -5.005895615 2.006041288
-10.27616596 -4.75769043 2.279384375
-10.41622162 -4.895746708 2.953687429
-10.93266869 -5.194421291 1.036596298
-10.15573978 -4.565998554 1.343829393
-10.7885685 -5.122972488 1.697696805
-10.67135239 -5.035560608 2.015501499
-10.60798645 -5.004257202 2.665463686
-10.44242859 -4.876259327 2.956322193
-10.92128849 -5.141980171 1.037942886
-10.26461983 -4.615996838 1.348089218
-10.80489159 -5.093625069 1.698380113
-10.6904726 -5.009088039 2.01635313
-10.61941719 -4.971614361 2.664500475
-10.28225136 -4.591082096 1.34900403
-10.68802166 -4.955811977 1.688167572
-10.7064085 -4.98003912 2.016806364
-10.6158905 -4.915398121 2.330958366
-10.65511417 -4.958955288 2.668881178
-38.64054489 -27.29442978 0.8180918694
-10.70785713 -4.928094387 1.68912375
-10.56758118 -4.825660229 1.997612
-10.61149979 -4.870343208 2.327731133
-10.65816975 -4.917486668 2.665948868
-39.05903244 -27.43721771 0.8202449083
-34.90964508 -24.16911888 2.255613804
-10.5808382 -4.786604881 1.678154469
-10.64488792 -4.846976757 2.005895615
-10.62849808 -4.842795372 2.328215361
-38.82978439 -27.05380058 0.8277522922
-35.39793777 -24.37715149 2.274793386
-10.53664017 -4.710760117 1.673936248
-10.93082714 -5.034245968 2.040568829
-39.21636581 -27.15789223 0.8304786682
-45.72359848 -32.32035828 2.656672478
