# .PCD v0.7 - Point Cloud Data file format
VERSION 0.7
FIELDS x y z
SIZE 4 4 4
TYPE F F F
COUNT 1 1 1
WIDTH 1334
HEIGHT 1
VIEWPOINT 0 0 0 1 0 0 0
POINTS 1334
DATA ascii
19.99790573 20.50577545 3.472686291
20.68016052 21.24166107 4.635076523
11.10693073 10.99817753 3.434849024
8.945116043 8.684573174 3.392591715
9.159140587 8.916761398 3.94616127
17.74089622 17.93724632 0.4440656006
20.49238014 20.86433983 1.434437871
20.57018661 20.95995712 2.486607075
20.36283302 20.74498558 3.512955904
20.79355812 21.20855904 4.643294811
11.14538193 10.95658684 3.434965849
8.943292618 8.616241455 3.383067608
9.191656113 8.88345623 3.946328878
17.92352104 17.99856377 0.4430361986
20.60388374 20.83047104 1.436972857
20.30280304 20.52575302 2.459741592
20.5735302 20.81705856 3.532444954
33.67625809 34.6587944 7.011490345
11.19453621 10.92633533 3.437657833
9.042217255 8.654910088 3.402787209
9.242785454 8.869838715 3.95291543
18.00457382 17.95181656 0.4439830184
20.82448959 20.91033745 1.442957044
20.36070442 20.4375248 2.459783554
20.66399002 20.76111794 3.535874605
33.62417603 34.35754013 6.981527328
9.703335762 9.279682159 3.076952934
9.079276085 8.627667427 3.404580355
9.218734741 8.777043343 3.933847904
17.64056015 17.44202995 0.4533720315
20.83386421 20.76839638 1.44230938
21.01311874 20.96830368 2.508553982
20.57771111 20.52095604 3.515903473
22.37752342 22.40119362 4.896400452
9.756311417 9.264377594 3.081802845
9.041564941 8.522429466 3.38492322
9.262877464 8.756191254 3.938152313
20.34599876 20.1137867 1.426082611
21.05855942 20.86335373 2.507520676
20.4512558 20.24157143 3.490796328
21.02390289 20.83984756 4.635442734
9.807929993 9.247400284 3.086338758
9.12180233 8.54031086 3.399208307
9.274532318 8.701533318 3.931460857
18.08653259 17.64490891 0.4498924315
20.68571472 20.31616592 1.435858488
20.62138557 20.26351357 2.46722436
20.44538116 20.08888054 3.481786489
21.04521942 20.71108818 4.627061844
9.132514954 8.486040115 3.393599987
9.36463356 8.727861404 3.951365471
17.84430504 17.26919365 0.4568490088
20.68863678 20.17900848 1.435132384
21.45565414 20.96688461 2.530465126
20.65486526 20.15686989 3.501174688
21.12744713 20.6526947 4.630483627
15.88769341 15.31203842 4.487082005
10.92268658 10.25253963 3.894682407
9.389360428 8.689932823 3.949695587
17.97194862 17.27821541 0.4568002522
20.87214279 20.22557259 1.440073848
20.64387131 20.00068665 2.460276604
21.23918343 20.60994148 3.570012093
22.43294907 21.83396339 4.855786324
15.89936733 15.21727562 4.478489399
10.90556526 10.16191387 3.88018322
9.378415108 8.61589241 3.936102629
18.33683014 17.52473068 0.4524376094
20.40131378 19.60548973 1.424553752
20.67062187 19.88973808 2.458248377
21.21038628 20.43924713 3.558415651
21.27416611 20.51017189 4.633645058
9.894051552 9.062954903 3.077449322
18.15116501 17.3854351 5.918190956
10.20233727 9.380587578 4.201488495
18.06979942 17.13007736 0.4597485662
20.47266769 19.53421211 1.426001072
20.69623375 19.77099228 2.455955982
20.68988991 19.77118301 3.482482433
21.421278 20.50890923 4.648303509
9.918736458 9.018694878 3.075896502
18.10197067 17.20983124 5.887832165
11.80074596 10.90946579 4.723512173
17.3257885 16.26736069 0.4755665064
20.59062767 19.50914764 1.428918242
20.40654945 19.34015465 2.4283638
21.3044548 20.23763847 3.554457426
22.74154472 21.67110634 4.873728752
9.91102314 8.942386627 3.066939831
11.06287193 10.0904026 3.894622564
11.70062447 10.72840786 4.677534103
18.54162025 17.34438896 0.4561399817
20.7300396 19.50453758 1.432518005
20.39436531 19.1876297 2.423205137
21.44869614 20.23319244 3.565164328
22.70950508 21.48315239 4.855611801
9.932406425 8.895368576 3.06474781
11.06590939 10.01741886 3.88564086
11.75594044 10.70271015 4.683419228
18.616642 17.29076576 0.4572674036
20.76957512 19.40137291 1.433027864
20.48269653 19.13457489 2.426152229
21.47216988 20.10960007 3.560269356
21.67976952 20.32009315 4.65949297
9.956401825 8.851079941 3.063203812
18.43455124 17.1627636 5.932383537
11.84596252 10.71083927 4.700792313
17.97249603 16.53908539 0.4710693657
20.82012939 19.30931091 1.433900237
20.56088066 19.07141304 2.42831254
21.17369843 19.67380714 3.513999701
21.61526871 20.11034203 4.636483192
11.14037609 9.935342789 3.326014519
10.33149433 9.152262688 3.661975384
12.45503044 11.22359657 4.889032841
18.98512077 17.39353561 0.455730021
20.92498779 19.26988983 1.436476469
20.77971649 19.14379692 2.441694975
21.40554619 19.75481224 3.536138058
21.68087769 20.02807236 4.636777401
11.24029636 9.956855774 3.34100771
10.5156889 9.260754585 3.704185247
12.54438305 11.2262373 4.905551434
18.9535141 17.23591614 0.4587621689
21.04281807 19.2424221 1.439471006
20.88683319 19.10715294 2.446178913
20.89772987 19.12480736 3.46349287
21.8220768 20.01836205 4.650517464
16.58488274 15.00912476 4.543771267
10.37811661 9.058433533 3.657211542
12.58757114 11.18390656 4.906919003
19.08049202 17.23028755 0.4590440691
21.58822823 19.62077713 1.45571363
21.00984955 19.08515358 2.451939344
21.02199173 19.10406113 3.472013712
21.94910812 19.99423409 4.66174221
11.78109837 10.32221603 3.447838783
10.31878567 8.93296814 3.632135153
12.16855049 10.70084953 4.757547855
19.16403008 17.18281937 0.4600904286
21.22343063 19.13359451 1.443804622
21.08362007 19.01591873 2.453818083
21.1087265 19.04712677 3.475760937
21.91621971 19.81818771 4.644823551
16.90112686 15.08865452 4.592674255
10.43391514 8.97386837 3.655202866
15.36452579 13.64697361 5.784932137
19.28249741 17.16779709 0.4605556726
21.41566658 19.17432022 1.449146152
20.68244743 18.50104713 2.418279409
21.68324661 19.44772911 3.541489363
22.10219955 19.84903145 4.666481018
11.17671776 9.599331856 3.296511412
10.4179697 8.890508652 3.642261267
12.48371983 10.83732414 4.835656166
19.33520317 17.09087181 0.4621473253
21.92015457 19.5041523 1.464137197
20.62565613 18.31314468 2.410032749
21.89948845 19.50784683 3.561537266
22.34379196 19.93023872 4.697815895
11.2173357 9.564415932 3.298301697
15.93283081 13.97054672 5.140461445
12.39470291 10.672966 4.794722557
19.57415009 17.18616104 0.4606313109
21.24673843 18.7394371 1.442800522
20.78618622 18.32792091 2.418916941
21.88402557 19.35161781 3.552259684
22.14515305 19.60162163 4.652214527
11.32300186 9.589706421 3.314638615
15.97263718 13.90437222 5.138502121
12.34608173 10.5477562 4.767115116
21.66026497 18.97422028 0.428545773
21.23552895 18.59219933 1.441924095
21.19601059 18.56370163 2.447131395
21.90585518 19.230793 3.547783613
21.97224236 19.30016899 4.611412525
11.2768116 9.470767021 3.296771526
10.5451498 8.802030563 3.65127492
12.04333782 10.18964195 4.658062458
19.37783051 16.749403 0.4689639211
21.40722275 18.60588074 1.446676254
21.23410606 18.46278763 2.446401834
22.90597343 19.99611092 3.665958643
21.91378975 19.09933853 4.590243816
17.57447052 15.15126705 4.686957359
15.0217371 12.82563496 4.855154037
12.08775043 10.14954853 4.660381794
19.35033798 16.60119247 0.4718619585
21.53140831 18.58209038 1.450006723
21.29246902 18.38062286 2.44729352
22.68916321 19.65412521 3.631411314
21.93009949 18.97496033 4.58272028
19.92066002 17.16791725 5.195095539
15.1068449 12.80757713 4.86646843
19.47380829 16.58968735 0.472299248
21.47831917 18.40505409 1.447926044
21.23472023 18.19412804 2.439187527
23.16014862 19.93456841 3.683082342
18.04601097 15.34629154 3.902555943
17.89489365 15.21745872 4.735853195
16.12334251 13.63346481 5.129156113
12.3973999 10.27983856 4.737193584
19.67943192 16.65685272 0.4713145196
21.53616142 18.32845688 1.449274898
21.30665207 18.13169479 2.441395283
21.7617569 18.5467205 3.501764536
18.11865425 15.30370808 3.907151699
16.39761162 13.77105808 4.395998478
16.08477592 13.50292397 5.10715723
12.40063763 10.20896912 4.727484226
19.72109604 16.57692719 0.4729858637
21.36217499 18.03966331 1.443501711
21.34406281 18.03850365 2.440953016
21.90324402 18.54334641 3.512956381
18.16880035 15.23525524 3.907496691
16.49297523 13.75872898 4.407530785
15.1452837 12.56719494 4.843470097
12.34002209 10.07781982 4.69709301
19.81200981 16.53443527 0.4740013182
21.97880745 18.44996452 1.462015986
21.56711578 18.10259628 2.454724073
21.8481636 18.35892868 3.499407291
22.73543549 19.15034294 4.681414604
16.49184036 13.65552807 4.397440434
15.03445721 12.37552929 4.802610397
12.08467007 9.775836945 4.605412483
23.30609703 19.46567535 0.4215838313
21.94793129 18.29411697 1.460690975
22.30326271 18.61371803 2.508054495
21.89094925 18.26171684 3.49809432
22.89088058 19.15346527 4.698345184
16.26756096 13.35737896 4.338753223
14.99325848 12.24686337 4.780581951
12.35654163 9.943855286 4.680940151
23.29649353 19.32143974 0.4244686961
21.81240845 18.04176712 1.45615983
22.4614563 18.61442566 2.51671195
22.28164864 18.4740181 3.540142775
23.42571449 19.47856331 4.779395103
16.11491585 13.12984943 4.296499252
15.01858902 12.18179512 4.776949883
12.20609474 9.737154007 4.622874737
22.89584732 18.83395386 0.4335314631
22.16295242 18.21107674 1.466544271
21.77612877 17.89287949 2.46073699
22.30961418 18.36244202 3.537012339
23.72588921 19.59528542 4.820216179
16.17532539 13.08401203 4.300320625
15.07556629 12.13974571 4.781237602
12.49286366 9.911177635 4.702188492
22.95547676 18.74614525 0.4354237616
22.23246574 18.13626289 1.468333483
21.83379745 17.81036949 2.461821318
22.77548027 18.62679672 3.587786198
23.0952282 18.91067123 4.703085423
17.80182838 14.38267136 4.64338541
15.27374935 12.21884346 4.82286787
22.84563637 18.51439285 0.4398999214
22.70080185 18.40055084 1.482347369
22.63622665 18.36173248 2.519934177
22.5293045 18.28011322 3.551036119
23.04297066 18.72723198 4.684428215
17.72245979 14.20795345 4.616200924
15.43386078 12.26363564 4.854308128
12.37767506 9.662344933 4.645055294
22.97135735 18.48356438 0.4407827854
22.4562664 18.05813408 1.474561095
22.52925682 18.13579941 2.508397818
22.55472183 18.16679955 3.547745228
23.15782356 18.68659401 4.694120407
17.78669739 14.15638161 4.62016058
12.22030258 9.449347496 3.99905467
11.94639015 9.22290802 4.500659466
23.18143845 18.52275276 0.4404222667
22.5436554 17.99767876 1.476951718
22.52498245 17.99812126 2.504773378
23.08445168 18.47732735 3.60609436
23.5354538 18.86609077 4.748049259
16.95197487 13.3489542 4.43095541
12.2784977 9.425709724 4.005897045
11.99909592 9.196354866 4.507118702
23.43665314 18.59780502 0.4394320548
22.55097961 17.87034035 1.476913214
22.69643402 18.00767899 2.514571428
23.27091026 18.49624062 3.622415543
23.58556366 18.76876831 4.74680233
16.99512291 13.2848177 4.430968285
12.30507183 9.375392914 4.004486561
12.02637577 9.148343086 4.505738735
23.57458878 18.55989838 0.4405055046
23.62757111 18.62054253 1.509555101
23.33646202 18.38993263 2.559628725
23.35865211 18.41833496 3.626081944
28.27135849 22.50240135 5.521353245
17.03380394 13.20705795 4.429170609
12.31961727 9.311612129 3.999585152
12.10461998 9.13916111 4.519648075
23.68693352 18.52096367 0.4415509999
23.54059792 18.4178524 1.506677508
23.32601547 18.25173378 2.555742025
23.47303772 18.38262749 3.633967876
24.1809864 18.98200035 4.827260494
19.08100128 14.79690647 4.857182503
12.39695835 9.306998253 4.011912823
24.14818382 18.76564407 0.4375560582
23.49152565 18.24091339 1.504967451
23.36598015 18.15545273 2.55571723
24.13973618 18.79710579 3.708704233
24.73067856 19.29033089 4.909298897
19.92707634 15.38309193 5.027667046
15.76712036 11.99082947 4.878074646
17.45806122 13.38199234 6.143112659
27.67665482 21.4792366 0.3897071481
23.42752266 18.05322075 1.502822876
23.03026199 17.74845886 2.527193308
24.08577347 18.61384583 3.695837736
17.42938614 13.22823048 3.685622215
19.08994102 14.58872414 4.839604378
16.7370739 12.68737316 5.118816376
12.49154758 9.246397972 4.609782696
17.85851097 13.43683147 0.5329788327
23.54487228 18.01272011 1.506234884
23.21791077 17.76691055 2.538271666
24.11305809 18.49735641 3.69287014
17.51997948 13.20102978 3.693912029
17.45158768 13.15904331 4.482867718
17.75781631 13.41422653 5.37153101
12.43861485 9.132043839 4.583953381
17.85685349 13.33328724 0.5351169109
17.95533562 13.41967487 1.335516572
23.60725212 17.94495773 2.564529896
29.93206406 23.00778008 4.386302471
17.64312172 13.19938183 3.707600832
17.80368614 13.34107399 4.548364162
12.54291725 9.138431549 4.017393589
12.47160816 9.087525368 4.584470272
17.85938644 13.23366165 0.5371886492
17.93929672 13.30483723 1.334927678
17.94460297 13.32209969 2.135981321
18.01299095 13.38443184 2.948727608
17.75403976 13.1871767 3.719257116
17.86057472 13.28516579 4.551398277
17.86240387 13.29521847 5.375911713
12.7618103 9.247576714 4.663150311
17.87874794 13.14777756 0.5390204191
17.95568657 13.21623135 1.335343242
17.950037 13.22489357 2.134108305
17.967062 13.24643898 2.938729763
17.89779282 13.20015144 3.736320972
17.86461639 13.18747616 4.543366432
18.6054821 13.78081322 5.555204391
12.64553356 9.083767891 4.61836338
17.92137146 13.08039093 0.5405291915
17.99531937 13.14613819 1.336482525
17.98332787 13.14994907 2.134356737
17.96117592 13.14082623 2.933597803
17.91843414 13.11574841 3.733120203
17.84644508 13.072896 4.530772686
19.47249794 14.3557272 5.765388012
12.65996456 9.024139404 4.613351822
17.96058846 13.01042271 0.5420880914
18.03783226 13.0783987 1.337724447
18.04787254 13.09941196 2.136969566
18.00509834 13.07450581 2.934466124
17.97003937 13.05569553 3.735061646
17.37592316 12.60738277 4.423640728
17.83207893 12.9708004 5.335187912
14.92493057 10.71671104 5.286865711
18.05025482 12.97937202 0.5429656506
18.11020279 13.03370094 1.339891315
18.11701775 13.05225849 2.139946699
18.08032036 13.03235817 2.939095259
18.03714561 13.00757408 3.739581585
17.35069084 12.49136639 4.410027027
16.94886398 12.18956947 5.099745274
14.92639542 10.63499928 5.276483059
18.20986748 13.00126362 0.542917788
18.23332787 13.02750015 1.343620539
18.23046875 13.03874111 2.146244526
18.18393707 13.01162624 2.947116852
18.1151619 12.96758461 3.74591279
17.42354012 12.45129681 4.416962624
16.41053581 11.68310261 4.953014374
14.96296978 10.58066559 5.276751518
29.66334724 21.58257294 0.3924558461
30.30041504 22.10177231 3.0422225
18.32725906 13.02046108 2.959853411
18.25860023 12.98201752 3.763247252
18.37725067 13.08119392 4.606997967
16.45699883 11.62831974 4.955121517
14.97416592 10.51113319 5.270017624
29.76170731 21.50217056 0.3944105506
29.79423141 21.54045296 1.696154237
42.03282928 30.81004715 5.760361195
18.34123421 12.95849609 4.591426373
16.77636147 11.78435421 5.026715279
14.99633503 10.44608307 5.266125679
29.8012886 21.36944962 0.3973197043
30.55917358 21.95008087 1.719509721
30.01139832 21.56268692 3.014032125
42.05342102 30.5965538 5.753218174
20.8000412 14.68753242 4.163084507
18.2201786 12.76786613 4.557959557
16.94704819 11.82126713 5.06008625
14.91556644 10.30389404 5.231649876
29.8804493 21.26652908 0.3997136056
30.58723831 21.80522156 1.720419168
31.05401993 22.17481804 3.087920904
44.15655899 31.93259621 5.991629124
18.92860413 13.18241596 3.8529737
18.29899406 12.72793484 4.565968513
17.03015518 11.79152966 5.071341991
15.01489735 10.29733372 5.250935078
29.97728729 21.19072723 1.70189333
32.92382431 23.38675499 3.222821236
44.46248245 31.92046547 6.01782608
21.03039932 14.63302994 4.186311722
18.34284019 12.66181946 4.566799164
17.07544136 11.73336887 5.073119164
15.02680779 10.22537327 5.244269371
29.9814682 21.03293228 1.702119589
30.14909363 21.17803192 3.014342785
54.62327957 39.12835312 7.201115131
18.97776031 13.01505852 3.848315716
18.42621231 12.624753 4.57581234
17.28009987 11.79228401 5.114863873
15.13871956 10.22721291 5.267291546
33.19099808 23.18804741 0.368106395
31.05262375 21.65081215 1.734919548
30.4598484 21.24302864 3.034072399
28.67545128 19.95965576 4.148299217
19.51008797 13.30139923 3.927801609
18.48563385 12.56982803 4.579931736
17.32380867 11.73208809 5.116272926
15.16910172 10.16877747 5.266206264
33.27488708 23.07208252 0.3708242476
32.9682045 22.89159775 3.215642929
33.25272369 23.11317825 4.677666664
21.96066666 14.96893406 4.315150738
18.53849411 12.51003551 4.582752228
17.44669533 11.72923088 5.13748455
15.39303112 10.25065613 5.322208405
33.39416122 22.98141861 0.3731118143
29.25632286 20.03616714 1.680425167
32.97934341 22.72536278 3.213095665
32.75819397 22.58301163 4.612935066
21.1372757 14.26230431 4.176159382
18.61199951 12.46499157 4.589837074
21.34893227 14.44181347 6.098920345
15.3997612 10.17434406 5.314184666
34.00404739 23.23870659 0.3693814874
29.33560562 19.93864632 1.683031082
32.64154434 22.31175232 3.184978962
32.80218887 22.44219017 4.611279488
21.23814201 14.22311211 4.185651302
22.66635895 15.25778961 5.408518314
21.50069427 14.43803787 6.125236988
18.39365005 12.23122978 6.182385921
33.84779358 22.95057487 0.3751151264
29.33940697 19.78782272 1.683355331
29.2073288 19.71664238 2.929874659
33.73024368 22.92629242 4.712571144
19.9171505 13.17824173 3.968109608
22.70114899 15.16398621 5.406126499
21.5710907 14.37560272 6.131367207
18.42448044 12.15706348 6.179719925
33.68831253 22.66266632 0.3808431625
29.2884655 19.59937668 1.682029963
28.11639786 18.80012703 2.847138405
34.10290909 23.0120945 4.749064922
19.99663925 13.13044548 3.974670887
22.76947212 15.09394073 5.410623074
21.67017555 14.33316803 6.144644737
15.86017323 10.25713634 5.419282913
29.26615143 19.4101181 0.4376795292
29.28746605 19.4469223 1.682250619
28.11765671 18.64808846 2.844429016
34.09829712 22.82350349 4.741419315
20.10695839 13.10380268 3.986163855
22.88564682 15.05122757 5.424407959
21.65769768 14.20679665 6.129872322
15.87936306 10.18855 5.415018559
29.31029701 19.29710007 0.4402637184
29.0520401 19.13352203 1.675329685
29.06780052 19.15888214 2.911226273
34.05511856 22.62675285 4.73007679
20.22712135 13.0833168 3.999229431
20.67656136 13.41018105 4.968911648
23.15895653 15.14088917 6.489008427
15.99897289 10.18979263 5.440043926
29.67609406 19.39682198 0.4392369986
28.4881115 18.59841728 1.658384204
28.90334892 18.90452957 2.896701813
33.71949768 22.22195816 4.684710026
20.19695473 12.95892429 3.988474131
20.98770142 13.51800346 5.023469925
22.81842804 14.78810883 6.393710136
20.16971016 12.97803211 6.640623093
33.93957138 22.13966942 0.3929628432
27.39823341 17.71243095 1.625365138
28.96873665 18.80142212 2.898873568
27.8958149 18.08583832 4.006328583
21.94282722 14.04516125 4.258767605
20.78314781 13.27145576 4.974002361
23.00516701 14.79924488 6.428164005
20.19166946 12.89025307 6.634862423
29.86849594 19.22388268 0.4436136484
27.5259037 17.65925026 1.629585028
29.23065948 18.83100128 2.915389299
33.17802048 21.5127449 4.609581947
20.21853256 12.76794434 3.980178356
21.11791229 13.39256191 5.033219337
18.15814972 11.39898491 5.230823994
20.24223709 12.82214642 6.637479782
30.42067337 19.44194603 0.4406213462
27.728302 17.65544701 1.636114359
29.36543465 18.77342987 2.922664642
33.07865524 21.27837944 4.592014313
19.71576118 12.32837009 3.895183802
23.22233582 14.69969177 5.447372913
18.16143036 11.30948448 5.222812176
20.30871773 12.76470089 6.644760132
29.36507988 18.58806801 0.4559035003
27.90770149 17.63495255 1.641964197
28.81193924 18.25752068 2.879982233
28.20133591 17.86603165 4.025923252
19.75980186 12.25853539 3.896580696
20.85510254 13.00441742 4.964446068
18.22625542 11.26146221 5.22990036
20.36209297 12.6983242 6.648326874
29.02875519 18.21926498 0.4629001021
28.05891228 17.59472466 1.646975398
28.16524124 17.68632889 2.830680132
28.33273888 17.81154251 4.035916805
19.78374863 12.17542171 3.89486742
23.57966232 14.70314312 5.501271248
23.85686493 14.89972878 6.590939999
20.40390205 12.62421608 6.648643017
28.96977806 18.03578568 0.4667439163
28.17671204 17.53178978 1.650986433
28.17458725 17.55193329 2.829066038
19.75429153 12.05750084 3.88483882
20.44779778 12.52857685 4.867619038
18.81416512 11.46596909 5.355453014
20.45357513 12.55531502 6.651295662
29.06590271 17.9541893 0.4688664079
28.33633423 17.49547577 1.656302571
28.41432953 17.56784439 2.844171524
29.34136772 18.18580437 4.141233921
19.73921585 11.94968128 3.877146244
21.05430984 12.82252026 4.980928898
18.90265465 11.43042946 5.368181705
15.34713268 9.11950016 5.178747177
10.95712185 6.152104855 0.668644309
10.96525288 6.165714741 1.123923421
10.97463512 6.177467346 1.581064939
29.57634544 18.19251251 4.163002014
19.83467293 11.9187479 3.887064219
21.04197502 12.71057034 4.970859528
20.58745575 12.44488049 6.667259216
10.96528435 6.10605669 0.6696929932
10.95658398 6.108875275 1.123827338
10.95424461 6.113096714 1.57879436
10.96695709 6.127022743 2.037437916
10.96307468 6.133096218 2.498003006
10.9582262 6.135968208 2.962433815
23.63852692 14.29896736 6.495346069
20.65058327 12.38943195 6.674514294
10.98846149 6.069673538 0.670581162
10.97418976 6.066331863 1.124554157
10.96555805 6.069288254 1.578830242
10.98166656 6.085337162 2.037369967
10.96060371 6.077828884 2.49476862
10.97461414 6.095448017 2.962002039
10.96395016 6.094806671 3.430040598
10.97502518 6.108215809 3.910316706
11.01103878 6.030222893 0.6715380549
11.01023483 6.035480022 1.125855446
10.98248768 6.023778439 1.579205155
11.00583649 6.04703474 2.038307428
10.98302078 6.03855896 2.495443344
10.98824883 6.047911167 2.960677385
10.98919964 6.054709435 3.431022644
10.96293163 6.047103882 3.900989771
11.06181526 6.005728722 0.6722630858
11.05806637 6.011881351 1.127527714
11.04203129 6.007693768 1.582704186
11.05132103 6.019402504 2.04159379
11.04897594 6.02660656 2.502902985
10.99882317 6.001227856 2.958978653
11.01643181 6.018516541 3.432759762
11.00981426 6.023433208 3.908459663
29.49224091 17.37928009 0.4831306934
29.76345634 17.56310654 1.703102112
28.87670898 17.02829933 2.864898443
20.42012024 11.80437279 3.952629805
11.05067062 5.989327908 3.436446667
29.6972599 17.36323547 0.4842233062
29.76288795 17.41937447 1.703670502
28.91875839 16.92210579 2.866035461
29.48308182 17.28579712 4.123932838
20.26320457 11.60921001 3.92331481
23.31492805 13.51204967 5.375033855
19.34387207 11.06803226 5.416069508
17.90674019 10.18924522 5.844792843
29.18894386 16.91050148 0.4925645292
29.76169395 17.27585602 1.70423913
28.18651962 16.3288517 2.811419725
27.86502457 16.15404129 3.936513186
20.32497787 11.5499649 3.927933693
21.24827194 12.12749386 4.960991859
22.84121132 13.11736393 6.242775917
17.9364872 10.12181091 5.843998432
29.40287971 16.89354515 0.4937250614
29.10668564 16.73676491 1.684677005
28.18478775 16.19322968 2.80944562
28.15838051 16.19249153 3.965155602
20.26628494 11.41731167 3.914004564
21.2257328 12.01244545 4.949608326
23.57564735 13.45574284 6.408361435
18.07722092 10.12213993 5.874511719
29.0468483 16.54675484 0.5002484322
29.13367462 16.61455154 1.686139584
28.22521973 16.08354568 2.810536861
28.57262802 16.31494713 4.007825851
20.88439178 11.69380569 4.004416466
21.301754 11.96257114 4.95796299
19.74999809 11.03682137 5.488549709
18.18820953 10.10350609 5.89663744
29.05775642 16.41561699 0.5032562613
29.12755203 16.47289085 1.686600447
28.3394165 16.02479362 2.81703496
28.58603096 16.18771744 4.005111217
21.15925026 11.75946712 4.041814804
22.14465904 12.36686993 5.115902901
19.88512993 11.02447414 5.512624264
18.2426033 10.05020237 5.902887344
29.36936569 16.46274185 0.5033504963
29.03476143 16.2805748 1.684403181
28.41352463 15.93506718 2.820603609
28.72730637 16.13674927 4.016833305
20.68462753 11.37798786 3.964058161
22.05470276 12.20906544 5.091357231
18.47104263 10.0893774 5.169191837
18.52572441 10.13297462 5.973213196
29.32112312 16.29640961 0.5069504976
29.13580894 16.20351219 1.688211918
28.54414558 15.87839985 2.82824564
28.78450012 16.03554916 4.019142151
20.65865135 11.26562977 3.955379725
21.44404221 11.74544048 4.965509892
18.50203896 10.02106285 5.169200897
18.39110756 9.966586113 5.926642895
29.34640503 16.17387581 0.5098386407
29.13300705 16.06557846 1.688831687
30.05422211 16.62555122 2.934452295
28.88947296 15.96225739 4.02685833
20.59790993 11.13359642 3.941454411
21.24753571 11.53027248 4.920687675
18.5852108 9.983358383 5.181607723
18.41325378 9.893707275 5.924034119
29.25513458 15.98440552 0.5138170123
29.62124634 16.21191025 1.704672456
29.41343498 16.11483383 2.887009621
30.80654335 16.9378891 4.237542629
21.56325531 11.61465454 4.975552082
22.62802696 12.24598694 6.128665924
18.50066185 9.858940125 5.939685345
29.22190666 15.82956791 0.5172335505
29.24355125 15.85798931 1.693725228
29.47931099 16.01618004 2.890081406
30.39871407 16.56072235 4.187727451
20.76490974 11.03826332 3.957921743
23.17711067 12.44400692 5.282042027
19.69365883 10.44973278 5.428509712
18.57120323 9.81397438 5.950668812
29.3079586 15.74330425 0.5195473433
30.80342102 16.60958672 1.742864013
30.22489548 16.30438423 2.941628695
30.03360558 16.21225929 4.142864704
20.57876015 10.8361969 3.925085068
23.14253998 12.31727314 5.268490314
19.58123207 10.29457664 5.394617081
18.57078362 9.728067398 5.941993237
29.30140495 15.60463238 0.5227108598
29.28295517 15.61040211 1.69649601
29.63267517 15.83085728 2.897869587
30.03383255 16.07421303 4.138932228
20.46738434 10.67854309 3.903775454
23.05760574 12.16274261 5.245312214
19.93839073 10.40716648 5.471208572
17.90720177 9.26595211 5.749659538
29.43217659 15.54326344 0.5246415734
29.31235886 15.49256992 1.698212028
30.00587082 15.90400887 2.922915697
30.06125641 15.95193195 4.138097286
20.56091881 10.63726521 3.913728714
22.87388802 11.95387363 5.203201294
19.633955 10.14459324 5.392459393
17.95048714 9.208389282 5.753579617
30.11388588 15.78656006 0.5217303634
29.3657856 15.38829708 1.700694561
30.70919228 16.15069389 2.971368313
29.50886154 15.5075264 4.072771549
31.20594025 16.46910667 5.525810242
22.96682549 11.89610577 5.214287281
19.91503143 10.20738792 5.450775623
18.02074432 9.165817261 5.765008926
30.17134285 15.67421055 0.5245624185
29.41883659 15.28384972 1.70318687
29.52830696 15.37734604 4.071056843
31.39600182 16.43219948 5.548310757
23.27667427 11.96299171 5.267480373
19.69239426 9.998207092 5.391923904
18.65382004 9.434791565 5.931678772
30.09268951 15.50135899 0.5282574892
29.40027618 15.14702702 1.703425884
29.77302551 15.36724567 2.902040958
29.77035713 15.38269138 4.094495296
32.19002533 16.73208809 5.662606716
23.52276421 11.99785042 5.308659077
19.29685783 9.696303368 5.292937279
18.26833725 9.142670631 5.817847252
29.99210739 15.31781101 0.5321187973
29.38390541 15.00536442 1.70379293
29.71074295 15.20577621 2.896335125
29.84481621 15.29544449 4.099338531
31.01569939 15.94882393 5.478657722
23.69532776 11.9856205 5.335353851
20.09374619 10.04336166 5.471948624
18.75673866 9.326675415 5.944291592
30.71410751 15.56310558 0.529353559
29.9263134 15.15763855 1.721662641
29.67611313 15.04683018 2.892504215
30.93254471 15.73974895 4.216181755
42.53754425 22.00790405 7.212657928
23.31482506 11.66867733 5.255731583
20.14867973 9.978260994 5.477437019
30.6982975 15.41012764 0.5328640342
30.03954315 15.07705688 1.72617805
30.11285782 15.13988876 2.922134161
30.93669319 15.59650421 4.212857723
42.44031143 21.75601768 7.189471245
23.42760658 11.62463951 5.271123409
20.20340538 9.912892342 5.482936859
20.2367878 9.943354607 6.333327293
30.76389885 15.30757427 0.5355391502
30.12153435 14.98618221 1.729695439
29.71834564 14.79706192 2.892944098
33.06474686 16.58385086 4.444691181
41.44609833 21.04038811 7.031716824
23.53513908 11.57718468 5.28553772
20.74581337 10.11077976 5.602009773
20.17775917 9.821811676 6.308830261
30.64479828 15.10846233 0.5397170186
31.10745049 15.37476635 1.761486292
29.98841858 14.8063755 2.910880327
29.8692112 14.76116371 4.087900162
41.475811 20.88102531 7.028904438
22.45456123 10.92311954 5.991461754
20.28999329 9.795890808 6.331689835
30.56276131 14.93686962 0.5434104204
30.62169075 14.99162292 1.747235537
30.58385468 14.9895277 2.95191884
29.90295982 14.65301323 4.088498116
42.16248322 21.06426239 7.124933243
23.76365089 11.49283028 5.317317009
19.60005188 9.337446213 5.323813915
20.22312737 9.675629616 6.305686474
30.46748734 14.75958252 0.5471887589
30.15421867 14.61579132 1.733594775
30.39306259 14.76287079 2.937339544
30.76944733 14.97471523 4.180983543
42.35440445 20.97734642 7.146175385
23.80061913 11.41236591 5.318679333
22.01148224 10.50014973 5.874779224
30.79815483 14.79395199 0.5477852821
30.27217293 14.54325008 1.73832643
29.68029785 14.25836182 2.885803699
30.83844948 14.87466717 4.185317516
42.99441147 21.11888313 7.234655857
19.73722076 9.218867302 4.539965153
19.27263641 8.992483139 5.235322952
21.67301941 10.24322891 6.684182644
30.6251812 14.56470585 0.5524754524
30.34539413 14.44750214 1.741677761
29.62771225 14.10160923 2.881059885
31.17437172 14.90303898 4.218919754
43.09323883 20.9806881 7.241978168
19.77550888 9.151888847 4.542413712
19.22798157 8.885364532 5.218954563
21.69726181 10.16072464 6.68237257
31.12155533 14.68613911 0.5517342091
30.45584679 14.3702507 1.746224284
30.55907822 14.43975544 2.945850849
31.22622681 14.79975319 4.221598148
42.76134872 20.62545586 7.184947014
19.41899109 8.90210247 5.257234573
19.25260544 8.830287933 6.010837078
31.19010925 14.58456898 0.5544496179
30.75050926 14.38408852 1.756601095
30.35938644 14.21391296 2.930822849
31.38552856 14.74325085 4.235975266
42.72375107 20.42061806 7.172122002
21.06670952 9.629331589 4.777750969
19.52966881 8.873048782 5.276710987
31.29600525 14.50127029 0.5568999052
30.51661301 14.13537407 1.750342131
30.17980576 13.98701096 2.91717124
31.97485924 14.8983345 4.297587872
19.44197083 8.740703583 5.250370979
19.40418816 8.738511086 6.037405491
37.67806625 17.47120857 0.5139478445
30.7115078 14.09194851 1.757684588
30.22416496 13.87820148 2.919411182
31.97670364 14.75410461 4.294564724
21.06093979 9.439612389 4.766628265
18.97749519 8.428385735 5.138086319
19.58001709 8.737127304 6.07741785
37.39983749 17.17429161 0.5198335052
30.66995049 13.93946171 1.757525802
30.15137482 13.71268749 2.913428307
32.01999664 14.63738537 4.296300888
19.93870735 8.80273056 4.550077438
18.99888802 8.357140541 5.137395859
19.16925621 8.452458382 5.959493637
37.30758286 16.96939659 0.5243453383
30.5952549 13.77188492 1.756332636
31.03313446 14.00682068 2.974762917
32.13641357 14.55591106 4.306098461
38.66913986 17.72147942 6.540892124
21.12638092 9.290157318 4.769467354
19.13466263 8.341251373 5.162925243
19.21170235 8.390802383 5.964069843
37.34083176 16.82538795 0.5279618502
31.41894341 14.03243637 1.783631086
30.73871613 13.73379803 2.953225374
38.19399643 17.30625725 4.96587944
38.27706909 17.3689518 6.47662878
21.43531418 9.347543716 4.82297039
19.36595726 8.370206833 5.210268021
19.14879608 8.278558731 5.940358639
37.28485107 16.63964844 0.5321925282
32.02053452 14.18177032 1.803963065
30.82184219 13.64188004 2.958331347
37.77994537 16.94776344 4.917252064
38.43313217 17.27959824 6.493969917
20.9698143 9.035592079 4.730784893
19.42601776 8.316194534 5.21849966
19.26967049 8.2544384 5.966170788
37.71380997 16.68101883 0.5331352949
32.06560898 14.06661892 1.806674242
31.36393929 13.76432419 2.995785236
38.6021843 17.17215347 5.003800392
38.61594391 17.20201683 6.515332699
21.28411865 9.094118118 4.785337448
19.40084839 8.221871376 5.207359314
19.38532448 8.227111816 5.990590572
37.88569641 16.60050201 0.5358706713
36.44022751 15.9619894 1.947105289
31.33498383 13.61798573 2.993062258
37.81962204 16.64550209 4.915137291
38.64996719 17.06245995 6.514976025
21.42746353 9.070706367 4.807751656
20.90755272 8.846377373 5.545155525
19.42373466 8.167115211 5.994642735
38.22355652 16.6030674 0.5373561382
36.4449234 15.81781673 1.948675513
31.74363899 13.67992687 3.021201849
37.54081726 16.36553001 4.881768703
37.97419739 16.59602165 6.409616947
39.37163544 17.26436234 8.166625977
20.89835739 8.758300781 5.537689209
19.34732056 8.053905487 5.968006611
44.15261078 19.14159966 0.5028442144
36.61937714 15.74356747 1.955756068
31.9205246 13.63345814 3.033057451
36.97265625 15.95631027 4.816972733
37.88834 16.39698219 6.391518116
21.05784416 8.743439674 5.568320274
19.30898285 7.954963207 5.951366425
39.20637512 16.73145485 0.5387648344
36.55315399 15.55992794 1.95518446
37.551754 16.03214836 3.428468227
36.61727524 15.64055157 4.775355816
37.7275238 16.16523933 6.362463951
21.01935196 8.633255005 5.553779602
19.35865974 7.896590233 5.958347321
37.58260727 15.83589077 0.5531134009
36.53355026 15.39814854 1.956119061
36.61897659 15.45825577 3.362247705
37.01143265 15.65602589 4.815293312
37.90197754 16.0856266 6.383046627
38.87365723 16.5454216 8.049865723
21.47893333 8.751966476 5.652430534
19.39221001 7.830805302 5.961083412
36.52729416 15.22102261 0.5632497072
37.30318451 15.58582401 1.982350349
36.89456558 15.42743015 3.381041288
36.96562576 15.48904037 4.807672977
37.77561951 15.87145996 6.35930872
21.2795105 8.578084946 5.602105141
19.46103287 7.780717373 5.973284245
36.72811508 15.15677071 0.5657733679
36.90983963 15.25839424 1.971370697
36.80564117 15.24263096 3.374280214
36.85267639 15.28570938 4.792691708
37.91674805 15.77650928 6.375116348
20.99477005 8.364009857 5.532404423
19.49951935 7.716908455 5.977456093
36.75641632 15.01659966 0.5693593621
36.78245544 15.05004406 1.968918324
36.79466629 15.07760334 3.372991085
36.8081131 15.11353779 4.785222054
38.17759323 15.73303127 6.408608913
39.59923935 16.37738419 8.162683487
21.48027802 8.48486805 5.636547089
19.46837807 7.622528076 5.963179588
37.13985443 15.02133942 0.5710651278
36.66048431 14.83794594 1.966732979
36.92507553 14.98156929 3.381705284
36.53708267 14.83703423 4.753119946
38.77085495 15.82332325 6.490784645
39.73809433 16.27384567 8.181190491
20.76646423 8.087193489 5.470352173
19.66467667 7.623256207 6.009109497
37.44740295 14.99876118 0.5730934143
37.00387192 14.83282471 1.979463339
37.02588272 14.87232018 3.388380289
36.65904999 14.73853016 4.763879299
38.89941406 15.71856594 6.504852772
39.46710968 15.99419975 8.123590469
20.81157875 8.021053314 5.475533962
19.69015503 7.553268433 6.009997845
37.250103 14.76179695 0.5780225396
36.40435791 14.42824173 1.961832166
37.05834579 14.73383617 3.390297174
36.74595642 14.62463379 4.770887852
39.09160995 15.640131 6.528328896
20.81863403 7.938623428 5.472207546
19.91027832 7.566107273 6.062526703
37.36362076 14.65634823 0.5811914802
37.22320557 14.62051296 1.989981532
37.14183807 14.6168766 3.39584136
36.81414413 14.50265598 4.775924206
40.20497894 15.94664574 6.687021255
22.47857094 8.536941528 4.957855225
21.01852417 7.937494755 5.512302399
19.88002396 7.471916676 6.048752785
37.36592484 14.50453854 0.5849846005
37.0700531 14.40513992 1.986785054
36.57582092 14.23092461 3.355821133
37.59710693 14.67670918 4.858408928
40.69670868 15.98653984 6.754404545
22.54185104 8.471489906 4.965700626
21.79173851 8.173747063 5.681127548
19.804533 7.359327793 6.023122787
37.48242188 14.3997879 0.5881675482
36.86958313 14.17213154 1.982061386
37.68818283 14.5376215 3.433691263
40.51640701 15.74677849 6.72331953
20.94105721 7.734257221 5.485386848
19.90808105 7.321542263 6.044900894
37.57082367 14.28316975 0.5915188193
36.61164093 13.92532063 1.975385308
36.89077759 14.06108952 3.377517223
38.47650528 14.7281599 4.949045658
40.46060944 15.56778622 6.710822105
21.89878082 8.040373802 5.69538784
19.93827248 7.257190704 6.047629833
37.85120773 14.25071716 0.593711555
36.81145096 13.85707283 1.983665943
36.72578812 13.84538174 3.365788937
37.29626846 14.10521221 4.81938076
38.57972336 14.64596844 6.431221962
21.60283089 7.836490631 5.624591827
20.32077026 7.331525803 6.142997742
38.07490921 14.18636036 0.5964342356
38.66411209 14.45143604 2.045675993
36.85764694 13.75685692 3.374946833
38.77516556 14.54369068 4.977111816
38.60100174 14.50646496 6.430380821
21.13819313 7.563240051 5.51602602
19.99759102 7.123950005 6.052724361
38.82288742 14.33406067 0.596424818
37.39076233 13.79507542 2.006109476
36.9119873 13.62975502 3.378699064
38.65540695 14.34805489 4.962208271
38.07331848 14.14252186 6.349225998
21.19476318 7.504870892 5.524435043
20.02308655 7.053620815 6.054141045
37.61929703 13.71045685 0.6061701775
37.56835556 13.71388435 2.01379323
37.41151428 13.68360233 3.413743258
37.39923477 13.70224476 4.824611664
37.97730637 13.95208263 6.331283092
21.21432686 7.427491665 5.52440834
20.33037567 7.09414053 6.129673481
37.55619431 13.53533173 0.6102855206
37.27571869 13.45061779 2.006143332
37.60404587 13.60042095 3.427280188
37.81331253 13.7124567 4.867416859
38.15765381 13.86979008 6.353761673
21.41937447 7.41797924 5.565610409
21.39489174 7.427236557 6.403911114
37.77709961 13.46161652 0.6132656932
36.98976517 13.18523884 1.998798847
37.29986191 13.33403015 3.405991793
38.01110458 13.62942791 4.886830807
38.27378845 13.75425053 6.366745949
21.54277992 7.379933357 5.588828564
21.37022781 7.328080177 6.391784191
37.67349625 13.27200699 0.6175622344
38.00941467 13.42201805 2.034168005
37.31784821 13.18473148 3.407367229
37.99039459 13.47012806 4.882831097
21.36369896 7.240568161 6.384782791
38.45310211 13.41999149 0.6177456975
37.35605621 13.03470516 2.01460886
41.67222977 14.67933273 3.713200569
37.71873856 13.22493458 4.851941109
58.13506699 20.90878677 9.251144409
21.37544441 7.164435863 6.382912636
38.45781326 13.26914024 0.6216211319
37.77001572 13.03931904 2.030215263
39.03824234 13.53965569 3.528477907
37.80651855 13.10796738 4.859768391
58.23773956 20.71653175 9.260757446
21.33186531 7.063528061 6.366393566
38.55964279 13.15408707 0.6250857115
37.26998138 12.70728874 2.015767336
42.52517319 14.66142464 3.77355814
38.12188339 13.07408237 4.89215517
58.36581421 20.53335571 9.274178505
38.57271957 13.00657177 0.6289359331
37.60099411 12.67978477 2.028715849
37.40969467 12.63426018 3.414655924
38.10448456 12.91742897 4.888765335
21.31454468 6.888939857 6.3519063
38.55371857 12.8403368 0.6331109405
37.90779877 12.64137745 2.040920973
39.05912399 13.07739925 3.530814886
38.19932938 12.79403305 4.897447586
65.44917297 22.6193409 10.29287338
21.28618431 6.794931889 6.339659691
38.59152603 12.7098074 0.6366692185
38.10923386 12.56371689 2.049690247
39.01516724 12.908535 3.528100729
38.34910202 12.7047596 4.912236214
58.15098572 19.76838493 9.22814846
21.30497551 6.718231678 6.339798927
38.67090225 12.58627224 0.6402709484
39.77500153 12.99650192 2.107079983
38.37299347 12.53846073 3.483380556
47.19407654 15.65833473 5.861917019
58.27228165 19.58347702 9.241074562
21.52125931 6.711442471 6.391438007
38.70450592 12.44671822 0.6440570951
38.27000046 12.32108688 2.059313536
38.43632126 12.41050053 3.488279104
47.33182907 15.52184677 5.875162125
58.36305618 19.387537 9.249685287
21.64056778 6.669253349 6.417839527
38.81521988 12.33353901 0.6475717425
38.643013 12.29935169 2.073910475
38.41804123 12.25444031 3.487486601
47.50308609 15.39622307 5.892076015
48.17880249 15.6594038 7.769410133
21.48084831 6.529789448 6.371737957
38.72092819 12.15077114 0.6518264413
39.40080643 12.40500259 2.101400852
38.48420334 12.12748718 3.492670298
48.11683655 15.41978168 5.95659399
48.71391296 15.65409946 7.843366623
40.32781601 12.53595543 0.6502684951
39.48855209 12.28145027 2.106618881
38.54426193 11.99833012 3.497469187
48.58794403 15.39118004 6.005835056
48.78186798 15.48810291 7.849724293
40.32318115 12.37827396 0.6543602943
40.8382988 12.57399368 2.154096842
38.66072845 11.88769627 3.506278515
39.75028992 12.27385902 5.05563736
48.81351852 15.31001377 7.850924969
40.42442703 12.25547218 0.658111155
40.8925209 12.43396187 2.158328772
38.72188568 11.75844097 3.511242628
48.61043549 15.02306938 6.00575161
48.90665436 15.15224552 7.861119747
40.5291214 12.13333035 0.6618721485
40.95005417 12.294981 2.162699938
39.94092178 12.00315285 3.597715855
48.70864105 14.8677206 6.015161514
57.26728821 17.67627335 9.066625595
48.7628212 14.59399223 0.6412582397
46.0165863 13.75086308 2.335603714
40.0709343 11.89114285 3.607636929
48.72678375 14.68637085 6.016053677
57.27423096 17.45856667 9.064034462
48.87765503 14.44297791 0.6458520293
46.07678604 13.5933075 2.340426683
39.97227859 11.70639038 3.601507425
56.77605438 17.08127022 8.988603592
48.22411346 14.05315685 0.6526213288
46.15686798 13.45065308 2.345811605
47.75259018 14.00899124 5.909683704
57.13322067 16.98685837 9.037017822
48.18930054 13.86744404 0.6573458314
47.15236282 13.58012199 2.382330418
47.11335754 13.59872723 4.106284618
50.70228195 14.74620438 6.225264072
57.12812042 16.76727867 9.033057213
48.05486298 13.64304161 0.6625657082
47.58882523 13.53278923 2.400057316
49.00120163 14.00239277 4.240360737
47.56445312 13.59658909 5.888012409
56.32638168 16.30481339 8.914279938
48.54414368 13.60645866 0.6661992073
47.57743454 13.34839916 2.402661085
49.34939575 13.91127205 4.266170979
47.59893417 13.42618561 5.891057014
56.45345688 16.12910843 8.929668427
47.58218384 13.12927341 0.6736557484
47.74745178 13.21809387 2.411458492
49.62614441 13.8060751 4.286952496
47.49222183 13.20491028 5.879011154
55.88315582 15.7451725 8.844617844
47.71100616 12.99555397 0.6779295802
47.50074005 12.96523857 2.406103373
49.70741653 13.64194775 4.294013023
50.09434509 13.79771519 6.15747118
55.93050766 15.54762173 8.848760605
63.43385315 17.80951309 12.29687214
47.68617249 12.80800343 0.6828089356
48.01875305 12.94404316 2.426692486
49.28723526 13.34208775 4.265672207
55.864151 15.27976227 6.775463581
56.27494812 15.44704247 8.89594841
48.40090179 12.83996105 0.6858890057
48.10119247 12.7863369 2.432630777
49.23070526 13.14010048 4.263100624
54.96430969 14.82225895 6.678622723
56.35550308 15.25804901 8.905080795
61.71666718 16.84905434 11.97545433
48.63626099 12.70531845 0.690805912
48.09543228 12.58551216 2.435899734
62.2029953 16.59436226 5.180845261
55.30691528 14.69135571 6.714986801
56.41611862 15.04202938 8.911223412
61.78298569 16.61255455 11.98217869
49.42954254 12.74150276 0.6942282319
48.14393234 12.41827202 2.440742016
55.52325058 14.54385376 6.737936974
56.82543564 14.94439602 8.967916489
61.66411972 16.34743881 11.9560051
49.46527481 12.56580544 0.6991674304
48.4001236 12.30765152 2.452762604
55.62025452 14.36243916 6.748183727
56.61587524 14.67387199 8.935627937
61.7074852 16.12849808 11.9593792
47.72769928 11.94548893 2.432833195
57.11271667 14.55838776 6.908060551
56.83913422 14.52274609 8.965745926
61.96680069 15.96840096 12.0019865
49.62060547 12.27890873 2.501273155
57.49237823 14.44653034 6.948770046
57.09383392 14.38943863 9.000580788
58.77033234 14.87889385 11.41954327
49.69316101 12.11288452 2.507167101
57.53459549 14.25409031 6.953399658
59.00374222 14.6811285 9.273468971
59.4268074 14.84488297 11.53463459
50.3264389 12.09142685 2.532538414
60.82505035 14.8946209 7.306234837
59.07991028 14.53332329 11.46820831
50.40613174 11.92472649 2.538791895
63.00794601 15.27044392 9.845777512
58.98150635 14.2887373 11.44688225
81.95773315 19.5950737 0.6904850006
75.13949585 17.93985176 3.40331316
56.98885727 13.51434326 8.979016304
58.65107346 13.98633957 11.38379955
81.99767303 19.30138206 0.6987558007
59.76867294 13.95559502 7.19418335
57.14361954 13.34209919 8.999931335
59.22895813 13.91398144 11.48495197
81.95494843 18.98781204 0.7071207166
74.10713959 17.1326828 3.377836943
62.53919983 14.3710041 5.226727486
56.49999237 12.93435383 6.844352722
56.60342407 12.99841118 8.921093941
59.22937393 13.69543934 11.48192501
62.60324478 14.1557188 5.23385334
56.03674316 12.61424637 6.795311451
56.55247879 12.77746391 8.912685394
58.7044754 13.34970379 11.38422298
56.36738205 12.48651981 6.831466675
56.6702652 12.59737682 8.928628922
58.37331009 13.05457592 11.32168198
56.34916306 12.27506733 6.830306053
56.74889755 12.40761185 8.939060211
58.32461929 12.82867622 11.31027794
75.67652893 16.34955597 0.7440455556
53.11045074 11.28663731 4.566542625
56.23905563 12.04293156 6.819373608
56.7320137 12.2059536 8.935917854
61.90376282 13.48847103 14.2568531
74.29690552 15.82620335 3.411114216
53.05881882 11.08031654 4.565273285
56.18014145 11.83381271 6.813964367
56.67607498 11.985425 8.927240372
59.19409943 12.61034489 11.4623909
71.88780212 15.02069664 3.33136797
61.70630646 12.81865501 5.183669567
50.06731796 10.2649374 6.159175873
57.37890244 11.93539047 9.027640343
49.87028503 10.03882408 6.139034748
48.82434082 9.843214989 7.798780441
64.94158936 13.43603516 12.49404144
52.78214645 10.43928623 4.553071022
50.09024811 9.895258904 6.163770199
48.02240753 9.48291111 7.683351994
60.69335556 12.32059193 13.97789955
71.69874573 14.13213634 0.7828567624
52.17288589 10.11834335 4.512182236
51.47159195 10.00560379 6.313216686
48.35979843 9.379825592 7.731637478
60.21735001 11.99781418 13.87102795
48.7322998 9.13904953 0.78935045
71.1271286 13.81468773 3.325902224
47.59474564 9.010998726 5.898194313
50.24229813 9.6065588 8.001879692
57.60505676 11.18736649 11.1663599
48.66730499 8.957637787 0.794070065
74.89539337 14.3222723 3.466127634
51.1646843 9.533478737 4.44541502
52.09681702 9.768972397 6.382900715
50.26621628 9.42911911 8.005337715
56.86444473 10.83589745 11.03156185
60.60356522 11.65156651 13.94873524
48.82497787 8.812390327 0.7990809679
51.81722641 9.523807526 6.354293823
50.42365646 9.287854195 8.028059959
57.51774216 10.76231384 11.14793968
60.97140884 11.50691795 14.02568245
42.79566956 7.465433121 0.8018212914
52.08505249 9.398539543 6.384496212
48.63403702 8.75014019 7.771292686
50.1399498 9.093776703 9.818045616
60.85736465 11.2745533 13.99829865
47.51625443 8.240352631 2.49804616
51.6587944 9.108757973 6.340419292
55.73055649 9.947038651 8.790699005
49.80186081 8.828403473 9.756169319
60.04207993 10.87286091 13.81852055
41.71244049 6.944343567 0.8102173209
49.6590271 8.473187447 2.57909894
48.23669434 8.280143738 5.974039555
54.71678162 9.552157402 8.645570755
48.56797028 8.420832634 9.533251762
59.86428833 10.63282394 13.7776947
41.69825363 6.791143417 0.8144848943
48.43186569 8.075510025 2.538482428
48.24440002 8.107638359 5.976476669
54.11382675 9.251635551 8.559504509
48.60309982 8.252422333 9.53894043
41.69203568 6.647191048 0.8185450435
49.66423798 8.124938965 2.587007046
52.47478867 8.67208004 4.556220531
49.70545197 8.210426331 6.135262012
51.11365128 8.504670143 8.129232407
49.10090256 8.178295135 9.628068924
60.66168213 10.36059093 13.946558
41.29276276 6.426217079 0.822488606
48.41817093 7.724158287 2.545759439
48.88288116 7.883767605 6.04853487
50.51977158 8.213692665 8.044639587
49.20882034 8.021333694 9.647084236
60.68761063 10.147295 13.95030403
41.28851318 6.276986122 0.8267281651
48.39067841 7.545302391 2.548684359
56.22421265 8.961888313 4.831953049
53.53126907 8.526910782 6.55082655
50.55242157 8.03800869 8.050135612
49.04478455 7.81550312 9.617256165
60.68582916 9.929139137 13.94821548
41.25809479 6.12350893 0.8309431672
48.46300125 7.383898258 2.555272579
54.29167557 8.427942276 4.696218967
51.57981873 7.998080254 6.342751503
49.54875565 7.718502522 9.707802773
60.52913284 9.684196472 13.91270733
41.30722427 5.976262093 0.8354608417
48.81217575 7.259799957 2.572220802
54.56899261 8.27018261 4.719701767
51.61535263 7.809981823 6.348782539
50.18194962 7.603696346 7.998856068
51.1320076 7.801681042 9.992777824
60.77419662 9.498560905 13.96442509
41.2768631 5.815897942 0.8398928046
48.40475845 7.052060127 4.278698444
51.69728851 7.629511833 6.359900951
50.03861237 7.400348663 7.979351521
51.27759171 7.643041134 10.01905823
41.41542816 5.697638988 0.8441268802
48.77146149 6.912503719 2.57862711
48.25322723 6.863205433 4.270678997
52.87518692 7.644276619 6.48905611
49.86965179 7.202977657 7.956189156
57.15828323 8.428970337 11.0779562
60.92176437 9.09923172 13.99428463
41.36593246 5.549237728 0.8481173515
47.72799301 6.574733734 2.544308901
48.10886765 6.676660538 4.263203621
54.67049408 7.748957157 6.684981823
49.37860489 6.946845055 7.886866093
49.24028778 6.960604668 9.652756691
60.66518402 8.840623856 13.93782902
44.14948273 5.81779623 0.856980741
46.00043488 6.131629944 2.484800339
48.81811905 6.605450153 4.317796707
54.92126846 7.582848072 6.714715481
49.50207901 6.781099319 7.906049728
49.18991089 6.768422604 9.644123077
60.71053314 8.620713234 13.94696712
41.483284 5.256606579 0.8572973609
45.79520035 5.936961651 2.481118441
48.37732315 6.356577873 4.289299011
55.04961395 7.396687508 6.731343269
49.61393356 6.621685505 7.923598766
48.87863541 6.545792103 9.58861351
41.89733124 5.176239014 0.8621154428
45.8035965 5.783177376 2.485150099
48.42837906 6.200397015 4.29610014
