# .PCD v0.7 - Point Cloud Data file format
VERSION 0.7
FIELDS x y z
SIZE 4 4 4
TYPE F F F
COUNT 1 1 1
WIDTH 1263
HEIGHT 1
VIEWPOINT 0 0 0 1 0 0 0
POINTS 1263
DATA ascii
-12.30466557 -11.18526936 0.3351793885
-13.19469166 -12.43894863 0.8325767517
-14.66506863 -14.49895 1.455226898
-27.652565 -32.6517334 3.312450409
-29.81443405 -35.74373245 5.096427917
-12.00633526 -10.97874165 2.909715176
-10.79450226 -9.311712265 3.101109982
-10.35928535 -8.726569176 3.410270452
-10.06833458 -8.345261574 3.730261326
-10.7022686 -9.26404953 4.451033115
-10.27552795 -8.687422752 4.701658249
-12.37389851 -11.19169712 0.3350556791
-13.27183533 -12.44708157 0.8341914415
-14.69979286 -14.43404579 1.457452774
-27.77760124 -32.57823181 3.31936717
-29.93854713 -35.64617157 5.102632999
-12.33685398 -11.349473 2.973189831
-10.81277466 -9.261790276 3.098259211
-10.32758141 -8.611268044 3.390156269
-10.11415863 -8.340813637 3.737387419
-10.7601366 -9.269672394 4.463299274
-10.37327385 -8.753383636 4.73746109
-12.43735123 -11.18975449 0.335447073
-13.34557915 -12.45001698 0.8359090686
-14.76709652 -14.41936111 1.460658908
-27.0647831 -31.35769844 3.24985218
-27.80023766 -32.45648193 4.76799345
-11.75992966 -10.46569443 2.844578505
-10.87020206 -9.266231537 3.106121778
-10.24637604 -8.432305336 3.354164362
-11.5729475 -10.295578 4.305541992
-10.73582363 -9.160557747 4.437602997
-10.39633179 -8.717471123 4.734449863
-12.50089836 -11.18751621 0.3358425498
-13.42191696 -12.46073914 0.83738482
-14.82519245 -14.38635731 1.463623881
-27.18806267 -31.30161858 3.256988525
-27.96708488 -32.43992615 4.781745911
-11.42670918 -9.957582474 3.249693155
-10.25347519 -8.373391151 3.347420216
-11.62947655 -10.29498959 4.315192699
-10.88128376 -9.290761948 4.490878582
-10.51942158 -8.816650391 4.783212662
-12.55164146 -11.1721735 0.3370396197
-13.51992893 -12.49498272 0.8384914994
-27.62975121 -31.4331913 1.877070069
-27.0849781 -30.92801094 3.243341446
-27.22223663 -31.18917656 4.658712387
-27.86453819 -32.14886475 6.210318089
-10.88067055 -9.135601997 3.093952894
-10.25444317 -8.306632996 3.338733673
-11.67423248 -10.27382946 4.319513798
-10.81095028 -9.119242668 4.444327354
-10.53304958 -8.763586044 4.774419308
-12.62013054 -11.17577076 0.3370370865
-13.60144997 -12.50634289 0.8400496244
-27.74231148 -31.34873962 1.882999778
-27.04049492 -30.63716507 3.235095263
-27.332798 -31.10400581 4.664422512
-30.28111267 -35.16178513 6.697403908
-10.30984783 -8.314167976 3.348125458
-11.24513817 -9.609553337 4.137980938
-10.87217522 -9.128835678 4.458148956
-12.69085884 -11.1774435 0.3371514678
-13.70371246 -12.54438972 0.8410950899
-27.62883186 -30.96579933 1.881598592
-27.07227707 -30.45076561 3.233816385
-27.35099983 -30.8957653 4.656389236
-30.39006042 -35.04489517 6.70055151
-10.78159904 -8.856822014 3.052345753
-10.36304951 -8.318274498 3.356752872
-11.2933712 -9.597547531 4.144445419
-10.99906158 -9.226564407 4.501689911
-10.59011459 -8.699063301 4.772668362
-12.75354481 -11.17243481 0.3376618624
-13.78442764 -12.54831123 0.8428915143
-27.57484245 -30.66511917 1.88207984
-27.18746376 -30.37595749 3.240108013
-27.04141235 -30.25548553 4.599732876
-27.41903687 -30.82954216 6.063650131
-10.83694839 -8.859414101 3.059840441
-10.41400528 -8.318981171 3.36461401
-11.29677677 -9.521543503 4.132850647
-10.6943264 -8.768652916 4.810921192
-12.82363224 -11.17662239 0.3375764191
-13.88370895 -12.58055687 0.844060719
-27.68410683 -30.56872559 1.887950182
-26.93105316 -29.80284691 3.212696314
-26.89224625 -29.82291222 4.566740036
-11.114995 -9.128353119 2.674830198
-10.87621784 -8.83682251 3.062670469
-10.40631962 -8.238357544 3.352879763
-11.37412262 -9.548161507 4.150657177
-11.13048649 -9.25007534 4.532105923
-10.61963749 -8.594698906 4.756251812
-12.87913895 -11.16154957 0.338691473
-13.99191284 -12.62333679 0.845038414
-27.78141594 -30.46827888 1.893311143
-26.94544601 -29.6002655 3.209994316
-26.97741508 -29.71206474 4.569143295
-10.97003365 -8.88916111 3.080332518
-11.45920658 -9.55502224 3.686344624
-11.42231083 -9.535572052 4.15711689
-10.85932159 -8.817967415 4.396649361
-10.5847683 -8.479139328 4.723232746
-11.90128136 -9.826807976 0.4230702519
-14.09315395 -12.65607452 0.8462142348
-27.32258797 -29.65475464 1.880442023
-27.05408478 -29.52110863 3.215797186
-27.22161293 -29.80751801 4.595021248
-10.81898785 -8.599669456 2.603367567
-11.02097893 -8.884601593 3.086575031
-11.54459476 -9.590559006 3.704108
-11.46341228 -9.51348877 4.160847664
-10.92832279 -8.837664604 4.414102077
-10.54223728 -8.354826927 4.686638832
-11.88416481 -9.72859478 0.4293849468
-11.89180183 -9.762236595 0.901799798
-27.40423775 -29.53994179 1.885218263
-27.24965286 -29.55336761 3.22940135
-27.43496895 -29.86073875 4.616274834
-10.86789227 -8.594189644 2.608344078
-11.65310955 -9.655132294 3.729237556
-11.76829529 -9.833765984 4.26558876
-10.94931698 -8.794238091 4.410135269
-10.59891891 -8.361379623 4.700717926
-11.91369438 -9.69005394 0.4319195151
-11.90281773 -9.700055122 0.9043557644
-11.90345001 -9.728366852 1.376733661
-27.24094582 -29.32394981 3.224703312
-27.52075577 -29.76029396 4.619280338
-10.95594883 -8.638515472 2.621301651
-10.73692608 -8.379635811 2.997808695
-11.79164982 -9.760791779 3.764362574
-11.76988697 -9.758107185 4.253894806
-10.9712925 -8.752305031 4.406680584
-10.64827728 -8.361362457 4.711768627
-11.93182373 -9.637396812 0.4353297055
-11.92538834 -9.656582832 0.9064820409
-11.91055202 -9.661418915 1.377688766
-11.90117741 -9.722571373 1.85056293
-11.88799858 -9.729722977 2.325435877
-11.05545902 -8.69636631 2.636526346
-10.77129269 -8.359932899 3.00037694
-11.64244652 -9.493442535 3.706656456
-11.31839466 -9.10704422 4.070784569
-11.03054905 -8.761919022 4.420392513
-10.67586422 -8.329659462 4.711102009
-11.9691658 -9.612652779 0.4369615018
-11.96714115 -9.633425713 0.9082964659
-11.94355869 -9.627309799 1.379493356
-11.91576576 -9.664962769 1.850506783
-11.91013718 -9.681475639 2.325211763
-11.08104515 -8.663240433 2.636942863
-10.77660084 -8.300098419 2.995051861
-11.54253197 -9.291982651 3.66513896
-11.34362888 -9.066915512 4.068967342
-11.43492985 -9.207150459 4.584969521
-10.77048492 -8.383622169 4.744087696
-12.02209854 -9.603373528 0.4376078844
-12.01135063 -9.613212585 0.9100506306
-11.99653721 -9.617980957 1.381957173
-11.938797 -9.618289948 1.851212382
-11.93827152 -9.640974998 2.32587862
-10.61415482 -8.01000309 2.537611961
-10.81480122 -8.282031059 2.998329163
-11.59268379 -9.28182888 3.671656609
-12.55654907 -10.52527714 4.515061855
-11.29175854 -8.953174591 4.508773327
-10.8561039 -8.425023079 4.772370338
-14.90525055 -13.08784771 0.8491153121
-12.04576492 -9.60376358 1.38429606
-11.98169327 -9.596432686 1.853690267
-11.98121929 -9.619022369 2.32870841
-10.63026524 -7.966317177 2.536233187
-10.87643242 -8.293075562 3.007674932
-11.67475319 -9.311260223 3.688268661
-11.39962578 -8.994109154 4.067584038
-11.10363388 -8.64599514 4.413622856
-10.89455223 -8.406095505 4.777029514
-13.42160606 -11.15583992 0.3397938013
-15.08845901 -13.21187973 0.8487493992
-12.05353069 -9.610025406 1.858736157
-10.65240383 -7.930339336 2.536096096
-10.72603798 -8.041219711 2.962338924
-11.91598511 -9.537258148 3.755012274
-11.45240879 -8.988697052 4.076241016
-11.56567001 -9.153217316 4.601504803
-10.94490433 -8.401924133 4.787599564
-13.4962492 -11.15651226 0.3397734463
-15.34785843 -13.42573166 0.8468275666
-28.32926559 -29.18692589 1.9300282
-28.20954514 -29.24585152 3.288024664
-27.7584095 -28.76000023 4.595228672
-10.68816757 -7.911233425 2.538711071
-10.74846077 -8.004899025 2.961729765
-12.07232094 -9.655062675 3.79462862
-11.84105206 -9.397603035 4.210109234
-13.60951233 -11.61018848 5.472092628
-10.94735241 -8.338022232 4.774507999
-13.56636333 -11.1554842 0.3398421109
-28.59373665 -29.29226875 1.940863013
-27.89117813 -28.64632797 3.256099939
-27.87940598 -28.69612122 4.60318327
-10.68133545 -7.837052822 2.532606602
-10.76195335 -7.957847118 2.958868027
-11.48679733 -8.863836288 3.60163641
-11.91319466 -9.408612251 4.224884033
-10.95787716 -8.284601212 4.765539169
-13.63659573 -11.15410995 0.3399160802
-19.60588646 -18.29354668 0.7659763098
-25.16364861 -24.9718914 1.82770896
-25.1160202 -25.08987999 3.007349014
-28.02702522 -28.65350914 4.614495277
-10.87497425 -8.008852959 2.566657066
-10.80314636 -7.94148922 2.962807894
-11.53748131 -8.852201462 3.608177423
-11.90090084 -9.319960594 4.208920479
-11.55719185 -8.924566269 4.55771637
-10.93463993 -8.187005997 4.73946619
-13.71597195 -11.16306782 0.3393215835
-19.72172356 -18.29540825 0.7684666514
-25.22275162 -24.85940552 1.831376076
-25.11673737 -24.90686798 3.004175425
-28.39177513 -28.88042259 4.657298088
-10.78021336 -7.831945896 2.54334259
-10.80995655 -7.8867836 2.958320618
-11.58022499 -8.834208488 3.612681627
-11.90298843 -9.249526024 4.198421955
-10.96024132 -8.152962685 4.73816061
-13.79504871 -11.1667881 0.3390376568
-19.87146759 -18.33629036 0.7702876329
-25.23734093 -24.69499779 1.833529592
-24.95678711 -24.53491402 2.986906528
-24.92725754 -24.5540123 4.15412569
-10.82465458 -7.822953701 2.547706127
-10.93184757 -7.969833851 2.983049393
-11.59652519 -8.784427643 3.608995914
-11.99446297 -9.286857605 4.220884323
-11.54288578 -8.767429352 4.526069164
-11.02229691 -8.162945747 4.754627705
-13.8656683 -11.16431904 0.3391287029
-20.01596069 -18.36284637 0.7724891901
-24.94171906 -24.16916275 1.825172782
-24.93803024 -24.33330154 2.982113361
-24.98883247 -24.44668579 4.154911518
-10.87192822 -7.813969612 2.552402258
-10.91690922 -7.889203548 2.973089457
-11.39399815 -8.475072861 3.537796497
-12.03172874 -9.255067825 4.222831726
-11.36629295 -8.484361649 4.437972069
-11.08206844 -8.16966629 4.769916534
-13.94555187 -11.17207432 0.338557601
-20.17707825 -18.41422462 0.7741501331
-24.78403854 -23.80105972 1.821506023
-24.98480606 -24.20121002 2.982947588
-25.1267662 -24.42025375 4.16617012
-10.95502472 -7.849858761 2.564349174
-12.92702961 -10.1881237 3.472582579
-11.41052628 -8.424679756 3.534121037
-12.07340431 -9.232091904 4.22697258
-12.89889145 -10.23283291 5.073830128
-11.13617802 -8.165945053 4.78173542
-14.01905251 -11.17188931 0.3384697139
-20.32433891 -18.44809723 0.776117444
-10.60149193 -7.28369379 1.341255546
-24.92878532 -23.95944023 2.974962234
-13.62626934 -10.87203979 2.531986237
-11.15603447 -8.022277832 2.599337578
-11.49397945 -8.456228256 3.551445961
-12.99768734 -10.26978683 5.101128578
-11.19249439 -8.167686462 4.795255184
-14.09925461 -11.17885685 0.3379130363
-20.44962883 -18.45560837 0.7785301208
-24.84777069 -23.69124031 2.964841604
-13.68029881 -10.85144615 2.535964489
-11.20396614 -8.014763832 2.604251385
-13.05056095 -10.17503262 3.48821187
-11.51249504 -8.411485672 3.54884553
-12.81711292 -9.955207825 4.474473953
-13.72684669 -11.04183483 5.392899513
-11.30846786 -8.238835335 4.837281704
-14.18229103 -11.18839741 0.3371761441
-20.59767342 -18.48797417 0.7805349231
-10.61213207 -7.181370258 1.342644572
-24.6652813 -23.30966187 2.94592452
-13.6793108 -10.76760197 2.532203436
-11.27278328 -8.030963898 2.613223791
-13.08654022 -10.13824177 3.489578009
-11.49484062 -8.325220108 3.535277605
-12.57106209 -9.593634605 4.373990059
-11.24315834 -8.097930908 4.792606831
-14.26684093 -11.19900036 0.3363537192
-20.74880219 -18.52252579 0.7825113535
-10.63362885 -7.149001598 1.343883753
-24.73240662 -23.21590233 2.948824644
-13.73833847 -10.75271702 2.536903858
-11.22412109 -7.912518501 2.59936142
-10.81717396 -7.465760231 2.918144703
-11.59274864 -8.372185707 3.556921005
-12.61913109 -9.574528694 4.380033016
-12.16016197 -9.06938076 4.709590912
-11.26827335 -8.062954903 4.791270256
-20.87503052 -18.52795792 0.7849678397
-10.68161392 -7.146417141 1.346027255
-24.76070404 -23.07866478 2.94836092
-24.62132454 -22.97019958 4.056923866
-11.22592068 -7.852538109 2.595369816
-10.84892464 -7.442815304 2.920309305
-11.90344143 -8.660153389 3.642843008
-12.53116035 -9.400082588 4.33731699
-11.44141483 -8.197670937 4.860084057
-10.68619442 -7.063066959 0.5971614718
-10.67882252 -7.089827061 1.34640348
-24.80959892 -22.96533012 2.949706793
-24.78372574 -22.9932766 4.072690964
-11.26958179 -7.840092182 2.599500895
-10.9251318 -7.469950199 2.933465481
-11.9909687 -8.694963455 3.661349297
-12.52582169 -9.321230888 4.324458122
-12.12580872 -8.893115997 4.670886517
-11.39843178 -8.087442398 4.827153206
-10.7125082 -7.039328098 0.5985309482
-10.6756773 -7.014641762 0.973682344
-10.67170334 -7.028902054 1.346624851
-24.82045555 -22.81856537 2.947915316
-24.81755066 -22.87172318 4.070505142
-11.27601051 -7.788910389 2.596677303
-10.96465874 -7.458231449 2.937819958
-11.60135365 -8.193350792 3.536284208
-11.74498558 -8.37432003 4.03610754
-12.17871475 -8.886931419 4.681023121
-11.46868801 -8.106312752 4.847744465
-10.73470497 -7.011071682 0.6001754999
-10.68431377 -6.971662998 0.9753472805
-10.6467886 -6.946160793 1.346250892
-25.00740433 -22.86742401 2.961387634
-14.12541676 -10.86558628 2.577016115
-11.27156067 -7.725997448 2.591800928
-11.07544899 -7.525588512 2.959666252
-11.64481544 -8.177724838 3.541465044
-11.8211174 -8.397181511 4.053830624
-11.74640656 -8.333676338 4.491003513
-11.52929497 -8.110543251 4.863069534
-10.84749126 -7.07848978 0.5957550406
-10.70493412 -6.939239502 0.9768867493
-10.64436245 -6.888739109 1.346644044
-25.31472015 -23.03841782 2.98509717
-14.15432358 -10.81493473 2.577473879
-11.29359818 -7.68975544 2.591831684
-11.10347176 -7.497308254 2.960867882
-10.87181377 -7.258330822 3.302687645
-11.7362442 -8.237446785 4.014024258
-11.83921337 -8.371621132 4.517521381
-11.49949074 -8.013568878 4.83611393
-10.93777275 -7.117563248 0.5931021571
-10.74715996 -6.927517891 0.9781464338
-10.67553616 -6.868151188 1.348193169
-10.78989983 -7.04365921 1.728994012
-14.25293922 -10.84059048 2.587594271
-11.31146908 -7.649069309 2.591087818
-11.09016514 -7.423733234 2.952005148
-10.89495182 -7.226358891 3.302591801
-11.54987621 -7.964613914 3.938266039
-11.8831768 -8.354703903 4.52396059
-11.5523262 -8.008984566 4.847857952
-10.97797012 -7.102070332 0.5938844681
-10.78803253 -6.914131641 0.9794284701
-10.68893814 -6.825687408 1.349148035
-25.21188164 -22.63197517 4.096231461
-11.35750008 -7.636178017 2.595523834
-11.11125565 -7.385351658 2.95131278
-10.88757324 -7.15831995 3.293120861
-11.59412384 -7.947439671 3.944103956
-11.94434547 -8.353180885 4.536831379
-11.62220383 -8.019629478 4.866838455
-14.84496498 -11.15575027 0.3371943533
-10.83575153 -6.910577297 0.9805048704
-10.73357391 -6.816784382 1.351182818
-10.79887295 -6.937240124 1.727790594
-12.02990818 -8.277086258 2.274226427
-12.30853748 -8.598995209 2.771712303
-11.14959621 -7.365752697 2.954835892
-10.91970348 -7.133665085 3.295437813
-11.6526432 -7.948674202 3.955402374
-12.03302383 -8.381147385 4.560823917
-11.63678265 -7.969380379 4.860183716
-14.93637657 -11.16849041 0.3360654712
-10.88216782 -6.90532589 0.9816061854
-10.78924751 -6.822011948 1.353578448
-10.84664059 -6.933475018 1.730965734
-11.96115971 -8.139498711 2.262054682
-11.78791523 -7.974988461 2.668631077
-11.14340019 -7.301148415 2.947872162
-10.9102993 -7.067126274 3.285860062
-11.83170891 -8.079414368 4.008754253
-12.04178524 -8.325203896 4.552968025
-11.64049149 -7.910794258 4.849257946
-15.00731373 -11.15906811 0.3363195956
-10.92449856 -6.89550209 0.9827749133
-10.98280334 -6.971858025 1.360780835
-10.8697958 -6.903342724 1.732027292
-11.99946022 -8.116970062 2.26462245
-11.13820457 -7.238127232 2.941215038
-10.92196178 -7.023658752 3.282568932
-11.92145157 -8.112309456 4.030718803
-13.30760479 -9.617712021 5.051712036
-11.45665359 -7.651057243 4.752363682
-15.07003021 -11.14064503 0.3371245861
-10.97099876 -6.889809132 0.983879149
-10.9134655 -6.894849777 1.734848976
-12.03359604 -8.089952469 2.266624451
-11.75960445 -7.821343899 2.654884815
-11.19637012 -7.242646694 2.949851751
-10.98589134 -7.035825729 3.294649124
-11.86484528 -7.988809586 4.001815319
-12.84260941 -9.048508644 4.85213995
-11.45904827 -7.593317509 4.741368294
-15.14942741 -11.13916016 0.3368368745
-12.10616207 -8.103116035 2.273875475
-11.86663246 -7.87257719 2.670850515
-11.29002476 -7.284023762 2.966970921
-11.03919411 -7.036268234 3.303580284
-11.6575737 -7.707663536 3.921033382
-13.21118927 -9.368216515 4.987607002
-11.49782562 -7.574532509 4.747083187
-15.22337055 -11.13154888 0.3369172812
-19.54018593 -15.59309387 0.8584546447
-25.72620392 -21.99707413 1.878675103
-25.77400398 -22.19458199 3.001957178
-12.17340946 -8.110133171 2.280384541
-13.57606125 -9.591099739 2.986815453
-11.43595791 -7.378962994 2.996509314
-12.8816328 -8.906497955 3.833850861
-11.68890858 -7.680037022 3.923048973
-11.63245106 -7.638435364 4.345196247
-11.54314423 -7.562495708 4.755784035
-15.30720329 -11.13354683 0.3363677859
-19.34009171 -15.27423668 0.8652390242
-25.84500885 -21.95935822 1.884170294
-25.94897461 -22.21382141 3.014182329
-12.24635124 -8.12251091 2.287653208
-13.66084957 -9.605451584 2.997719049
-11.52371597 -7.411930561 3.012043476
-12.87906742 -8.835085869 3.824948072
-11.83474922 -7.771530151 3.964443922
-11.61148548 -7.556525707 4.32656002
-11.56867599 -7.52957058 4.755516052
-15.37995148 -11.1237402 0.3365469575
-19.15623665 -14.97548103 0.8716515303
-26.07042885 -22.02937508 1.893411279
-26.15646362 -22.26494789 3.029160261
-12.27219963 -8.086041451 2.288524151
-14.24127483 -10.12796211 3.1009202
-11.6351862 -7.468428612 3.033149719
-12.7860136 -8.670952797 3.789923668
-11.6329155 -7.519258499 4.324896336
-11.55567551 -7.456716061 4.737894535
-15.4485445 -11.10932446 0.3369984329
-19.04799461 -14.75625992 0.8768517971
-26.17415237 -21.97455215 1.898377419
-26.80726242 -22.76438904 3.081809998
-12.34256649 -8.094936371 2.295424938
-14.27133751 -10.0815773 3.101356506
-12.93418598 -8.736768723 3.335566521
-12.40010166 -8.20892334 3.670557976
-11.70527649 -7.534460545 4.343419075
-11.57017994 -7.41282177 4.73281765
-15.53274441 -11.11009979 0.336464256
-18.97801971 -14.57757282 0.8814228177
-26.49103928 -22.132967 1.910857201
-26.95570374 -22.74924278 3.091675997
-12.40049171 -8.090717316 2.300632477
-14.13397026 -9.865794182 3.070786953
-11.6864481 -7.403741837 3.034519672
-12.42220879 -8.167565346 3.669425249
-12.11451149 -7.875204086 4.033623219
-11.99103355 -7.766850948 4.445959091
-11.57647705 -7.360739231 4.724137306
-15.61850357 -11.11184216 0.3358470201
-18.91975403 -14.41225338 0.8857598305
-27.02618217 -22.50518608 1.931067348
-26.41301727 -22.04120827 3.042929173
-12.93924332 -8.568435669 2.370553732
-14.05676556 -9.7129879 3.051521063
-13.10266209 -8.772117615 3.362940073
-12.51864433 -8.201364517 3.689678192
-12.19568729 -7.895745277 4.052382469
-12.11195755 -7.828507423 4.483158112
-11.62401581 -7.350870132 4.734007835
-15.70015812 -11.10892677 0.3355044127
-18.86623001 -14.25313854 0.8899681568
-27.05924606 -22.37512779 1.933556914
-26.52259827 -21.99039078 3.049567699
-12.99194908 -8.554906845 2.374907017
-14.07407093 -9.656132698 3.049804926
-13.12936783 -8.731176376 3.363038778
-12.6500473 -8.269278526 3.7198596
-12.17691994 -7.815185547 4.037237644
-12.11791706 -7.773163319 4.475148201
-11.64874172 -7.317735195 4.733694077
-15.77335548 -11.09720802 0.3357006609
-18.83464432 -14.11697197 0.8938199878
-27.21302986 -22.36411858 1.940312386
-26.40337181 -21.71327019 3.036857128
-13.18340111 -8.678333282 2.397852898
-14.10378075 -9.611858368 3.050405025
-13.36868382 -8.901486397 3.412997007
-12.71394348 -8.268627167 3.730630875
-12.09710121 -7.674424171 4.001615047
-12.114048 -7.708352089 4.463396072
-11.65851021 -7.269673824 4.726779461
-15.84232521 -11.08094692 0.336165458
-18.81375504 -13.99237919 0.8974786401
-27.35126495 -22.33696938 1.946516991
-26.4293232 -21.58122444 3.036459208
-13.20538235 -8.633110046 2.398051739
-14.11635208 -9.55080986 3.047883272
-13.42389011 -8.887359619 3.419681549
-12.13665009 -7.653422832 4.006410599
-12.24530792 -7.778103352 4.504359722
-12.98856258 -8.534682274 5.305072784
-15.92427635 -11.07683277 0.3358346522
-18.79076004 -13.86670971 0.9011200666
-27.52407646 -22.34251404 1.95394969
-26.58909798 -21.58016968 3.047366381
-13.25424194 -8.614268303 2.401853561
-14.11019897 -9.471776962 3.041971207
-13.37481213 -8.770822525 3.402050495
-26.9118309 -22.0713501 7.746557236
-12.1442585 -7.600885868 4.000499725
-12.27280426 -7.744200706 4.504851818
-13.07304096 -8.551672935 5.32956028
-15.99767685 -11.06401253 0.3360373974
-18.77861404 -13.75246143 0.9045764208
-27.9423275 -22.58259964 1.970122576
-26.73765373 -21.56718063 3.057317734
-26.46683884 -21.3454895 4.158905983
-14.20749283 -9.49375248 3.055001497
-13.48344994 -8.808793068 3.421212435
-27.0058651 -22.00201607 7.754648685
-12.29355526 -7.687007904 4.042065144
-12.33185387 -7.741226196 4.517598152
-13.08691406 -8.498726845 5.322854996
-16.08562851 -11.06458092 0.335362941
-18.75138474 -13.62467957 0.908182323
-28.16867447 -22.63512611 1.979481936
-26.7467289 -21.41930771 3.05552721
-27.10816956 -21.80711937 4.237840652
-14.25224876 -9.464244843 3.058423758
-13.50164223 -8.758420944 3.419331551
-12.9663744 -8.258534431 3.772568941
-12.16148949 -7.498681068 3.989567041
-12.30666733 -7.65599823 4.497811317
-13.19759083 -8.540290833 5.358758926
-16.16210747 -11.05371475 0.3353965878
-18.8164463 -13.58521175 0.9106004834
-27.89497948 -22.21194267 1.970996022
-26.87353134 -21.38459969 3.063648701
-27.31966591 -21.85058975 4.259473801
-13.45269489 -8.64385891 3.401960373
-12.92336082 -8.152999878 3.7531178
-12.59425545 -7.85639143 4.125301361
-13.32278061 -8.576083183 4.878767967
-13.26204395 -8.536097527 5.374263287
-16.2255497 -11.03015614 0.3362205923
-18.98928642 -13.64678764 0.9117005467
-26.17847633 -20.43605042 1.910878181
-26.98731232 -21.33695221 3.070674658
-26.97274017 -21.36266136 4.207137585
-12.96765804 -8.131760597 3.758321762
-12.6781826 -7.875125408 4.144589424
-12.5763588 -7.794409275 4.581487179
-16.29190636 -11.00902462 0.3368682861
-19.0662117 -13.61730862 0.9139841795
-28.45434761 -22.41361237 1.993522167
-26.18186378 -20.42455864 3.000670433
-27.1328373 -21.35791969 4.222030163
-25.85903549 -20.20318031 5.143460274
-14.69438076 -9.684679985 3.675812483
-13.00623417 -8.104928017 3.761929512
-12.74542332 -7.877307892 4.158289433
-12.59129524 -7.747431278 4.577167511
-16.37880325 -11.00656986 0.3362966478
-19.2252903 -13.66356945 0.9153001904
-28.16757584 -21.98501396 1.984493494
-26.24731255 -20.33683777 3.003746986
-26.20269585 -20.33244133 4.093161106
-25.91947937 -20.11214066 5.144881725
-13.03474045 -8.068540573 3.762741804
-12.76468277 -7.833762646 4.156124592
-12.63403702 -7.726930618 4.583523273
-16.45700455 -10.99554634 0.3362513781
-19.32747459 -13.65609074 0.9173039198
-28.46040726 -22.09516335 1.99623239
-27.65925217 -21.49751282 3.11937952
-27.87244606 -21.73467636 4.306934357
-25.95199776 -19.99526024 5.141319275
-27.30554962 -21.294487 6.549833298
-13.05022049 -8.020023346 3.759955883
-12.77948952 -7.786208153 4.152547359
-12.71751308 -7.744463921 4.605379105
-16.52554703 -10.97108364 0.3370071352
-19.45785522 -13.67369843 0.9189946651
-28.49173737 -21.96331596 1.998582721
-27.83266449 -21.50066376 3.131345272
-27.95123482 -21.64896393 4.310973644
-29.36821747 -23.00593758 5.7454772
-27.38718224 -21.2143364 6.554787159
-13.13876343 -8.039476395 3.777514458
-12.84251308 -7.783669949 4.164845943
-12.95495415 -7.904668808 4.685544491
-16.61719704 -10.97135067 0.3361886144
-19.57923126 -13.67703342 0.9209617376
-28.48396683 -21.7965889 1.999513268
-28.07710266 -21.56752968 3.149220943
-28.18387222 -21.70415878 4.335198879
-27.76798248 -21.36205292 5.447618008
-28.65056038 -22.22051048 6.828973293
-13.12521362 -7.964151382 3.766728401
-13.31304359 -8.153614044 4.31000185
-13.12585163 -7.997465134 4.739632607
-16.70662308 -10.96482182 0.3357411921
-19.64777374 -13.63699245 0.9233622551
-28.46739578 -21.6151104 2.000170469
-28.14735603 -21.46629715 3.152438879
-28.27973557 -21.62505913 4.341162682
-27.88212395 -21.3098774 5.458135605
-28.72197723 -22.11517715 6.830321312
-13.2371769 -8.001047134 3.790367603
-13.35462189 -8.127924919 4.314890385
-13.14691544 -7.954036236 4.737472057
-16.79707909 -10.96277523 0.335020721
-19.70234871 -13.579175 0.9260617495
-28.63510132 -21.60780144 2.007403851
-28.67007828 -21.78073883 3.19342351
-28.43643951 -21.60864067 4.355397701
-28.12949753 -21.36987495 5.491923809
-27.80089188 -21.11884689 6.607508659
-13.28414154 -7.981018543 3.796352386
-13.39339447 -8.096380234 4.318451881
-13.18785858 -7.925709248 4.742342472
-16.88619614 -10.95890617 0.3343925178
-19.70035362 -13.47619629 0.9291881323
-28.99725342 -21.77231979 2.021667004
-28.80947304 -21.73862839 3.202357054
-35.1335144 -27.45337486 5.22181797
-28.3368454 -21.39961433 5.518986702
-27.88433647 -21.03126335 6.612287521
-13.31652641 -7.94765377 3.798333883
-13.44493961 -8.07945919 4.326609612
-13.37007999 -8.028209686 4.800708294
-16.97844696 -10.9571991 0.3335992992
-19.76436043 -13.43706131 0.9314441681
-35.65225601 -27.48969269 2.263711452
-29.20663643 -21.94071007 3.232925415
-35.28425217 -27.38846207 5.233629704
-28.33752632 -21.24344063 5.509292126
-27.95982933 -20.95202255 6.616658211
-13.53862476 -8.084046364 3.852353334
-13.52387333 -8.090026855 4.344055176
-13.47990131 -8.06690979 4.832234859
-17.06276321 -10.95209122 0.3330470026
-19.86388969 -13.42378616 0.9334849715
-35.60481644 -27.25893974 2.263382912
-29.32952499 -21.88885117 3.240581989
-35.71037292 -27.57631683 5.281582355
-28.4285717 -21.17604446 5.516187191
-28.7529583 -21.50165749 6.781877518
-13.59617615 -8.074989319 3.861481905
-13.59003735 -8.085441589 4.356902599
-13.53271389 -8.050584793 4.841873646
-17.15075302 -10.9455061 0.3325192332
-19.95650291 -13.40892124 0.9354475737
-35.59420776 -27.05213165 2.264441729
-29.35383224 -21.75807381 3.240202427
-35.70026398 -27.36722946 5.272489071
-28.54115105 -21.11959648 5.526425362
-35.48881149 -27.28686142 8.281150818
-13.61568356 -8.028833389 3.859870434
-13.53676605 -7.977959633 4.331692219
-13.54648113 -8.002573967 4.83748436
-17.23378372 -10.93821716 0.3320607245
-19.96236992 -13.31361389 0.9384160638
-35.45253372 -26.73324394 2.26072073
-35.79462051 -27.20378685 3.770256758
-35.75963593 -27.22000313 5.272460938
-35.87836456 -27.38079262 6.811585426
-36.13317108 -27.65168953 8.408485413
-13.66446018 -8.008485794 3.866268635
-13.67579269 -8.037234306 4.367985725
-13.60787392 -7.993505955 4.850336075
-17.33567429 -10.94240093 0.3307826817
-19.62007332 -12.92034435 0.9447087049
-35.59112549 -26.65796661 2.267163277
-35.76568604 -27.02713203 5.26559639
-35.56642914 -26.91075516 6.744367599
-35.6013298 -26.98797035 8.272509575
-13.68366528 -7.962176323 3.864639759
-17.41697502 -10.92419624 0.3308800757
-19.68641663 -12.87966156 0.946983695
-36.11903763 -26.91411781 2.287777185
-35.8731575 -26.87687111 3.770579815
-35.88402557 -26.93185425 5.273270607
-35.79243851 -26.9089756 6.771990299
-35.77310944 -26.9389267 8.294099808
-13.72935104 -7.938903332 3.870226145
-36.69759369 -27.84511375 11.707057
-17.49932861 -10.91055679 0.3307065666
-19.65424728 -12.75065708 0.9503086805
-36.66743469 -27.1824131 2.309165716
-35.9120636 -26.71417236 3.770741701
-35.90821838 -26.75597954 5.268852711
-36.30547333 -27.14112473 6.849263191
-36.69981384 -27.53556252 8.483572006
-13.75418472 -7.897559166 3.870185852
-36.69802856 -27.6313076 11.67904854
-17.59860229 -10.91060925 0.3296141624
-19.64962769 -12.65059853 0.9531961679
-37.04547882 -27.29213905 2.324436188
-35.94434357 -26.53683281 3.770227909
-35.73587036 -26.40477753 5.238890171
-36.37586975 -27.0024147 6.849469662
-36.30565643 -27.03585815 9.940006256
-36.8122139 -27.52598381 11.68880272
-17.68268394 -10.89732647 0.3293638229
-19.70750809 -12.60322475 0.9554949403
-36.9777832 -27.03647041 2.323361635
-35.7814827 -26.20614624 3.753843069
-35.5978241 -26.09544945 5.213848591
-35.80296707 -26.3218956 6.737472534
-36.81793976 -27.22347641 8.475188255
-36.3565712 -26.88040733 9.932482719
-36.77032471 -27.28828049 11.64915943
-17.77967834 -10.89003563 0.3286374807
-19.82535934 -12.60532188 0.9572600126
-36.46687698 -26.41555595 2.306050062
-35.83133698 -26.05587578 3.754982948
-35.63066483 -25.93157387 5.210802078
-35.87340546 -26.18768501 6.738048553
-36.52291489 -26.77641106 8.393375397
-36.41578674 -26.73254013 9.927333832
-36.84471893 -27.1500721 11.64661789
-17.85776329 -10.87074947 0.328725487
-19.85920906 -12.53282928 0.9598942399
-36.45537567 -26.21261024 2.306970119
-35.88360596 -25.90815735 3.75633812
-35.67348862 -25.77669907 5.209084034
-36.02271652 -26.10968208 6.75181818
-37.22861862 -27.16677094 8.532541275
-37.44503403 -27.39360237 10.18184185
-37.55608368 -27.53399658 11.8438797
-17.93122482 -10.84728813 0.3290617168
-19.93072891 -12.49597645 0.9620550275
-36.50012207 -26.05690384 2.309934378
-36.01084518 -25.81299782 3.763706446
-35.8093338 -25.699049 5.219277382
-36.03568268 -25.92822075 6.742528915
-36.67593002 -26.5004425 8.393681526
-37.31115341 -27.0810051 10.12480164
-37.48603439 -27.27285576 11.79568481
-18.02801895 -10.84228897 0.3281589746
-19.97499275 -12.44152164 0.9642978907
-36.55041885 -25.9062233 2.313090086
-36.06201553 -25.67444992 3.765143633
-35.99744797 -25.6635704 5.236130238
-36.3131218 -25.96426773 6.779117584
-36.75436401 -26.3791008 8.395599365
-37.32988739 -26.89657974 10.10877991
-37.48773193 -27.08284378 11.77166939
-18.12291145 -10.8392992 0.3271585405
-20.01670265 -12.38029861 0.9666842818
-36.6872673 -25.82573509 2.319413185
-36.12346268 -25.5351429 3.767291307
-36.10533905 -25.56189346 5.242774963
-37.35243225 -26.62731743 6.947804928
-36.93954086 -26.33509254 8.420154572
-37.29311752 -26.6677742 10.07819271
-37.6995697 -27.05563927 11.81242943
-18.22935104 -10.84072971 0.3257736862
-20.07851982 -12.33515549 0.9688975811
-36.82550049 -25.74588394 2.325781584
-36.50936508 -25.65722656 3.795951843
-33.45895767 -23.24064445 4.900079727
-39.16023636 -27.8901825 7.247799397
-36.9454422 -26.14504433 8.405529022
-37.42869186 -26.5801487 10.0935421
-18.30150604 -10.81427956 0.3261991441
-20.11513901 -12.26987076 0.9712972641
-23.18640327 -14.72822666 1.824859023
-36.66569138 -25.59257698 3.805840969
-33.57405472 -23.16020584 4.908264637
-37.27297974 -26.17144203 6.910907745
-37.06266785 -26.0453968 8.415316582
-37.59460068 -26.5164566 10.11695099
-18.38623047 -10.79734039 0.3259694874
-20.17036819 -12.21932411 0.9735395908
-33.22653961 -22.53003311 2.19566083
-33.25020599 -22.69441986 3.52462697
-33.50193024 -22.93072128 4.892793655
-36.83367538 -25.62783241 6.824050903
-37.58818436 -26.27095032 8.513951302
-18.47619629 -10.77981567 0.3256805837
-20.2254467 -12.1685524 0.9757726192
-33.22458649 -22.36078453 2.196695805
-36.95626068 -25.44366264 3.823814869
-33.47858047 -22.74147606 4.883568764
-33.68325424 -22.94824028 6.272954464
-37.75234985 -26.20560646 8.533827782
-18.57368088 -10.77174664 0.324803412
-20.32056618 -12.14405632 0.9778347611
-33.16025543 -22.14398575 2.195412874
-33.34168625 -22.4289856 3.52701354
-33.41980362 -22.52569389 4.869948864
-33.87958908 -22.92217827 6.29602623
-37.87926483 -26.11020279 8.545639038
-66.14705658 -48.39653778 17.55698776
-18.65861893 -10.75339031 0.3245797157
-20.34690666 -12.07074261 0.9802560806
-33.19607544 -22.00607681 2.197813749
-32.9885025 -21.97900963 3.495694399
-33.24677277 -22.22266579 4.842037201
-34.01098251 -22.85289574 6.308482647
-66.39588165 -48.23500443 17.58586884
-18.74678993 -10.73701 0.3241956532
-20.14349937 -11.82661533 0.9841284752
-33.12972641 -21.79039574 2.196422815
-32.92657471 -21.77482796 3.488340855
-33.40129089 -22.17526436 4.855391502
-33.7455101 -22.47630882 6.253328323
-39.09418488 -26.66245842 8.776647568
-18.83300018 -10.72282791 0.3237110972
-20.17341995 -11.7576685 0.986453414
-33.19431686 -21.67589569 2.199863434
-33.01497269 -21.6789341 3.493083715
-32.51789856 -21.33186722 4.738595486
-33.66714859 -22.25561523 6.230745792
-39.2135849 -26.55477524 8.786522865
-33.80344009 -22.43185425 9.00829792
-18.91491508 -10.70071411 0.323652029
-20.19507408 -11.68264389 0.9888157248
-33.0350914 -21.39259911 2.194997549
-32.71841049 -21.29059219 3.466651917
-32.56991959 -21.21060944 4.739314556
-34.20806503 -22.50012207 6.312943459
-34.14207458 -22.48524284 7.681508541
-33.77420425 -22.24012566 8.983614922
-19.00967598 -10.6877346 0.3229516149
-20.30768013 -11.67593002 0.990565598
-33.00064087 -21.20539093 2.194737434
-32.86413574 -21.23982239 3.47607708
-32.63095856 -21.09647751 4.741195202
-33.55451202 -21.83591461 6.192497253
-33.77521515 -22.07255363 8.966988564
-19.11897278 -10.68495655 0.3215338886
-20.25989532 -11.54931355 0.9933434129
-33.0550499 -21.08554459 2.197762012
-32.683918 -20.9443264 3.459150553
-32.7504921 -21.02632713 4.750404835
-33.47674942 -21.6122036 6.169935226
-68.24430084 -47.79517746 14.95003223
-33.89900208 -21.99836731 8.982361794
-19.19947433 -10.6602211 0.3215595782
-20.32248688 -11.50510311 0.9953942895
-33.21835327 -21.04631424 2.204825878
-32.36900711 -20.55159187 3.431396484
-32.72780609 -20.84987259 4.74189949
-33.34375763 -21.34907532 6.138189316
-68.52755737 -47.65143204 14.98281956
-33.8940506 -21.82740974 8.964447975
-19.28806114 -10.6409626 0.3211866617
-20.37530518 -11.45350361 0.997497499
-33.44783401 -21.05467987 2.214350224
-32.57051468 -20.54398155 3.445375204
-32.8002739 -20.74480629 4.745295048
-33.45942688 -21.27223587 6.148514748
-34.44326782 -22.03425789 7.693015099
-33.80021667 -21.59140587 8.923751831
-19.41267586 -10.6431179 0.3192479908
-20.42201233 -11.39286613 0.999745965
-33.44660568 -20.89348412 2.215284348
-32.98540497 -20.68336105 3.476425648
-32.87238312 -20.63948822 4.748669624
-33.5260582 -21.15086746 6.150154591
-34.40481186 -21.8295784 7.671213627
-33.87851715 -21.4841671 8.92767334
-33.72402191 -21.40425491 10.26997566
-19.54360962 -10.65314007 0.316822499
-20.5388546 -11.39177799 1.001336694
-33.54022598 -20.80163574 2.219741344
-32.9082222 -20.47720909 3.468037367
-32.93927383 -20.53042793 4.751422405
-33.2376709 -20.77891159 6.092692375
-33.85755157 -21.2713356 7.542875767
-18.56622124 -10.11981201 4.974127769
-33.82446289 -21.32189369 10.28173542
-19.61752319 -10.62567902 0.3169925511
-20.59947968 -11.34514236 1.003372312
-33.67417526 -20.73853493 2.225695848
-32.74306488 -20.20128059 3.452487946
-32.98157883 -20.40368462 4.751156807
-33.32702255 -20.69218636 6.099237919
-33.95706558 -21.18034935 7.551467419
-18.61251259 -10.07223797 4.978079319
-18.84390831 -10.26113987 5.736001015
-19.68528938 -10.58924961 0.3176549971
-20.68443108 -11.31562233 1.005264997
-33.65169907 -20.56346893 2.225805521
-32.78401184 -20.07554245 3.453547955
-32.93280792 -20.21193504 4.739663601
-33.46974945 -20.63570595 6.114301682
-34.68832397 -21.54371262 7.693654537
-18.5363369 -9.936312675 4.950695992
-18.86860085 -10.19646072 5.733668804
-19.72557831 -10.52895641 0.3198260665
-20.8140049 -11.31261635 1.007034302
-33.65612793 -20.40843391 2.226906538
-32.80003738 -19.93242455 3.452619553
-33.0662384 -20.15123367 4.750736237
-17.10739899 -8.805820465 3.372697353
-34.66218948 -21.35913277 7.675555229
-16.34759903 -8.29040432 4.383545399
-18.92023277 -10.1471138 5.739019871
-19.77547455 -10.4753828 0.3215139806
-20.81925011 -11.22167301 1.009462237
-34.11367416 -20.56394768 2.24498868
-32.9527626 -19.87864876 3.462563038
-33.39016342 -20.21667862 4.785027981
-17.27388573 -8.848230362 3.396310091
-18.14239502 -9.477673531 4.183558464
-16.41791725 -8.268724442 4.39458704
-34.56058884 -21.17837715 10.42389584
-19.83306885 -10.43127537 0.3226239383
-20.84661293 -11.1509819 1.011636972
-33.42203903 -19.9236393 2.220024109
-33.11855698 -19.83320045 3.473550558
-17.18737411 -8.698113441 2.784991503
-17.34031105 -8.81893158 3.403212786
-18.19805717 -9.435858727 4.189175606
-16.42582893 -8.206094742 4.390066147
-34.62796402 -21.06144905 10.42487335
-19.87739182 -10.37783051 0.3243505061
-21.29139328 -11.37287807 1.01160574
-33.51748276 -19.83491135 2.224490881
-33.09365845 -19.66965675 3.469482899
-17.21423721 -8.64547348 2.78585124
-17.40339851 -8.79058075 3.409757853
-18.2645607 -9.40913868 4.197658539
-18.47618294 -9.571852684 4.904448032
-34.70698929 -20.96100616 10.43039322
-18.29913712 -9.482521057 6.20170927
-19.92288399 -10.32932186 0.3258138895
-21.34396172 -11.31758785 1.013679624
-33.48240662 -19.65647697 2.224057913
-33.12085724 -19.53532791 3.469494581
-16.65641975 -8.188989639 2.714954853
-17.40610695 -8.723772049 3.406486988
-18.33283997 -9.379469872 4.206228256
-18.35500908 -9.409449577 4.866294384
-18.83852005 -9.764456749 5.676669598
-17.96095085 -9.169218063 6.074725151
-19.95859337 -10.2699337 0.3279077709
-21.28884125 -11.18901253 1.016249418
-33.54727936 -19.54713249 2.227361202
-33.06679535 -19.34580994 3.463026047
-16.77502251 -8.202404976 2.72718811
-17.43959808 -8.674795151 3.408151388
-18.36537552 -9.324871063 4.207327366
-18.35058403 -9.329123497 4.857876778
-34.56149673 -20.53411102 10.34939194
-18.46628952 -9.442790031 6.237910748
-20.01564789 -10.22493267 0.3289837837
-21.29935837 -11.10571194 1.018479466
-34.23297501 -19.85715866 2.253967047
-33.41779709 -19.43288422 3.488927603
-16.70304298 -8.085245132 2.716074467
-17.46964073 -8.623476028 3.409264088
-16.88547897 -8.237817764 3.892886877
-18.34417534 -9.247840881 4.849031448
-34.62973404 -20.41952705 10.35119247
-18.05555725 -9.098176956 6.761460781
-20.08089066 -10.18523026 0.3296662271
-21.33610725 -11.04027653 1.020571351
-34.29184723 -19.74081421 2.257045746
-33.38594437 -19.25882721 3.484253168
-16.87611389 -8.13463974 2.734958649
-17.48308754 -8.56095314 3.4076581
-16.88138008 -8.166254997 3.886987686
-18.6079464 -9.350308418 4.908368587
-18.24573898 -9.122578621 5.473480701
-18.70840454 -9.452087402 6.299679279
-18.10927963 -9.059155464 6.770517826
-20.13607025 -10.13856983 0.3308050334
-21.41092873 -11.00019741 1.022483468
-34.21050262 -19.53127289 2.254843473
-18.03524971 -8.830629349 2.258571386
-33.93141937 -19.49946976 4.814439774
-17.6163559 -8.579100609 3.425822973
-16.97345161 -8.159708023 3.901132345
-18.8433857 -9.431346893 4.960394382
-18.14377022 -8.977944374 5.43469429
-18.19130135 -9.03909111 6.790565968
-20.19112206 -10.09165955 0.3319360316
-21.21018791 -10.77807903 1.025548339
-34.28487015 -19.42609787 2.258484602
-18.14555168 -8.830490112 2.266336203
-16.64558029 -7.845468044 2.702322483
-17.59657288 -8.494229317 3.418776512
-17.10498619 -8.178886414 3.923446655
-18.88912392 -9.383582115 4.964627266
-18.77052498 -9.322547913 5.611397743
-18.37138748 -9.084381104 6.848505497
-20.2295475 -10.02957249 0.3339954317
-21.53733253 -10.89932823 1.026496291
-34.35554886 -19.31845284 2.261979103
-18.16439819 -8.769269943 2.266817093
-16.72581863 -7.832173347 2.709891081
-17.69041443 -8.485032082 3.430436134
-17.07085991 -8.087333679 3.911393404
-16.90013695 -7.986386299 4.458866596
-18.45194054 -9.029285431 5.50829792
-18.35777283 -8.984613419 6.149275303
-18.39508629 -9.023978233 6.845946312
-20.28786469 -9.980396271 0.3351245522
-21.50489616 -10.78425884 1.028921247
-34.43269348 -19.20734978 2.26575017
-18.13624001 -8.6737957 2.263516903
-16.77768135 -7.796471596 2.713894606
-17.88871384 -8.540175438 3.459020615
-17.75102425 -8.462305069 4.046871662
-16.94734001 -7.946282864 4.464153767
-18.40876579 -8.921251297 5.486706734
-18.39231682 -8.928079605 6.150516033
-20.37610245 -9.954398155 0.3347036541
-21.57409096 -10.7398653 1.030815721
-36.17433167 -20.16950798 2.332288027
-18.22811317 -8.656861305 2.269763231
-16.79442406 -7.73774147 2.713639736
-18.04775238 -8.568034172 3.481108904
-17.26513863 -8.070555687 3.941209555
-16.90589333 -7.848184586 4.447328091
-18.39257431 -8.835429192 5.473594189
-18.46528625 -8.896727562 6.164822102
-20.42729378 -9.904269218 0.3359546661
-21.52186203 -10.61757469 1.033154011
-35.991642 -19.89149666 2.326239347
-18.15732002 -8.538264275 2.263147354
-16.85791588 -7.712601185 2.719175339
-18.03908348 -8.489938736 3.475933313
-17.39399529 -8.085107803 3.962866783
-16.97414207 -7.825235844 4.458249092
-18.52749443 -8.848150253 5.504876614
-18.51877403 -8.856107712 6.173044682
-20.48847389 -9.860323906 0.3367417455
-21.55006218 -10.54722118 1.035167217
-35.59799957 -19.48988342 2.312161922
-18.14473915 -8.457888603 2.261164427
-16.81264877 -7.620829105 2.711651325
-18.14682198 -8.486862183 3.489791155
-17.29424286 -7.951987743 3.937455177
-18.6447258 -8.848464012 5.53091526
-18.55591011 -8.808522224 6.176270485
-20.54260826 -9.815864563 0.3376569152
-21.7063446 -10.5619936 1.036614656
-35.91728592 -19.54214859 2.324995279
-18.14027405 -8.386683464 2.259882689
-16.81729698 -7.561470985 2.710194349
-18.19457245 -8.448505402 3.494041681
-17.27531624 -7.875035286 3.928996801
-18.03833961 -8.376905441 4.711114883
-17.61816216 -8.120903015 5.223268986
-20.60358238 -9.771357536 0.3384299576
-21.65769196 -10.44760799 1.038766384
-51.10903549 -28.89019203 2.900248528
-18.06119156 -8.268832207 2.252702236
-16.93087959 -7.567751884 2.72180295
-18.19197083 -8.378203392 3.490110397
-17.38594437 -7.880464077 3.947157145
-18.10040665 -8.344321251 4.720083714
-18.44011116 -8.575740814 5.455667496
-18.84745789 -8.847432137 6.255342484
-20.67634201 -9.733927727 0.3386686742
-21.62090874 -10.33261204 1.041053772
-17.98138237 -8.148014069 2.245433569
-16.74949074 -7.388670444 2.697822809
-18.26615715 -8.349132538 3.498319864
-17.56339455 -7.923627377 3.978726149
-18.15412903 -8.306222916 4.726996422
-18.46324539 -8.512879372 5.454020023
-18.82123566 -8.751184464 6.236352444
-20.74918938 -9.692074776 0.339068234
-22.30899429 -10.66862011 1.040929437
-18.06360245 -8.125210762 2.250941753
-16.73072815 -7.309384346 2.693403006
-18.34882164 -8.328517914 3.508085728
-17.65251541 -7.906918049 3.9919312
-18.19442749 -8.255924225 4.730288506
-18.37246704 -8.382712364 5.419741631
-18.77164459 -8.64471817 6.210157394
-20.80647087 -9.644515991 0.3399716318
-22.40584183 -10.63304901 1.042832017
-41.87769318 -22.54907417 2.554004908
-18.13068581 -8.096120834 2.255298615
-16.73895454 -7.250393867 2.692357302
-18.80417824 -8.53353405 3.578009605
-20.78505325 -9.772139549 4.626232624
-19.86624908 -9.217797279 5.136301517
-18.30568314 -8.26499176 5.392204762
-18.90629768 -8.649559975 6.245181561
-20.87376976 -9.606952667 0.3402540684
-22.40799522 -10.5486517 1.044800162
-41.99339676 -22.43560791 2.559289217
-18.14151955 -8.032382011 2.255217075
-16.83352089 -7.244336605 2.701699257
-17.58762169 -7.72972393 3.969257593
-20.07666588 -9.267361641 5.181157589
-18.5676403 -8.35743618 5.460725307
-20.94798088 -9.569104195 0.3403971791
-22.30034065 -10.39411449 1.047159314
-50.52462006 -27.38344002 2.883792877
-18.16575432 -7.976936817 2.256197691
-17.12727547 -7.358372211 2.734929562
-18.4750843 -8.189854622 3.517695427
-17.66648483 -7.709696293 3.980655193
-20.00839233 -9.145644188 5.157408237
-18.58826637 -8.296946526 5.458948135
-21.02899933 -9.534963608 0.3402376473
-22.48389626 -10.41454792 1.048685312
-50.46328735 -27.12378311 2.882533073
-18.25135994 -7.958421707 2.262017727
-17.16793633 -7.317684174 2.737762928
-18.61193275 -8.200510025 3.536203861
-17.72006607 -7.673956871 3.986914396
-19.8975811 -8.999256134 5.123347282
-21.11860085 -9.505457878 0.3397037983
-22.54559898 -10.3615551 1.050544858
-41.3615036 -21.51374435 2.537913561
-17.71816826 -7.570718288 2.219128132
-17.19138908 -7.266624451 2.738543749
-16.76085091 -7.022491455 3.234672546
-17.93590927 -7.735049248 4.026072502
-19.94547653 -8.949305534 5.128318787
-21.19957924 -9.470410347 0.3395382166
-22.47604752 -10.23137093 1.05272162
-50.24557877 -26.55311203 2.876344919
-18.49658775 -7.963568211 2.279469252
-17.25061226 -7.236771584 2.743611574
-16.86169434 -7.019248009 3.247795343
-18.03204727 -7.72332716 4.040910721
-19.91076851 -8.850159645 5.113118172
-18.56864548 -8.06762886 5.430519104
-18.55511665 -8.071145058 6.083016396
-18.89974213 -8.288702965 6.882443428
-21.27707672 -9.432909012 0.3395173252
-22.58213997 -10.2044096 1.054442406
-50.22528458 -26.32225227 2.876587391
-18.47576332 -7.880744934 2.27691102
-20.27798271 -8.948984146 3.103031874
-16.89778137 -6.977237701 3.250506878
-18.14186287 -7.719029903 4.058496475
-18.84198952 -8.142202377 4.845553875
-18.53132057 -7.973741531 5.412372112
-19.086483 -8.313271523 6.249775887
-21.35977936 -9.393894196 0.3394313455
-23.20618057 -10.47580719 1.054980278
-50.11221695 -26.03887939 2.873283863
-18.60805893 -7.887455463 2.286386728
-19.76896095 -8.573707581 3.039916992
-16.96112442 -6.951033115 3.257599354
-18.16164398 -7.66141367 4.057894707
-19.00862885 -8.166976929 4.880029202
-18.47676659 -7.870424271 5.389400482
-18.94101524 -8.153775215 6.192772388
-21.46841431 -9.37339592 0.3380770385
-22.60891533 -10.03800392 1.058385134
-50.04283905 -25.78245163 2.871623278
-19.16402817 -8.137670517 2.329097986
-19.73472404 -8.477757454 3.033515453
-16.91948318 -6.860620022 3.247738123
-18.07038879 -7.539566994 4.034957886
-18.34428024 -7.719145775 5.343914032
-19.03398514 -8.130976677 6.214088917
-21.56151199 -9.339273453 0.3375445306
-23.40869713 -10.40386581 1.058645368
-49.93166351 -25.49306107 2.868400097
-19.20914078 -8.086969376 2.331648827
-19.75514984 -8.409983635 3.033532858
-16.81072807 -6.735508442 3.22735095
-17.97307587 -7.412002087 4.010682106
-19.87900162 -8.517818451 5.078930378
-18.35242081 -7.653932095 5.339126587
-18.95045471 -8.009497643 6.177824974
-19.24248886 -8.189583778 6.968559742
-21.65282631 -9.307753563 0.3369233012
-23.58238029 -10.40551281 1.06038022
-49.89454651 -25.25807381 2.867930889
-19.650877 -8.275262833 3.018865824
-17.00908852 -6.783274651 3.255908012
-17.90784264 -7.307304382 3.993175745
-19.80128479 -8.396879196 5.053717136
-18.33310699 -7.569779396 5.326229572
-18.97134781 -7.94516468 6.175567627
-19.04458427 -8.002055168 6.884662628
-21.73715019 -9.271846771 0.336591512
-23.72119713 -10.39103413 1.062093019
-45.19878387 -22.40950394 2.689868927
-19.05908203 -7.85366869 2.317994833
-19.85770607 -8.31333828 3.041054487
-16.923666 -6.672457695 3.239327192
-17.63760567 -7.084385395 3.934435368
-19.73985481 -8.282418251 5.032260418
-18.32036591 -7.493287563 5.315642834
-19.5392437 -8.194764137 6.352959156
-19.26416397 -8.050105095 6.955705643
-21.84768486 -9.249970436 0.3351632059
-23.68168831 -10.27689743 1.064127088
-49.69220352 -24.7100563 2.862101316
-19.07731438 -7.792350292 2.318511009
-19.65875816 -8.126860619 3.015224695
-17.0986805 -6.708396912 3.264261723
-17.68601608 -7.046062469 3.939906836
-19.62673187 -8.143631935 4.998729229
-20.24366188 -8.504629135 5.854940891
-19.51391983 -8.105726242 6.335851669
-21.96003532 -9.22841835 0.3336627781
-23.94841194 -10.33166599 1.065616965
-46.00135803 -22.47016144 2.722129583
-19.13721466 -7.754190922 2.322289467
-44.41213226 -21.76729393 5.943556786
-17.32954216 -6.773949146 3.298024654
-17.78427315 -7.035258293 3.955355644
-18.41487503 -7.395119667 4.700132847
-19.43181229 -7.974824429 5.617058754
-19.41426277 -7.97576189 6.294596672
-19.3412838 -7.946075439 6.964241028
-22.08650589 -9.213839531 0.3315832317
-24.40191841 -10.48613071 1.066838622
-49.50637054 -24.188694 2.856780529
-19.17954063 -7.706125736 2.324695587
-44.27825546 -21.50673676 5.92220211
-17.36317635 -6.729099751 3.300412655
-18.05001068 -7.116057873 4.004216671
-20.02191353 -8.212837219 5.081870079
-19.51369095 -7.94652462 5.632977962
-19.34379959 -7.874001503 6.955265999
-22.20078278 -9.191859245 0.330014199
-24.8039608 -10.60903931 1.06820035
-49.43179321 -23.94038773 2.854793549
-19.56542015 -7.85445261 2.997655869
-17.39318848 -6.682210445 3.30224061
-18.19200706 -7.127080917 4.028301239
-19.85276222 -8.044550896 5.035059929
-19.43541718 -7.840398788 6.284397125
-19.35935402 -7.809340954 6.951197624
-22.31512451 -9.169213295 0.3284460604
-35.00377655 -15.9777317 1.055898309
-40.86021805 -19.13651657 2.528011084
-18.06804657 -6.963958263 2.236222506
-19.47335434 -7.731831551 2.98466444
-18.55251312 -7.255442619 4.095834732
-19.92517281 -8.009133339 5.046474457
-18.87402344 -7.452061653 5.438108444
-19.37298012 -7.743778706 6.946499348
