# .PCD v0.7 - Point Cloud Data file format
VERSION 0.7
FIELDS x y z
SIZE 4 4 4
TYPE F F F
COUNT 1 1 1
WIDTH 1281
HEIGHT 1
VIEWPOINT 0 0 0 1 0 0 0
POINTS 1281
DATA ascii
-15.4492836 -6.599064827 4.965544224
-14.6057682 -6.266269684 5.318674088
-13.50124645 -5.9416852 0.3441693783
-49.22118759 -19.21504974 1.004520059
-44.92366028 -17.65957451 2.661871433
-43.42093658 -17.04599762 4.220099449
-20.88680649 -8.638004303 3.221611261
-16.54603195 -7.006587029 3.340109825
-15.10871506 -6.457519531 3.694005013
-14.47917938 -6.204984188 4.130805969
-15.68260956 -6.622695446 5.021591187
-17.0549469 -7.101311207 6.070343494
-11.92584229 -5.308679104 0.3953092992
-49.37489319 -19.07637215 1.000195742
-45.12538147 -17.56451797 2.663867712
-43.58781433 -16.93490601 4.224651337
-20.88033485 -8.552679062 3.215702534
-19.18062782 -7.906250954 3.741152048
-15.46311092 -6.526433468 3.756842136
-14.55766678 -6.178822517 4.143465042
-14.90311718 -6.259987354 5.396411896
-12.03761864 -5.299963951 0.3909537792
-9.086859703 -4.20902729 0.8257595301
-44.87470245 -17.28525352 2.646417618
-43.61103821 -16.76202965 4.217460632
-44.56768417 -17.05532455 5.959300995
-15.80682182 -6.608488083 3.216762543
-15.4209795 -6.446986675 3.7432127
-14.66929245 -6.158288479 4.163167477
-15.41997242 -6.404635429 4.937012196
-15.90755844 -6.554984093 5.698819637
-11.91823196 -5.206958771 0.3942085505
-49.41521072 -18.69093895 0.9901128411
-44.71562958 -17.05046844 2.633187771
-43.86730194 -16.68189621 4.229025841
-18.76762581 -7.626370907 2.960629702
-18.3230381 -7.444494247 3.598117828
-15.45353889 -6.397651672 3.744212389
-14.77912331 -6.136353016 4.182423115
-15.53923607 -6.382763863 4.961974621
-17.50038719 -7.051916599 6.182055473
-10.83187485 -4.771921635 0.4294727743
-49.46876526 -18.50576782 0.9850754738
-45.20759201 -17.04101944 2.646472216
-60.72063446 -22.49308586 5.538777351
-18.78183937 -7.557448387 2.957740307
-18.3304081 -7.371284485 3.59369278
-15.38848877 -6.310859203 3.726336241
-14.74785805 -6.067183495 4.169575214
-16.2049427 -6.553730488 5.1337924
-15.0814991 -6.139514923 5.428801537
-11.76129341 -5.057795048 0.3980928957
-49.55820084 -18.34303665 0.9804184437
-45.71421814 -17.04215813 2.660571098
-45.34024048 -16.84588242 4.326546192
-18.81268883 -7.494430065 2.9567945
-15.89362335 -6.448812008 3.216110706
-15.24211407 -6.199514389 3.693305016
-14.76246548 -6.014287949 4.167304993
-16.36434174 -6.545029163 5.169528008
-15.02934837 -6.062358379 5.405575275
-10.60377216 -4.607256413 0.4358346164
-49.57230759 -18.16355515 0.9757094979
-44.39287949 -16.34735489 4.244492531
-18.90532494 -7.452755928 2.962976217
-15.69982243 -6.319621086 3.182039738
-15.15193081 -6.111738682 3.671357393
-14.78243256 -5.963254452 4.166299343
-16.26145363 -6.445812225 5.135071278
-15.09959126 -6.030258656 5.42037344
-11.7816534 -4.975104809 0.3961285949
-11.74714279 -4.946568966 0.8309882283
-45.36354065 -16.50759315 4.311406612
-18.97344589 -7.402143478 2.966331244
-15.67672729 -6.253398418 3.174321175
-15.17405701 -6.060000896 3.670598269
-19.3394928 -7.45166254 5.200999737
-16.79830933 -6.566435337 5.271883965
-15.04688835 -5.953526497 5.397154808
-11.90167427 -4.970201969 0.3914628625
-61.0447998 -21.67578697 5.518494129
-19.0440731 -7.355733871 2.970196247
-15.54738808 -6.148578644 3.150283813
-17.79603195 -6.885300159 4.16326952
-15.97585678 -6.25017643 4.427475929
-17.71797562 -6.807425976 5.510000706
-15.08043766 -5.908905029 5.400784969
-13.10996437 -5.334776402 0.3505301774
-49.97294617 -17.72839737 0.9623231292
-11.72968483 -4.864574432 1.261507988
-60.96806717 -21.41225243 5.501027107
-18.84424019 -7.214644909 2.942903042
-15.38467026 -6.036766529 3.121502876
-17.86013412 -6.837323189 4.169677258
-16.68426132 -6.425625801 4.583054543
-17.71952629 -6.742424965 5.503462791
-15.18592072 -5.884823799 5.426074505
-13.12530136 -5.289030075 0.3492576778
-50.07120895 -17.56721497 0.9576051831
-18.60858536 -7.067027569 2.911859989
-15.28054714 -5.942661762 3.101502419
-17.86053085 -6.768087387 4.164050102
-16.79488945 -6.397025585 4.602108479
-18.36902428 -6.885168076 5.668804169
-15.2749815 -5.854735374 5.446328163
-12.91650391 -5.169237137 0.3554748893
-50.07017136 -17.37304306 0.9525405765
-18.92878151 -7.099746704 2.944063187
-14.94821262 -5.775101185 3.047097206
-17.79512978 -6.677655697 4.146054745
-17.28686905 -6.491007328 4.707613945
-18.42170334 -6.830956459 5.675337791
-15.25060844 -5.787752151 5.432024479
-12.83435154 -5.092523098 0.3574651778
-50.20532608 -17.22361183 0.9479116797
-68.02771759 -22.99619675 6.008700848
-19.06592941 -7.070926189 2.955338717
-15.05204964 -5.750756264 3.058717728
-17.85865402 -6.62923193 4.152441502
-16.74427032 -6.250848293 4.578590393
-19.50909615 -7.105513573 5.956021309
-15.30286694 -5.745346546 5.441113949
-12.98201275 -5.090706825 0.3517426252
-50.02967834 -16.97372246 0.9422944784
-69.47927094 -23.29772758 3.554818392
-62.33110428 -20.90556335 5.559986115
-19.20121193 -7.040617466 2.966372013
-15.14646816 -5.722743511 3.06889677
-19.02178383 -6.928872585 4.36567688
-16.69053268 -6.169302464 4.560515881
-19.2684803 -6.954689503 5.884619236
-15.31835079 -5.691174507 5.439059258
-12.91841507 -5.020513535 0.3531010151
-50.25232697 -16.86170578 0.9381586909
-69.46206665 -23.02477074 3.544253111
-62.38234329 -20.69386292 5.553037167
-19.0065937 -6.905235291 2.940015554
-15.15589237 -5.667405128 3.066279173
-19.04954147 -6.868017197 4.365319252
-17.04706383 -6.216210842 4.635132313
-19.34375 -6.903895855 5.896917343
-15.25019741 -5.614116669 5.412030697
-12.99104881 -4.996319771 0.3499093652
-50.22184753 -16.659338 0.9329918027
-69.40185547 -22.75231743 3.532519817
-19.25354576 -6.909284115 2.963684559
-15.30795956 -5.659367085 3.08529973
-16.03136635 -5.861203194 3.793572187
-16.83329582 -6.0881567 4.581326962
-19.34924126 -6.835010052 5.891201973
-15.31482601 -5.575281143 5.42499876
-11.36571884 -4.44055748 0.4039741755
-50.35103226 -16.50712395 0.9282774925
-69.45887756 -22.50402451 3.524967909
-69.2883606 -22.35318565 6.055389881
-19.04935646 -6.776216984 2.936595678
-18.27156067 -6.510360241 3.525341034
-16.05643463 -5.807426453 3.793407917
-16.89285278 -6.041770458 4.588932991
-19.99032402 -6.954986095 6.052577972
-15.34626293 -5.526072502 5.427941799
-11.50978565 -4.441442013 0.3984011114
-50.42622375 -16.33779716 0.9233910441
-19.02812004 -6.696891308 2.930012465
-15.82443333 -5.698712349 3.15455842
-15.00320053 -5.428280354 3.591734886
-15.32691193 -5.506713867 4.231328487
-19.9505806 -6.866668224 6.034483433
-19.72325134 -6.769522667 6.743072987
-11.39004707 -4.361200333 0.4017410576
-50.50466537 -16.16930389 0.91849792
-69.12815094 -21.77538872 6.018358231
-18.87326431 -6.57770443 2.908453465
-17.7039032 -6.200856686 3.431116581
-14.96826553 -5.360625267 3.580750704
-15.19892311 -5.410263538 4.197435379
-21.32041359 -7.194861412 6.386671543
-17.56908798 -6.061644554 6.085244179
-12.03385067 -4.510949135 0.3791753948
-50.49630737 -15.97470951 0.9133722186
-18.69493103 -6.452877522 2.884358406
-15.9131012 -5.60426569 3.159646988
-15.02370167 -5.319933414 3.5866642
-15.25621605 -5.369165897 4.205183506
-17.93902206 -6.128517151 5.491942406
-19.93294144 -6.679964542 6.789740086
-11.91790676 -4.43093729 0.3823558986
-50.39129639 -15.75208187 0.9080164433
-68.8292923 -21.16146469 5.971289635
-18.80410004 -6.41382885 2.892553568
-16.34782028 -5.670601845 3.220300436
-15.11118221 -5.288238049 3.598545551
-15.36413288 -5.34237957 4.224264622
-19.58492661 -6.533636093 5.916298866
-19.39578438 -6.450567722 6.620017052
-12.75511551 -4.630518436 0.3530738652
-50.63100052 -15.63093948 0.9034703374
-69.83494568 -21.19261169 6.034728527
-23.10619164 -7.587221622 3.369195223
-17.18086052 -5.84843874 3.339941263
-15.02449417 -5.206101894 3.578067541
-15.38743019 -5.290762901 4.224423885
-19.79347801 -6.518548489 5.96364069
-19.39162445 -6.375851154 6.610876083
-12.78720284 -4.591555595 0.3511574268
-50.79296112 -15.49563313 0.8989616036
-76.77063751 -22.93174934 6.543079853
-24.99785423 -8.03991127 3.575240374
-17.59634972 -5.90146637 3.397274494
-14.92150688 -5.122950554 3.554869175
-15.39173126 -5.233741283 4.220378876
-19.83867073 -6.460046768 5.968604088
-19.39731407 -6.307719707 6.605162144
-12.52441311 -4.470837116 0.359354496
-50.82181931 -15.32174683 0.8941418529
-24.4726429 -7.836728573 2.61826086
-18.61934853 -6.15177393 2.860212803
-17.47583389 -5.804515362 3.375292301
-14.92053223 -5.069132328 3.550653219
-15.4195509 -5.186240196 4.2218647
-19.42684746 -6.246245384 6.606659889
-12.66119957 -4.464517593 0.353890568
-50.93674469 -15.17211533 0.8894879222
-24.45342064 -7.743688107 2.612799883
-18.74031639 -6.118755341 2.86995244
-14.91556835 -5.014322758 3.545734882
-15.46985626 -5.144809723 4.228377819
-17.63630295 -5.716571331 5.381427288
-20.17568588 -6.379986286 6.82339859
-12.05658054 -4.251339436 0.3738467097
-21.1595459 -6.754357815 0.8278912306
-21.15414429 -6.770799637 1.595325708
-21.17267036 -6.750086308 2.364461184
-18.90537262 -6.097109318 2.884560347
-17.485569 -5.682109833 3.368607759
-14.93320465 -4.965795994 3.545026779
-15.49929428 -5.097475529 4.230269432
-17.68822861 -5.667507648 5.389015675
-18.11739159 -5.756359577 6.200907707
-21.18137932 -6.694818497 1.593336821
-24.43668747 -7.550673485 2.602951288
-18.92643929 -6.028256893 2.882796764
-15.88580704 -5.182126999 3.128440619
-14.95282745 -4.909358501 3.544090986
-15.50740051 -5.038510323 4.226970196
-17.74444389 -5.609341145 5.3968153
-17.74448776 -5.583134651 6.081943512
-10.98597431 -3.86950922 0.4090847671
-51.21128082 -14.66304493 0.8742291927
-24.49654388 -7.475132465 2.603229523
-17.65521812 -5.617759228 2.738454103
-15.92960644 -5.134213924 3.131079197
-14.99747944 -4.865109921 3.548205137
-15.51076508 -4.981265068 4.22290802
-17.71247101 -5.534465313 5.382384777
-18.06258774 -5.599345207 6.169949055
-12.48736095 -4.228392124 0.3565120101
-10.96943092 -3.808613539 0.8050451279
-77.88219452 -21.61834717 3.72913003
-77.58152008 -21.42909813 6.524645329
-17.666008 -5.554540157 2.736055136
-15.94836617 -5.079525471 3.130050182
-15.06106091 -4.825561047 3.555811882
-16.37338829 -5.146866798 4.408934593
-17.75533104 -5.479239464 5.387425423
-18.17812157 -5.56137991 6.197503567
-12.75597286 -4.252361298 0.3463707566
-51.32541656 -14.31044388 0.8640258908
-77.81930542 -21.20139885 6.529140472
-17.76511574 -5.514294624 2.743401289
-16.02828789 -5.040599823 3.13801384
-15.01393127 -4.757212162 3.54310298
-17.29612541 -5.321492672 4.607760906
-17.77357674 -5.417565823 5.38613224
-18.094244 -5.472302437 6.165773869
-12.56628895 -4.15574646 0.3520697951
-51.40869141 -14.14077568 0.8589406013
-17.88921165 -5.479820251 2.753479004
-16.12540436 -5.00556469 3.148489237
-15.09822559 -4.722575665 3.554542303
-17.31565285 -5.261928558 4.606863022
-17.77467537 -5.35158062 5.380458355
-11.67548847 -3.879530191 0.382095933
-51.39447403 -13.94608974 0.853711009
-19.74394417 -5.877303123 2.953176975
-16.08033943 -4.934258461 3.138167381
-15.76904869 -4.833645821 3.673307896
-17.26740646 -5.182314396 4.590820789
-17.70473289 -5.264895916 5.356223106
-12.6724968 -4.086778164 0.3465853631
-51.6589241 -13.8215456 0.8488126993
-18.71717834 -5.549045563 2.836864471
-16.56628799 -4.991500378 3.205208302
-15.99526215 -4.83063364 3.710512877
-17.29595375 -5.125142097 4.592009068
-17.80629921 -5.227088928 5.376881599
-12.38803005 -3.971700191 0.3556586802
-51.60049057 -13.62536144 0.8437702656
-17.90974426 -5.285488605 2.745128155
-16.32025146 -4.873276711 3.165773392
-15.93002892 -4.758491993 3.694662333
-15.81939888 -4.708884716 4.262839794
-18.01535797 -5.214397907 5.425205231
-12.48546791 -3.951987028 0.3514221907
-51.76118088 -13.47358513 0.8386918306
-16.70907593 -4.909128189 3.218848944
-15.69658947 -4.643870831 3.648023844
-15.80945587 -4.650887966 4.256312847
-12.64562607 -3.944431543 0.3449261189
-51.71719742 -13.27198982 0.8333970904
-18.9670639 -5.40747118 2.853523254
-16.68853378 -4.842525482 3.212122917
-16.55728531 -4.787854671 3.800650358
-15.86662865 -4.605801582 4.264315128
-17.67936325 -5.003166676 5.327409267
-11.69333935 -3.672224522 0.3774224222
-11.7072401 -3.661211014 0.7968372703
-18.9577198 -5.33530426 2.848870039
-16.64457703 -4.770733356 3.202042341
-16.57998276 -4.735064507 3.800803423
-15.75020504 -4.520505428 4.234342098
-17.73378372 -4.950354099 5.3358078
-12.69124031 -3.864274263 0.3415463567
-18.88607597 -5.248981953 2.837485552
-16.52436256 -4.684965134 3.181148291
-16.61662865 -4.682321548 3.803307056
-15.7300396 -4.460817814 4.225737572
-17.31406975 -4.793939114 5.223044872
-12.55924034 -3.787326813 0.3452709913
-51.77353668 -12.72350407 0.8179235458
-18.82300758 -5.168702602 2.827260971
-16.43726158 -4.604567051 3.164943457
-16.84914207 -4.673249245 3.841330528
-15.71028042 -4.398558617 4.217056274
-17.28255844 -4.723284721 5.209652424
-12.70175266 -3.773483515 0.3393197656
-51.74617004 -12.52747059 0.8126426935
-19.15636635 -5.173923492 2.859790087
-16.31692505 -4.517545223 3.144008636
-21.91340828 -5.72628212 4.753798008
-15.70938301 -4.340666771 4.212543964
-17.33798599 -4.671860218 5.218556404
-12.68042564 -3.722227573 0.3391352296
-51.81765366 -12.35376835 0.8074016571
-19.30154991 -5.13553524 2.871900558
-16.28325844 -4.450385094 3.135653496
-17.95944595 -4.789963245 4.033790112
-15.71592426 -4.284470081 4.209696293
-17.41224289 -4.624157429 5.232292175
-12.96204662 -3.735101223 0.3281617463
-51.77130127 -12.1542387 0.8021104336
-19.31716728 -5.064718246 2.869839191
-16.29773331 -4.393877506 3.134275198
-17.02932358 -4.526265144 3.861571312
-17.10088539 -4.51680994 4.506437302
-17.40728378 -4.556177616 5.225586414
-12.65326977 -3.621424675 0.3381570876
-51.75352097 -11.96143246 0.7968302369
-21.31849289 -5.418073177 3.081656456
-17.65763664 -4.617479801 3.326177359
-17.04220009 -4.46670866 3.859834671
-16.94716835 -4.422366619 4.46849966
-23.7948513 -5.810084343 6.847095966
-12.45878983 -3.536484718 0.344170928
-51.81919479 -11.78656769 0.7915567756
-21.355793 -5.348042965 3.081783056
-17.99400711 -4.625870228 3.370965004
-18.07932091 -4.617656708 4.042532444
-16.96679115 -4.36760664 4.46851778
-23.36657715 -5.640715599 6.731575489
-12.55200481 -3.510510206 0.3398983777
-51.85881042 -11.60612965 0.7862671018
-21.76232529 -5.357339859 3.121719599
-18.11973953 -4.585855007 3.38526392
-17.9361496 -4.52286005 4.012565136
-16.96959496 -4.306325912 4.464704037
-23.39694595 -5.561582565 6.732568741
-12.89435768 -3.532450199 0.3266499937
-51.8095932 -11.40765572 0.7809769511
-21.72611618 -5.266916275 3.113744736
-18.29203033 -4.554314613 3.406208754
-17.87367439 -4.445200443 3.99719739
-17.33365631 -4.313117504 4.538901806
-23.36692619 -5.466300011 6.717965603
-51.83023834 -11.22371864 0.7756770849
-21.77464294 -5.197548866 3.115065575
-18.12677383 -4.452153683 3.378679514
-17.92108154 -4.389470577 4.001605988
-17.8817997 -4.355995655 4.652971745
-23.51106834 -5.408998013 6.747941494
-51.7952652 -11.0290184 0.7703875303
-83.19885254 -17.13066292 6.688679218
-21.50463867 -5.066251278 3.082406282
-17.9451046 -4.329015732 4.00184536
-16.91324425 -4.110592842 4.439555645
-23.39108086 -5.305334568 6.711351395
-12.77537727 -3.371590137 0.3279747367
-51.74801254 -10.84183788 0.7653715611
-24.5177002 -5.599995136 2.52306056
-21.39936066 -4.972199917 3.067607641
-26.38190079 -5.88237524 4.548360825
-18.63043785 -4.395748615 4.120625496
-18.10383224 -4.270835876 4.69211483
-23.37641525 -5.217833042 6.701218128
-51.83151245 -10.67049885 0.7600263953
-24.73805809 -5.552703381 2.534944057
-21.51927567 -4.917130947 3.076638699
-24.12005424 -5.372453213 4.221394062
-18.65062904 -4.332024574 4.120091915
-18.21154404 -4.228246689 4.71107626
-23.62611389 -5.182672024 6.758293152
-51.82593918 -10.48235035 0.754716754
-24.25986862 -5.375128746 2.497545719
-21.64227486 -4.865772247 3.086170435
-24.128088 -5.28672266 4.217800617
-24.00949287 -5.230777264 5.072329998
-22.74177742 -4.973446369 5.68151474
-23.62054062 -5.096255302 6.750548363
-24.6188736 -5.364187717 0.7694536448
-24.67711449 -5.397809982 1.646345019
-24.22642899 -5.281527996 2.491592407
-24.5460701 -5.308995724 3.390365839
-22.20136261 -4.856439114 3.939565659
-21.58654213 -4.715993881 4.635229588
-22.67543793 -4.879692078 5.661767006
-23.58405495 -5.00460434 6.735086441
-24.59293938 -5.270927429 0.7669475079
-24.63174248 -5.300763607 1.641683936
-24.6523571 -5.269665718 2.517911911
-24.2050209 -5.16050005 3.350083351
-24.84570312 -5.237858772 4.310197353
-21.61760902 -4.643535614 4.636107922
-22.69742775 -4.801689625 5.661077499
-23.84380341 -4.963791847 6.794346809
-24.83265686 -5.095460415 7.983082771
-12.69381142 -3.129291773 0.3258914351
-24.64743423 -5.19196558 0.7643687725
-24.65097237 -5.215462208 1.639275312
-24.70498657 -5.190045357 2.517979622
-24.27686119 -5.085725784 3.353589058
-22.81485367 -4.801294804 4.017907619
-21.77273941 -4.591974735 4.659081459
-22.80984306 -4.738844872 5.679833412
-23.62490273 -4.84139204 6.733090878
-24.83464622 -5.006324768 7.976663113
-24.72309685 -5.139194012 1.638691902
-24.91004372 -5.140542984 2.528887987
-24.75843811 -5.07968092 3.400340796
-22.08627892 -4.597338676 3.910569906
-21.84938622 -4.530297279 4.668327808
-22.66916466 -4.633624554 5.644374847
-23.91048813 -4.807281971 6.799157143
-51.98802185 -9.596046448 0.7284345627
-22.00294685 -4.508301735 3.894866467
-21.86558914 -4.458349228 4.666862965
-22.62203026 -4.548638821 5.629321098
-23.23578835 -4.617744446 6.623950005
-51.96474075 -9.405909538 0.7231066823
-22.42583275 -4.501159191 3.950625896
-22.0105896 -4.402934551 4.688035011
-22.56297874 -4.462175369 5.611794472
-23.25692368 -4.537629604 6.623457909
-52.01383209 -9.227725029 0.7176808715
-21.76148987 -4.316534519 3.852915764
-21.92965508 -4.311442375 4.669204712
-22.55128479 -4.375427723 5.603957653
-23.88486671 -4.545854568 6.774851799
-52.29294586 -9.076061249 0.7116370797
-92.54253387 -15.45206547 3.928231239
-25.28888702 -4.84232378 2.54080987
-22.50849724 -4.349123955 3.953826904
-22.02036095 -4.242747784 4.680578709
-25.05239296 -4.670933723 6.132550716
-23.89041328 -4.461126328 6.770436764
-52.24205399 -8.881501198 0.7063120008
-25.37566185 -4.765112877 2.543224096
-22.24253464 -4.228838444 3.912395
-21.81987762 -4.134284496 4.640768051
-23.32534027 -4.3276577 5.75895071
-23.93600082 -4.38227272 6.77611208
-52.20626831 -8.689762115 0.700967133
-23.59176636 -4.38001442 3.254319191
-22.29159164 -4.156536579 3.915297508
-21.80610085 -4.05432272 4.634016037
-22.68097687 -4.151966095 5.616687775
-23.93328094 -4.296325207 6.769763947
-52.27070999 -8.513053894 0.6954469085
-23.63947296 -4.302690029 3.255553246
-23.68386459 -4.275277615 4.106445789
-22.01638412 -4.006135464 4.666796684
-22.40003586 -4.031735897 5.552062035
-23.94948196 -4.213106155 6.768217564
-52.27980042 -8.337534904 0.6902825832
-91.85939789 -13.91955376 7.104893208
-24.29766846 -4.310760021 3.320440769
-23.72528648 -4.196586609 4.108085155
-22.04257202 -3.935152531 4.667353153
-22.35510826 -3.945724249 5.537764072
-24.55550194 -4.213672161 6.914170742
-52.27244949 -8.159827232 0.6851430535
-92.36915588 -13.67932129 7.127769947
-24.39976692 -4.242530346 3.327459574
-25.07332611 -4.298934937 4.292607784
-22.59773827 -3.935064316 4.760953903
-22.75359154 -3.922954798 5.617907047
-24.84610939 -4.168741703 6.981301785
-52.41833878 -7.99377346 0.6794115305
-92.13702393 -13.31943226 7.099116802
-23.417099 -4.028838634 3.221718073
-22.51976776 -3.876846552 3.931958199
-22.91144753 -3.895619154 4.811768532
-22.41848755 -3.80264473 5.542357922
-23.7121048 -3.935207367 6.693285942
-52.38722992 -7.803554058 0.674027741
-22.89347839 -3.877539873 3.163764238
-22.24936676 -3.762019634 3.890404701
-23.03947639 -3.830417156 4.829935551
-22.42316818 -3.723494291 5.538764954
-23.6653862 -3.845044613 6.67640543
-52.54983902 -7.638554096 0.6682038903
-22.8368721 -3.789072037 3.154400349
-22.1750164 -3.673694611 3.876288414
-22.96395493 -3.739233255 4.812428474
-22.76367188 -3.685448408 5.60631609
-23.44098091 -3.733820915 6.615439892
-52.36263275 -7.428963184 0.6631709337
-22.84164429 -3.704575777 3.151260853
-22.11802101 -3.5880723 3.864647865
-22.93893814 -3.654713154 4.803840637
-22.85785103 -3.61175108 5.621468544
-23.45958328 -3.648595572 6.614757538
-52.53001022 -7.263810158 0.6572912335
-26.51032066 -4.060723305 3.526912689
-23.77498436 -3.700776339 4.091027737
-23.73174858 -3.665686369 4.938350201
-23.61050987 -3.617219925 5.775993347
-23.52319145 -3.576755285 6.625809193
-52.41175461 -7.073308468 0.6523820758
-31.99197769 -4.651776791 2.957598209
-24.30146217 -3.715757847 3.295228958
-23.73329353 -3.615992546 4.081537247
-22.75436211 -3.475259542 4.763530731
-23.53625488 -3.529430628 5.755962849
-23.71783257 -3.519003868 6.66939497
-52.61178589 -6.910851955 0.6463623047
-31.98131561 -4.537353039 2.952605486
-25.78783989 -3.801149368 3.444981098
-23.59678459 -3.521018744 4.058949471
-22.757761 -3.395062208 4.760096073
-23.5764904 -3.454594612 5.7601614
-23.83173752 -3.447146416 6.692718506
-17.67401314 -2.858132124 0.7383024693
-32.03569794 -4.430259705 2.952034235
-24.42391014 -3.557110548 3.300666809
-23.67508698 -3.445962429 4.065997124
-22.76283836 -3.315076351 4.756999493
-24.34553337 -3.447394371 5.917524815
-23.8164711 -3.356996298 6.68384552
-53.82270432 -6.659525871 0.6315470934
-32.00500107 -4.308152199 2.945525408
-25.92328072 -3.628499746 3.451169491
-23.69644928 -3.360310793 4.064994812
-22.73081398 -3.227303028 4.747290611
-24.34509468 -3.36125493 5.912888527
-23.84293365 -3.275393724 6.685616493
-17.47268295 -2.709461451 0.7351050973
-74.88716888 -8.714038849 3.194818735
-31.85415268 -4.179637432 2.931174755
-26.10561943 -3.550884724 3.465947628
-23.71904182 -3.278878689 4.064383507
-25.24554253 -3.39536643 5.181045055
-25.47873497 -3.381240845 6.14662838
-53.45064163 -6.252222538 0.6216735244
-74.99777222 -8.461048126 3.189539194
-30.71731186 -3.959717274 2.850864649
-26.35611534 -3.487950802 3.488063097
-23.66838646 -3.190268755 4.053695679
-25.21096802 -3.307398796 5.170988083
-53.4450798 -6.063416004 0.616063714
-74.85553741 -8.196084023 3.176628351
-29.7328186 -3.756895542 2.780878305
-32.4168129 -3.968295574 4.104441643
-23.41971016 -3.087753296 4.015946865
-23.086483 -3.023254633 4.797760487
-54.27124405 -5.952171326 0.6076902747
-74.28372192 -7.878709793 3.149670839
-30.73239136 -3.744601011 2.84392333
-25.65637779 -3.242937326 3.409290314
-26.59898186 -3.290717363 4.450138569
-22.76241684 -2.913226843 4.737722874
-54.76659393 -5.805623531 0.600266397
-74.45917511 -7.633106709 3.14654398
-29.49007416 -3.525865316 2.757014751
-25.63494301 -3.15070653 3.403517962
-26.49305725 -3.187882662 4.431549072
-23.78891945 -2.920108795 4.911992073
-23.50489044 -2.865798235 5.715164661
-55.51182175 -5.686954021 0.5921421647
-29.504776 -3.428552389 2.754420042
-32.3307457 -3.6242733 4.0823102
-26.82118225 -3.121777534 4.472670078
-22.82356453 -2.761864185 4.741143227
-23.59215546 -2.78999567 5.729409218
-55.45241547 -5.487005234 0.5864809155
-29.60114098 -3.332711697 2.757086754
-29.0797863 -3.248259306 3.747020483
-33.32165146 -3.548395634 5.361111641
-24.03484344 -2.77598834 4.947152138
-55.78306198 -5.318467617 0.5793676972
-75.04535675 -6.907793999 3.139353752
-30.2423172 -3.279076815 2.795930624
-29.08176231 -3.1512959 3.743455648
-25.03444672 -2.802198887 4.219998837
-23.73114777 -2.668838024 4.890878677
-55.84197617 -5.127164364 0.5732191205
-75.03022003 -6.64311552 3.130190849
-29.55612183 -3.121328592 2.746652842
-29.11158562 -3.051322222 3.742551565
-25.76269722 -2.766934633 4.316115379
-23.33262062 -2.557147026 4.818366051
-56.04785919 -4.946148396 0.5664692521
-54.89342499 -4.909640789 2.495138407
-29.55792999 -3.017697573 2.743084431
-29.24626923 -2.95855999 3.75230217
-25.37800217 -2.649944305 4.259790897
-23.90308952 -2.513633013 4.91327095
-56.06558228 -4.750871181 0.5604289174
-29.74454117 -2.92668581 2.75173974
-29.45015144 -2.869533777 3.769055843
-26.64988518 -2.643986702 4.430033207
-24.08211899 -2.441128969 4.940547943
-56.1099472 -4.567133427 0.554564774
-29.33506584 -2.801073313 2.721261978
-29.54652977 -2.772321224 3.774919748
-29.76151085 -2.742941618 4.851151466
-30.43058777 -2.745393276 6.03104496
-32.44289398 -2.819665194 7.551888466
-56.53357697 -4.396789074 0.5467671752
-54.49337769 -4.316790104 2.464208126
-29.15846252 -2.687425613 2.706043005
-28.75269699 -2.621243238 3.690902472
-29.61553764 -2.635228634 4.827322483
-25.60426521 -2.363194704 5.19567728
-32.42240906 -2.710348606 7.542857647
-56.63266754 -4.214555264 0.5405901074
-54.25370407 -4.11171627 2.450623512
-29.13652992 -2.589089155 2.701221943
-28.59959984 -2.516858816 3.671923876
-29.70100403 -2.536089659 4.834908962
-30.01249313 -2.514766455 5.950483322
-32.48205948 -2.599717379 7.550343513
-56.48010254 -4.007957935 0.5352043509
-54.29216003 -3.933383465 2.445911169
-29.09661484 -2.484864235 2.695069551
-28.62922287 -2.418221951 3.671234369
-29.73240662 -2.438820839 4.83536005
-30.17206192 -2.417564154 5.973629951
-29.76375198 -2.358478308 6.980158806
-56.57445145 -3.815232277 0.5287121534
-54.14487839 -3.735642433 2.435242176
-29.15200043 -2.385802269 2.695182323
-28.5032177 -2.316709042 3.655093908
-31.47999191 -2.418863297 5.069056988
-29.77802086 -2.293411016 5.901712894
-29.90235519 -2.260434151 7.004589081
-56.91585922 -3.633762598 0.5210323334
-53.817173 -3.530178308 2.419150114
-30.54469681 -2.349783659 2.782649755
-28.62383842 -2.217468023 3.663434744
-30.15906525 -2.249592066 4.885408401
-29.67100143 -2.184461117 5.879219532
-30.08589745 -2.15806365 7.038172245
-54.2756691 -3.317302704 0.52755481
-53.97041321 -3.339453697 2.417366982
-30.61358643 -2.245931625 2.783496857
-28.68821526 -2.120021582 3.666314125
-30.11873055 -2.13706851 4.875788689
-25.72852707 -1.923951745 5.199164391
-30.10057068 -2.053221703 7.036933899
-56.68128586 -3.236161947 0.5102224946
-46.0728569 -2.829731464 2.173926353
-33.28225327 -2.252494335 2.953733444
-29.07021332 -2.039610863 3.701220989
-30.09139824 -2.035891771 4.8683815
-25.74799538 -1.839082241 5.199207306
-30.66070366 -1.972630858 7.149147034
-56.81695938 -3.043240786 0.5034220219
-45.55975723 -2.656968594 2.15359807
-33.32688904 -2.137767792 2.952706575
-28.53119278 -1.923708916 3.64386344
-30.3588562 -1.945051908 4.900963783
-30.02907944 -1.889778614 5.928730488
-29.84263802 -1.844795346 6.975508213
-56.9599762 -2.849662304 0.4965438247
-45.04030991 -2.479549885 2.132946014
-34.12911224 -2.048206568 3.000819683
-28.40162849 -1.819742918 3.627430916
-33.9503479 -1.949683189 5.383289814
-29.81615067 -1.778434753 5.888374805
-29.8503418 -1.740545869 6.973064899
-45.09363937 -2.323871613 2.129466772
-30.95106888 -1.838706493 2.791298151
-28.40895081 -1.720657706 3.624731541
-29.3974781 -1.706365466 4.763319492
-29.91205025 -1.68183744 5.901117325
-29.85964203 -1.63629806 6.971020699
-44.94437408 -2.170018673 2.120231867
-29.71938896 -1.697582126 2.708114386
-28.36220932 -1.620170355 3.616668463
-29.35284424 -1.607639909 4.753843307
-29.55249405 -1.569086075 5.835897923
-29.70004082 -1.533645391 6.934284687
-58.8081131 -2.317418098 0.4685860574
-44.92268753 -2.01252389 2.114556551
-31.51584244 -1.641072512 2.82074976
-28.38462639 -1.526500702 3.615705729
-30.97652054 -1.538375854 4.969464302
-29.37569809 -1.467501163 5.802206039
-29.54216003 -1.426929951 6.89782095
-58.74066544 -2.110775709 0.4625527263
-45.04218674 -1.866061687 2.113302469
-31.1971817 -1.524629593 2.796613455
-28.59189415 -1.431148648 3.632995129
-29.04073143 -1.402172565 4.704809189
-29.06263924 -1.359843612 5.745185375
-29.54633713 -1.328814745 6.895149708
-44.9937439 -1.69223237 2.106354952
-43.91555786 -1.617416143 3.610383272
-29.18101501 -1.335002184 3.688054562
-28.51374435 -1.283473134 4.629998207
-29.06863785 -1.253221869 5.742509842
-29.50736809 -1.214727402 6.883086681
-58.81959152 -1.701894879 0.4492657781
-44.85632324 -1.5410676 2.097583055
-43.89204025 -1.471421361 3.604143381
-30.05225754 -1.248201609 3.77135849
-28.71543884 -1.190837741 4.653978348
-29.14507866 -1.157348156 5.752238274
-30.40985489 -1.12325573 7.066021442
-31.10787773 -1.216509223 0.6052581072
-31.18694115 -1.242905736 1.695090532
-29.79360008 -1.184489965 2.696089745
-28.13900948 -1.132780194 3.578343391
-28.47284508 -1.0938766 4.618180275
-28.49373436 -1.052038431 5.637943745
-30.36406898 -1.022045851 7.053143024
-31.09476471 -1.107895255 0.6019226313
-31.13606071 -1.133678436 1.690157056
-29.83453178 -1.080706835 2.695366859
-28.14393234 -1.034518361 3.575642824
-28.45988655 -0.9943452477 4.613182068
-28.53010941 -0.9525055289 5.640844345
-30.24746513 -0.9158120751 7.025560379
-45.86290359 -1.053685904 0.5089467168
-31.18475914 -1.025206089 1.688117027
-29.94693184 -0.9820526242 2.699382544
-27.73851204 -0.9357306361 3.532367468
-28.43667221 -0.8949143291 4.606851578
-28.6489315 -0.8575823903 5.657968044
-30.19904518 -0.8101891875 7.012130737
-44.74947739 -0.9304413199 2.075126886
-30.03505516 -0.8826782703 2.701844692
-27.794487 -0.8435767293 3.53497076
-28.27434921 -0.8011035919 4.582057953
-28.63533592 -0.7625162005 5.652619362
-30.13458633 -0.7102825046 6.995646
-44.57953262 -0.7825351954 2.065567255
-30.05298042 -0.7777410746 2.699673891
-27.86607933 -0.7509698272 3.539130926
-28.28813171 -0.7071564198 4.580952168
-28.52873802 -0.6633146405 5.631377697
-30.34794426 -0.6081077456 7.036444187
-44.50501251 -0.6274108291 2.058532476
-30.04259491 -0.6728997231 2.695720196
-27.92539597 -0.6531097293 3.541940212
-28.22823143 -0.6089388132 4.569856644
-28.79444313 -0.5604385138 5.67338562
-30.54917908 -0.4993316233 7.074606419
-44.52591324 -0.4718896449 2.054238319
-29.96602631 -0.5740891099 2.687754154
-27.91470909 -0.5557054281 3.537869692
-27.92418861 -0.5145161152 4.526129723
-29.85045242 -0.4487817287 5.849563599
-30.63054848 -0.3911324143 7.088142395
-27.65476799 -0.5207250714 0.6045925617
-44.42042923 -0.3256222904 2.046610117
-32.20419693 -0.4371506572 2.826186895
-27.86985016 -0.4589085281 3.530467749
-27.83791351 -0.4232976437 4.511787415
-30.12723732 -0.3392523527 5.893365383
-30.27874565 -0.2963959575 7.012831211
-44.77608871 -0.1647190601 2.051789999
-29.07334518 -0.3808210492 2.624865532
-27.91030312 -0.3656390607 3.531639576
-27.86423111 -0.3254604638 4.512406826
-31.26317596 -0.2087233067 6.082683563
-30.23600578 -0.1914859265 7.00101614
-28.68714714 -0.3062864244 0.5913733244
-45.80077362 0.01204042509 2.075716734
-29.08153152 -0.279109925 2.622267723
-27.90259552 -0.2682951689 3.527953386
-27.66031456 -0.2329985797 4.482309341
-29.73929405 -0.1385232061 5.821601391
-30.01076698 -0.09178731591 6.951795101
-27.50524902 -0.2348297387 0.5963862538
-45.24781799 0.1589842588 2.055230618
-31.56568527 -0.1156455949 2.775624275
-28.59494591 -0.1526518762 3.592979431
-27.70577812 -0.1350411177 4.485579967
-30.07210159 -0.02479837276 5.87498045
-30.00256348 0.01297189854 6.947247505
-28.12247658 -0.1216905043 0.5889484286
-45.3898735 0.3208096325 2.054269314
-29.1706562 -0.07340244204 2.62169528
-28.25821495 -0.06271632016 3.557038069
-27.60030556 -0.04145472497 4.468750954
-30.16599655 0.08346196264 5.887957573
-32.28691483 0.1956271529 7.413228512
-45.54133224 0.4839532077 2.053546906
-29.03826332 0.01922471635 2.610467434
-28.1977272 0.03406074643 3.54823947
-27.6034832 0.05518145114 4.466464996
-31.75156403 0.2407985181 6.153189182
-30.03596115 0.2242429703 6.948584557
-45.51664352 0.6342506409 2.048169851
-32.50811005 0.2429158539 2.824883461
-28.34776115 0.1381550878 3.560072422
-27.53120613 0.1441654116 4.454301834
-31.76374245 0.3523948193 6.152305126
-28.89230537 0.1973247379 0.5739328265
-45.50514603 0.7928619385 2.04292345
-29.25492668 0.2306065559 2.61796236
-28.54732132 0.2403240204 3.576885462
-27.48619461 0.2386232018 4.445687771
-30.92237091 0.4274167717 6.007397652
-27.63338852 0.2459713519 0.5801246762
-45.53705597 0.9531969428 2.038880825
-29.24501228 0.3324819803 2.61431694
-29.22359848 0.3696152866 3.640077829
-27.53790665 0.3371477127 4.449986458
-30.86689949 0.5331091285 5.995292664
-59.70727158 1.73924017 2.421809912
-29.23674202 0.4343923032 2.610794067
-29.1178894 0.4669056535 3.62691617
-27.58333015 0.435757786 4.453480244
-30.64560127 0.6301595569 5.955294132
-59.72184372 1.948726654 2.415773869
-29.73452377 0.5611740351 2.638796091
-29.09933281 0.5678875446 3.622295141
-27.97488785 0.5527174473 4.502977371
-30.69775581 0.7403236628 5.961480141
-59.71171188 2.15711832 2.409074545
-29.8014679 0.663554132 2.640086651
-29.08241081 0.6688657403 3.617866993
-28.00766563 0.6525354981 4.504826546
-30.86202812 0.8518743515 5.986730099
-29.94750023 0.7760709524 2.64613843
-29.12476349 0.7731717229 3.619234562
-28.09379578 0.7508486509 4.513909817
-31.04529572 0.9711380601 6.015082359
-59.1230278 2.530481577 2.380716324
-30.00174904 0.8789346814 2.64664197
-29.05178833 0.8656859398 3.609557867
-28.13378334 0.8518348932 4.516779423
-31.870121 1.12710309 6.151564598
-33.98523331 1.211229205 0.5096338391
-34.00776291 1.185517311 1.700506926
-29.5413208 0.9551127553 2.615161657
-29.16098022 0.9745518565 3.617465496
-28.05698013 0.9405314326 4.504330635
-31.94215775 1.24377346 6.161212444
-28.79097366 0.9890893102 0.548818469
-34.01595688 1.311155319 1.696908712
-29.53287125 1.058099151 2.611707211
-29.11285782 1.073556066 3.610131741
-29.29663086 1.129874706 4.665975571
-58.84173965 3.122311592 2.354580879
-29.59411049 1.160757184 2.612715244
-28.99921608 1.162506461 3.596620798
-29.32772064 1.22983408 4.66780138
-58.85216904 3.319083691 2.348899841
-29.55906296 1.262018323 2.607653856
-29.04611015 1.262706757 3.598692656
-29.31101036 1.326417327 4.663341522
-29.72867775 1.378790498 2.615198612
-29.34632492 1.388142347 3.625149488
-29.7828331 1.482314706 2.615784883
-29.28688049 1.486417532 3.616838694
-29.24496078 1.585816145 3.610260248
1.030318379 20.30062103 1.217820168
1.153306723 21.31353188 1.23773396
1.230090022 21.29740906 1.236748576
1.246866584 20.32708931 1.216530561
1.36074245 20.96325874 1.228762269
1.427270055 20.86885643 1.226281762
1.51363039 21.01536942 1.228637218
1.583234787 20.91624069 1.226062059
1.683258295 21.22562599 1.231704712
5.83514595 75.31757355 4.989542007
1.040596724 12.28353024 0.5902028084
1.740409851 20.96848106 1.225989342
1.088584185 12.3037281 0.5894422531
1.831221223 21.13765335 1.228835464
6.457094193 75.76560974 7.711847305
1.133639932 12.28788853 0.589224875
1.882000923 20.87448883 1.223067999
6.786430359 76.45726013 7.774072647
1.173990488 12.24620533 0.5894231796
2.041202307 21.79388618 1.240919828
6.934033871 75.2483139 7.664770603
1.219875455 12.24202156 0.5890377164
2.037890673 20.90466118 1.222659707
7.161376953 74.82730865 7.626733303
1.266321063 12.24364948 0.5885670185
2.119311571 20.95316696 1.223140955
7.424776554 74.80213928 7.624557018
1.316369295 12.28093243 0.5875577331
2.20446229 21.07337379 1.225084543
1.011627316 8.744944572 0.3017612696
1.364796996 12.32223988 0.5865092874
2.281892776 21.07352448 1.22462523
1.04533267 8.741336823 0.3014950156
1.407126069 12.28159809 0.5866873264
2.447503805 21.89451981 1.240486979
1.081242323 8.757463455 0.3002310395
1.452476025 12.27063751 0.5864172578
2.529178381 21.90573311 1.240258455
8.641190529 76.27345276 7.758954525
1.113613844 8.741706848 0.3005732298
1.500702739 12.2853508 0.5857574344
2.564583778 21.51137924 1.232002378
9.01245594 77.13360596 7.837329865
1.14494431 8.717908859 0.3013209701
1.545557976 12.27009678 0.5855587721
2.664491892 21.68699646 1.235065818
9.001276016 75.01023102 4.963531971
9.037128448 75.02896881 7.647974014
1.595744491 12.28022099 0.5849520564
2.74178648 21.66567039 1.234239221
1.631792784 12.21333313 0.5855762362
2.779271126 21.32661438 1.227144718
9.599104881 75.23340607 7.66834116
1.683145165 12.25119209 0.5845689178
2.879450083 21.49331474 1.230067968
9.806232452 75.11212921 4.968670845
9.886947632 75.3775177 7.682488441
1.729827166 12.25118065 0.5841473937
2.967991114 21.56244469 1.231073856
10.38780594 77.11206818 7.840540409
1.777062297 12.25496674 0.5836694241
3.056611061 21.6575222 1.232620478
1.826987267 12.29455662 0.5826584101
3.141030312 21.6883297 1.232893825
10.57912636 74.62941742 7.618813992
1.87163198 12.27819633 0.5824970603
3.263767719 22.0143528 1.239011407
1.927985907 12.3589859 0.580845058
3.333248615 21.93161392 1.237071633
11.17004776 75.09230042 7.663855553
1.97072506 12.3284359 0.580909133
3.415654659 21.96594429 1.237465858
11.44263077 75.10830688 7.667102814
2.015790224 12.32973099 0.5804994702
3.505334854 22.01913643 1.238229394
12.04772949 77.3698349 7.873660564
2.061959505 12.3226099 0.5802035928
3.593267441 22.05814934 1.23872757
12.08938026 75.86357117 7.739343643
2.108739614 12.31927681 0.5798509717
3.692261457 22.1639595 1.240550995
12.46531391 76.49775696 7.798956871
2.159758329 12.32724476 0.5793029666
3.795588017 22.29106522 1.242804766
12.67668247 76.0194397 7.758032799
2.212818861 12.37523746 0.57816571
3.878313541 22.31387901 1.243035674
2.262197971 12.39936543 0.5774049759
3.837815046 21.58864594 1.228601336
2.310320139 12.40123653 0.576977551
4.092967987 22.58966064 1.24802804
2.368258476 12.45806694 0.5756806135
4.183594704 22.62447548 1.248523712
2.41701293 12.46152115 0.5752308965
4.306645393 22.83602142 1.252494931
13.57102489 73.671875 4.8977561
2.481224775 12.53516197 0.573646307
4.036486149 20.91360092 1.214700222
13.61347771 72.45396423 4.831813335
2.531682491 12.55830193 0.5729046464
4.962314129 25.42953682 1.302960992
13.81752968 72.20451355 4.819254875
2.575549841 12.54590034 0.5727317333
14.03517818 72.03295898 4.811058044
2.623623133 12.54271317 0.5723948479
4.949957371 24.39348412 1.28242588
14.29447556 72.01114655 4.811263561
2.663904905 12.50012684 0.5726923347
5.118638039 24.78005791 1.289881825
14.44976234 71.46747589 4.782740116
2.708288431 12.47898293 0.5726501346
5.189849377 24.67191887 1.287677884
14.67227077 71.2719574 4.773500919
2.767491102 12.53016186 0.5714476705
5.318583488 24.86805916 1.291443467
14.92355442 71.22048187 4.772292614
2.809962988 12.5111208 0.5713955164
5.348394394 24.56365395 1.2854352
2.861349821 12.52274227 0.5708327293
2.918783903 12.56152916 0.5698322654
2.983841658 12.63327408 0.5682979822
5.42548418 23.65113258 1.267528057
3.038062334 12.65399647 0.5675902367
15.99236584 70.29266357 2.179234028
16.54415894 72.47188568 7.4904356
3.084472895 12.6394062 0.5674577951
16.50372887 71.28553772 4.78729105
3.133978128 12.63829422 0.5671089888
16.81197929 71.47277832 4.799871922
3.1829741 12.64534569 0.5666477084
17.53936386 73.64664459 2.245151758
3.231590509 12.65027714 0.5662227869
17.0342083 70.3837738 2.181566477
3.27416563 12.61947536 0.5663664937
17.21745872 70.10932922 2.176441669
17.75801277 72.18825531 4.846470356
3.328526497 12.64738274 0.5655698776
3.390315771 12.69388866 0.5644509196
20.59822083 81.5383606 2.400722265
18.21323204 71.90333557 4.835686684
3.450926542 12.72401619 0.5635834336
18.26571465 71.08132935 2.196529865
18.43803215 71.67370605 4.825756073
3.51080513 12.75000858 0.5627850294
18.47270393 70.84681702 2.192388535
18.79507637 71.96166229 4.844719887
3.55655694 12.74022484 0.5626128912
18.68904495 70.70398712 2.190062523
18.98552132 71.70591736 4.833211899
3.604329824 12.73802185 0.5623181462
3.651401281 12.723423 0.5622134805
19.18582726 70.48761749 4.771081924
3.703134298 12.7260313 0.5618267655
19.83810806 72.02849579 2.217772961
19.61912346 71.0986557 4.808276653
3.761573792 12.76187515 0.5609079599
20.43566704 73.20418549 2.241536617
19.85592651 70.97988892 4.804824352
3.816232443 12.77369881 0.5603716373
3.872652531 12.79108143 0.5597445965
19.86418724 69.15266418 4.708988667
3.908852577 12.73711014 0.560308218
23.12218666 79.70217133 2.371618271
20.05948639 68.91417694 4.698972225
3.947928905 12.70294571 0.5605627298
20.7918396 70.63650513 2.19433856
20.40297127 69.18907928 4.717804432
4.036565304 12.82913685 0.5581247211
21.0320816 70.53290558 2.193225861
4.090747833 12.83604336 0.5576793551
20.75413132 68.69237518 2.157958746
20.72312546 68.52845001 4.687628269
4.147914886 12.85231304 0.5570790172
20.93074417 68.40137482 2.153222322
4.187139034 12.80905914 0.5574793816
21.13597107 68.20942688 2.150478601
21.46963692 69.14254761 7.300581932
4.248559475 12.83830261 0.556665659
21.74976349 69.18544006 7.311186314
4.298876286 12.83940411 0.5563425422
21.3177433 67.09351349 4.621616364
4.358901978 12.87083054 0.5555104613
22.02434731 68.44783783 7.255306721
4.385035038 12.79535484 0.5564829707
23.20585823 71.53203583 2.22059989
21.96582031 67.47946167 7.171457291
4.448701382 12.81265545 0.5558466315
23.44605827 71.28436279 2.217232704
22.70695686 68.8687439 7.308931351
4.509019852 12.83504295 0.5551571846
22.97193909 68.85747528 7.315076351
4.57585144 12.87615299 0.5541518331
21.24853134 63.03572464 2.056310415
21.32433128 63.18368149 4.420336723
23.35300064 69.19297028 7.353829384
4.648887634 12.94242001 0.5527356267
23.19769287 68.13592529 2.158864737
22.79838943 66.86446381 4.633078098
23.22072029 68.03554535 7.252398014
4.682553768 12.8909502 0.5533186197
23.90414619 69.42536163 2.185974598
23.62307739 68.47138977 7.300421238
4.715735912 12.83101749 0.5540347695
23.69151688 68.01032257 2.159356833
23.19308281 66.5192337 4.622092247
23.61122513 67.65422821 7.231264114
4.76495266 12.81825256 0.5539526939
23.91963959 67.93147278 2.159274578
24.98316574 70.82633972 7.537456036
4.812414169 12.8080349 0.5538448691
25.135355 70.62466431 2.21462059
23.79862022 66.74417114 4.644081116
4.836825848 12.72519684 0.5549646616
25.38459969 70.53659058 2.214591265
23.8416481 66.15700531 4.615058899
4.925568104 12.82304382 0.5530019999
4.996992111 12.86317062 0.5520108938
24.58455086 66.71333313 4.656768799
5.078415394 12.94415283 0.5503493547
25.01883316 67.20526123 4.689693928
5.129165649 12.94036198 0.5501410365
25.20230675 67.00977325 4.683336258
5.185171127 12.94297314 0.5498108268
25.46731567 66.96203613 4.686040878
5.247916222 12.95566845 0.5492954254
26.80854607 69.85627747 2.212272882
25.66947937 66.78329468 4.681036472
5.300271034 12.95500183 0.5490401387
26.82344437 69.15731812 2.200258493
26.1723175 67.39094543 4.721391678
5.399073124 13.06698513 0.5468315482
27.27675819 69.60421753 2.211394787
26.51200104 67.59825134 4.738565445
5.453619957 13.06295586 0.5466228724
29.51127815 74.59681702 2.314548254
5.477379799 12.98058987 0.547770083
29.71556854 74.34466553 2.311832666
5.585038662 13.10999584 0.5452603102
29.92584801 74.1105957 2.309525251
26.70057487 66.00054932 4.66309166
5.686945915 13.22212315 0.5430471301
30.24885178 74.19654083 2.313638687
26.74073792 65.42926025 4.63569355
5.761615276 13.27173138 0.5419293046
30.3995018 73.85512543 2.309112072
26.99466515 65.42551422 4.64097023
5.799474716 13.23034859 0.5423907042
30.64694023 73.75402832 2.309514999
27.30349731 65.55380249 4.654012203
5.869263172 13.26646709 0.5415097475
30.64908409 73.06095886 2.297877073
27.29826736 64.92073059 4.622799397
5.906629562 13.20324802 0.5423175097
30.98402977 73.02967834 2.300322771
27.27521324 64.1079483 7.056156635
5.959723473 13.19175529 0.5422562361
27.48872757 63.98329926 7.05378437
6.056785583 13.2830534 0.5404066443
27.92871284 64.43849945 4.613482952
27.4212265 63.2022171 6.988018036
6.095877647 13.24452782 0.5408337116
31.65079308 72.52896118 2.298149109
28.32348251 64.76015472 4.638281822
27.63127899 63.10757446 6.988151073
6.177839756 13.30492878 0.5395370722
28.8896637 65.46810913 4.685914516
27.8601265 63.05605698 6.992561817
6.261158943 13.36018276 0.5383178592
32.6558609 73.43054962 2.322625399
27.98454666 62.78176498 4.534396648
28.12891579 63.06449509 7.003408909
6.353034496 13.43331337 0.5367865562
32.74784088 72.93967438 2.315524578
28.37710381 63.02447128 7.00967598
6.443048 13.50049686 0.535359323
32.90540314 72.60237122 2.311627865
28.15428925 61.94604492 4.498194695
28.65628624 63.05258942 7.02270937
6.524611473 13.54057121 0.5343951583
29.35077477 64.05383301 2.137161732
28.30715561 61.70200348 4.490228653
6.595683098 13.56981182 0.5336472392
28.74949074 62.12400818 4.521435738
29.25264359 63.18504333 7.056669235
6.651990891 13.56603146 0.5334806442
28.9745121 62.06481171 4.524255753
29.45923042 63.07711411 7.056285381
6.736121655 13.61528492 0.5323720574
29.42132568 62.41415405 7.002060413
6.80711031 13.63514996 0.5317816734
30.3479023 63.85785294 4.644650936
29.63965034 62.30777359 7.00247097
6.906511784 13.7143631 0.5301477909
30.16434288 62.84887314 7.066759586
6.978143215 13.7334919 0.5295734406
30.14798355 62.2822113 4.56484127
30.40476418 62.78305435 7.071493626
7.044836998 13.74812126 0.5290920734
30.24480247 61.92127991 4.550387383
7.125611305 13.78461456 0.5282150507
7.233102322 13.87460709 0.5263937712
7.354589939 13.99092484 0.5241066813
35.64146805 71.23261261 2.320166111
7.448440075 14.04929161 0.5228449702
35.87844849 71.07925415 2.320662498
36.24147797 71.80132294 5.175829887
7.530218124 14.08216953 0.5220358968
36.06632233 70.8286438 2.319131136
36.58413696 71.85303497 5.187770844
7.538169384 13.96839905 0.5238298774
31.63997078 61.48238754 2.122942924
32.59494781 63.36118698 4.68208313
7.752081394 14.25892639 0.518452704
36.69854736 70.83529663 2.327078104
30.0461216 57.82812881 4.354077816
7.862706661 14.34374714 0.5167245865
36.80171967 70.42256927 2.322199106
30.23763275 57.69823837 4.353579998
7.934435368 14.35840607 0.5162553787
36.99714661 70.22220612 2.321717501
30.48475266 57.70059586 4.360832691
7.971868038 14.30051327 0.5170686841
30.47708321 57.19081497 4.33726263
8.052931786 14.32563114 0.5164081454
30.68104172 57.0878067 4.33856535
8.103384972 14.2988472 0.5166852474
31.03070259 57.25772095 6.669819355
8.222678185 14.39376831 0.5147846341
38.25992203 70.26905823 2.339084864
32.33402252 59.22080994 4.484828949
8.313370705 14.44027042 0.5137588382
30.9342289 56.14091492 4.303190708
31.44907188 57.09125137 6.676699162
8.404266357 14.47960281 0.5128525496
30.86221886 55.5615654 4.274870396
31.3284874 56.39238358 6.617957592
8.4945755 14.51673698 0.5119873285
37.36330414 66.8912735 2.278101921
31.19165611 55.69505692 4.291004181
31.68720055 56.57255936 6.648700714
8.577477455 14.53944206 0.5113822818
38.30458069 68.02953339 2.307548761
31.35360909 55.52318954 4.288329124
31.62553978 55.99179459 6.601900578
8.606895447 14.46579647 0.5125043988
38.4215126 67.67573547 2.304213285
31.62408257 55.54600525 4.297811508
32.0004425 56.19761658 6.635552406
8.729316711 14.55755615 0.5106683969
33.86504745 59.05187225 2.117457151
32.02077103 55.79020309 4.321199417
32.23506165 56.15003204 6.64343214
8.842589378 14.63127136 0.5091565847
34.08179092 58.94730759 2.1191535
32.27331161 55.77547455 4.328582287
33.07019043 57.15564728 6.759777546
8.908701897 14.62112999 0.509150207
33.88702774 58.1257515 2.104895592
32.34717178 55.44790649 4.31647253
33.47622681 57.3960228 6.797840118
8.933787346 14.53974819 0.5104259849
34.93095016 59.45581436 2.138748407
32.83512497 55.81657791 4.348501682
33.61088562 57.16188431 6.787135124
9.021569252 14.56045055 0.5098640919
33.12500381 55.86050415 4.359888554
33.73428726 56.88723373 6.772961617
9.164011955 14.68560696 0.507445395
33.81668472 56.60784149 4.415325642
33.73108292 56.44566727 6.740125656
9.276801109 14.75837326 0.5059689879
34.00875854 56.49902344 4.416945934
34.01377487 56.49143982 6.757925987
9.422652245 14.8787117 0.503629148
39.80475998 65.74317932 2.298355579
34.20598602 56.36069107 6.758182049
9.550895691 14.96738434 0.5018599629
40.19361877 65.86435699 2.306058407
35.35924911 57.84159088 4.520440102
34.57032013 56.51600266 6.788427353
9.639422417 14.9886694 0.5013062358
40.40539169 65.68959808 2.307096243
9.720908165 14.9975872 0.5009781718
40.56843948 65.43569183 2.306367397
34.04849625 54.78252411 4.344116211
9.796281815 14.99591351 0.5008442402
44.41701508 71.1632309 2.44307518
9.864380836 14.98201275 0.5009342432
44.72073364 71.09282684 2.447109938
34.96223831 55.39210892 4.401749611
9.888997078 14.89833355 0.5022878647
35.01179504 55.03633881 4.388363361
