# .PCD v0.7 - Point Cloud Data file format
VERSION 0.7
FIELDS x y z
SIZE 4 4 4
TYPE F F F
COUNT 1 1 1
WIDTH 1336
HEIGHT 1
VIEWPOINT 0 0 0 1 0 0 0
POINTS 1336
DATA ascii
9.076183319 9.505681038 3.524972439
9.297239304 9.761419296 4.109028816
13.92666626 14.92783928 0.4984788001
9.398054123 9.787768364 1.586975217
8.84172821 9.15676403 2.009820938
10.368577 10.89595032 2.77588129
9.208482742 9.581622124 3.051230669
9.033165932 9.384142876 3.501838207
9.908241272 10.38306618 4.314006329
14.00570774 14.90609264 0.4989028871
14.05948067 14.96958923 1.238018155
9.392040253 9.702480316 1.583808303
9.070694923 9.345131874 2.037135124
10.40419292 10.85383987 2.775557995
9.518670082 9.85544014 3.118499994
9.123770714 9.411338806 3.518413305
9.065031052 9.35085392 4.001873016
14.09418201 14.88898468 0.4992485046
14.1520853 14.95679188 1.240100861
9.3052845 9.531087875 1.573982716
9.229976654 9.44865036 2.054503441
10.04687786 10.36698723 2.700120687
9.540126801 9.804573059 3.115283012
9.00801754 9.209636688 3.473874807
9.086619377 9.300264359 3.997012615
14.16124821 14.85309124 0.4999403656
14.23133469 14.9341116 1.241808534
9.352687836 9.507363319 1.575418472
9.418926239 9.586854935 2.07605052
10.12436104 10.37475872 2.7080791
9.594839096 9.787278175 3.119794369
9.044688225 9.176681519 3.474502325
14.23354149 14.82830715 0.5004317164
14.31715298 14.92940617 1.243816733
9.363819122 9.454276085 1.574179769
9.377372742 9.471412659 2.06626606
9.584452629 9.708839417 3.10978961
9.210128784 9.296834946 3.514754772
8.878130913 8.935083389 3.901620865
14.30852509 14.8061657 0.5008791089
14.39244461 14.90155602 1.24541831
9.329899788 9.344799042 1.56895256
9.320414543 9.340156555 2.054472685
9.329250336 9.352137566 2.545571327
9.042935371 9.043203354 2.971217155
9.328048706 9.359257698 3.540261984
9.04299736 9.048254013 3.947977781
14.38084793 14.77529526 0.5014926195
14.45824909 14.86306 1.246730208
9.300314903 9.244662285 1.564253211
9.39093399 9.345808029 2.059839487
9.367451668 9.322525024 2.546701908
9.04800415 8.979652405 2.964767694
9.196586609 9.144443512 3.491813421
9.102284431 9.044056892 3.957282305
14.46940517 14.7617445 0.5017947555
14.53210545 14.83310318 1.248309612
9.196071625 9.061055183 1.553267002
9.381917 9.2647295 2.054455042
9.38672924 9.272351265 2.544313431
8.989850998 8.847968102 2.943238258
9.208681107 9.087882042 3.485811472
10.19074631 10.15627956 4.323682785
14.53761387 14.72580433 0.5025101304
14.61135292 14.81416035 1.250108719
9.358475685 9.166426659 1.564499497
9.418542862 9.233448029 2.055274248
9.513374329 9.341566086 2.562297344
9.01282692 8.805060387 2.941280603
9.228112221 9.043031693 3.482508183
10.6255064 10.55220127 4.462163925
14.62080193 14.71109581 0.5028396249
14.69610786 14.80070019 1.252091289
9.388985634 9.132466316 1.564879656
9.446510315 9.196403503 2.055153608
9.585028648 9.350626945 2.569967985
9.021811485 8.75069809 2.936405659
10.64442635 10.49713707 4.456439018
14.69581318 14.68728256 0.5033394694
14.79463005 14.79592037 1.254482269
9.489349365 9.175239563 2.057046175
9.725258827 9.428432465 2.590031862
9.080898285 8.746563911 2.943124533
9.159234047 8.835913658 3.444364309
10.66638565 10.44164085 4.451211929
14.77213001 14.65363979 0.5040304661
14.84234715 14.73148441 1.255246758
11.63701439 11.36269569 1.745483041
9.554839134 9.170804977 2.061568975
9.761463165 9.39136982 2.590481281
9.167539597 8.767764091 2.9559865
9.294376373 8.90777874 3.473880291
10.73153973 10.4280901 4.460227966
14.85531521 14.62686348 0.5046015978
14.86910915 14.65072632 1.255402207
14.86329937 14.64870739 2.007437468
9.581892014 9.125714302 2.060981274
12.10594368 11.77508354 3.016188383
9.308667183 8.848603249 2.982004881
10.10548687 9.690067291 3.69839859
17.60971451 17.56137848 6.793483257
14.92476845 14.59625721 0.5052391887
14.93993282 14.62155151 1.256991148
11.69718075 11.25537109 1.745056272
9.512769699 8.987732887 2.048074484
12.21228409 11.8021965 3.028845072
9.715477943 9.207769394 3.070687771
10.20816994 9.727363586 3.718569517
17.56097794 17.38938522 6.75751543
15.00670052 14.57828808 0.5056509376
15.01621532 14.59232426 1.258729815
11.76786995 11.2481308 1.748324633
9.535667419 8.946180344 2.047421932
15.02712345 14.62208176 3.536576509
9.780261993 9.208230972 3.078724623
10.2394104 9.686163902 3.717718363
17.50224304 17.20228004 6.717476368
15.08858204 14.5544529 0.5061787963
15.09526253 14.56562328 1.26056695
10.44238853 9.804732323 1.637792945
9.494747162 8.835904121 2.038198948
10.86820889 10.24783611 2.769436836
10.29238415 9.667358398 3.723116636
17.45601463 17.0297451 6.682015419
15.1634798 14.52309704 0.5068484545
15.17010593 14.53427219 1.26228404
15.17616177 14.55954933 3.546262026
10.03805161 9.331576347 3.123847961
10.32887459 9.631501198 3.723837852
17.41561127 16.86471176 6.648841858
15.24817753 14.50136089 0.507348001
15.25756645 14.51538658 1.264407635
10.7033968 9.920501709 1.654386401
9.577588081 8.785095215 2.041552305
15.26457787 14.54189205 3.553648949
10.14695072 9.371019363 3.141610146
10.40520573 9.635993004 3.735889435
9.333288193 8.553711891 3.918377399
15.32444096 14.47072506 0.5080143809
15.33661556 14.48757172 1.266279817
10.660676 9.802485466 1.648656368
11.10121727 10.25183201 2.792977333
9.952791214 9.10472393 3.089212656
15.33321762 14.51957226 5.118174076
17.43768501 16.64243698 6.617807388
15.4020977 14.44114685 0.508666575
15.41989994 14.46363354 1.268295884
9.989798546 9.055753708 1.592267513
10.56824493 9.639358521 2.163120508
11.10613251 10.17948627 2.787694931
9.973744392 9.052958488 3.086411953
6.686146736 5.773885727 2.669612646
9.344642639 8.434947968 3.901802778
15.49093246 14.41695786 0.5092319846
15.49593258 14.42674923 1.270069838
10.01445293 9.011041641 1.592181444
10.60946178 9.603433609 2.164278269
10.02638817 9.036254883 3.091309547
6.664619923 5.706397533 2.657582998
9.414356232 8.436424255 3.914435863
15.57856178 14.39643669 0.5097299218
15.56922913 14.39223385 1.271799803
10.12578297 9.051660538 1.599060059
10.69133568 9.611096382 2.170916557
6.795933247 5.782915115 2.003871918
10.34067535 9.276861191 3.156145573
6.653884411 5.650152683 2.648677588
9.4562397 8.413212776 3.918322086
15.66336346 14.37270451 0.5102913976
15.66394234 14.37833786 1.274207473
10.13177967 8.988411903 1.597502708
10.73919106 9.584921837 2.173154593
6.685679913 5.628898621 1.980556369
6.636824131 5.585762501 2.303092957
6.645647526 5.596801758 2.640552998
17.8217659 16.53274536 6.669250965
15.73383045 14.33464622 0.5111180544
15.74439049 14.35004616 1.276183724
15.74166775 14.3579464 2.042817831
10.75840473 9.530806541 2.171721458
6.672691345 5.571049213 1.974704742
6.666333199 5.569501877 2.305183172
6.627268791 5.534024715 2.629689693
17.89998055 16.48833656 6.676505566
15.80854321 14.30044937 0.5118796229
15.82937813 14.33107948 1.278337717
15.79754353 14.30575943 2.044185162
6.676840305 5.53242445 1.972121835
6.647496223 5.506536007 2.296312332
6.61872673 5.483498096 2.621929169
9.602414131 8.365781784 3.937335253
6.607189655 5.381183147 0.3551190197
6.57665205 5.380666256 0.6737115383
6.592103958 5.39985466 0.9917717576
6.584702492 5.395023346 1.310161471
6.577883244 5.390787125 1.629297972
6.57763195 5.3950634 1.95128572
6.561625957 5.382135391 2.272574425
6.646743774 5.468379021 2.624341726
6.617758274 5.378104687 0.6738176346
6.598432541 5.364212036 0.9917792678
6.606927872 5.374561787 1.310731649
6.626044273 5.395047665 1.633253694
6.629968643 5.40335083 1.957320333
6.612289429 5.388981342 2.279804945
6.634955883 5.415278912 2.61579895
10.20418835 8.817689896 4.115150928
16.066679 14.24400234 0.513335228
16.05407715 14.24296761 1.283928037
16.07390976 14.26731014 2.057455778
6.646791458 5.373082638 1.633713603
6.627633572 5.359590054 1.953720808
6.622908115 5.357595921 2.278004169
10.43589878 8.968896866 3.654887438
10.24448299 8.791966438 4.118616581
16.14926147 14.19989395 0.514321208
16.15260124 14.21398449 1.286455274
12.02980042 10.36004066 1.73541069
6.641280174 5.317817688 1.630400777
6.625053406 5.307225704 1.949456692
6.59450388 5.281093597 2.266614199
10.45074177 8.904261589 3.649109602
10.32969856 8.794903755 4.134654045
16.2226963 14.16805935 0.5150574446
16.23331642 14.18897057 1.288534522
12.08158112 10.33374691 1.737401366
12.04192352 10.30125618 2.311900139
6.588850975 5.232555389 1.940015912
6.56425333 5.212175846 2.255769014
10.46567345 8.853629112 3.645139456
10.27032471 8.675784111 4.105940342
16.31373596 14.15216827 0.5155102611
16.31666183 14.1607523 1.290685177
16.32638168 14.18093109 2.068324804
12.0086298 10.19645882 2.30388093
6.564929962 5.167829037 1.932626724
6.542317867 5.151567459 2.246858597
10.49932575 8.817173004 3.645911694
10.31616592 8.651926041 4.11083889
16.40157127 14.1275835 0.5161343217
16.39852905 14.13078213 1.292803049
16.41259766 14.15498066 2.072183371
12.20409679 10.2986412 2.324541569
6.540638447 5.103343487 1.92523396
6.499288082 5.070006371 2.233120441
10.57616806 8.820419312 3.658446789
10.31182384 8.581751823 4.099638939
16.48647881 14.09986782 0.5168204904
16.47891617 14.09907055 1.29488802
16.48555374 14.11650181 2.075017929
16.51721191 14.15158081 2.862346649
6.495459557 5.020385742 1.91427803
10.57738304 8.749731064 3.133475542
10.73137569 8.894643784 3.692163229
10.3674736 8.56685257 4.107768536
16.56099892 14.06236553 0.517688632
16.57855606 14.0844202 1.297578335
16.56287384 14.08172417 2.0782094
16.5782547 14.10196972 2.864688873
16.57296944 14.10364628 3.654474735
10.58147907 8.686361313 3.127794981
10.73029423 8.825649261 3.683551788
10.54424095 8.66151619 4.154575825
16.64142036 14.02985859 0.5184720159
16.66341782 14.05589008 1.299826384
14.6423893 12.25189686 1.926081538
12.33347893 10.18246365 2.328947783
16.65883446 14.07635212 3.661568403
13.29357243 11.06012154 3.719415188
13.60311317 11.34434605 4.44845438
12.9560976 10.76748753 4.912812233
16.73225975 14.00629425 0.519099772
16.75126457 14.02962208 1.30217886
16.75017166 14.04032898 2.087171316
16.76231575 14.05770016 2.877180338
13.86365414 11.47628021 3.172965288
13.42319679 11.09269238 3.739833355
13.63950157 11.29173565 4.44790554
12.95566082 10.68604565 4.900888443
16.82912636 13.98757744 0.5196460485
16.82715034 13.9923172 1.304177165
14.21643066 11.69142056 1.888251901
16.83056259 14.01374435 2.880481958
16.82019234 14.01130486 3.674012184
12.52132797 10.2088623 3.533945322
13.27092171 10.87966156 4.33904171
13.01301384 10.65645218 4.907392025
16.91706085 13.96043873 0.5203496814
16.916502 13.96653938 1.306601882
14.26534367 11.64193916 1.889612436
13.20174599 10.71601963 2.425205469
16.91497612 13.99066734 3.682673216
12.5616293 10.16303253 3.534938812
12.21306133 9.861248016 4.046441555
13.07615566 10.63174725 4.915747166
17.00005531 13.92333508 0.5212493539
17.00436783 13.93900013 1.308994293
17.00703812 13.94809055 2.098698854
17.03681564 13.98094368 2.895531178
13.30469131 10.73018837 3.058846712
12.63698578 10.15173531 3.543991327
12.24132633 9.810950279 4.045010567
17.07482529 13.8891573 0.5220794082
17.0922451 13.91104031 1.311399817
13.44715023 10.75739479 1.822148442
17.11290169 13.94796276 2.900104523
13.32996464 10.67078304 3.057308197
12.64943027 10.08918095 3.53971839
13.36568546 10.71739197 4.334997177
13.09372997 10.48691463 4.89837265
17.17789841 13.87383366 0.5225881934
17.17300987 13.88172817 1.313614249
13.51283932 10.73625755 1.825214505
14.84571648 11.89031315 2.615865707
17.19108582 13.92366791 3.707657814
12.6590023 10.02060127 3.534522533
12.27759743 9.69692421 4.037401199
13.11330128 10.42834473 4.893787384
17.25873566 13.84408474 0.5233495831
17.25786209 13.85032558 1.315953255
13.56689835 10.70076847 1.827295661
17.27661514 13.88575172 2.910465956
13.56007195 10.71032333 3.085080147
12.71582794 9.996665955 3.539983273
12.40163231 9.732891083 4.06187439
12.49800777 9.821303368 4.690468311
17.35280228 13.82000542 0.5240270495
17.34727287 13.82239914 1.318445206
12.81695271 9.986172676 1.767993093
12.510355 9.730929375 2.321222305
13.37357521 10.47028923 3.047812223
12.68583584 9.894788742 3.526358366
12.5592308 9.792674065 4.094669819
12.4993639 9.747498512 4.680355072
17.42702675 13.77869797 0.5250187516
17.42904854 13.78758621 1.320717335
17.44644547 13.80947685 2.119399071
12.48632908 9.635907173 2.314740896
13.04918289 10.11651325 2.987520218
12.72046566 9.844538689 3.526410103
12.62340164 9.768250465 4.102370262
12.59840584 9.756773949 4.700696945
17.51907539 13.74681759 0.5258607268
17.52767181 13.76649094 1.323517799
14.96703243 11.62981987 1.927948356
12.38881779 9.476350784 2.299177885
13.26817799 10.22267056 3.018947363
12.87399292 9.897868156 3.552394152
12.62864017 9.697805405 4.095083714
12.60826111 9.690383911 4.693361282
17.6090889 13.72316551 0.526535511
17.6186676 13.73849392 1.326098919
17.62359428 13.75004578 2.127824545
12.54544544 9.537182808 2.314998627
13.3752594 10.23351669 3.031483412
13.00949097 9.938620567 3.574778557
12.72962189 9.711271286 4.113326073
12.62229633 9.627785683 4.687411785
17.70632553 13.69980145 0.5272244811
17.70041656 13.70241261 1.328411102
17.71503067 13.72720146 2.132398605
12.51560974 9.438877106 2.307955027
13.43824291 10.20709324 3.036616325
13.08949375 9.928507805 3.584886789
12.74052906 9.645667076 4.1076231
12.69898319 9.617358208 4.700860023
17.86394882 13.72535515 0.527048409
17.88421059 13.74956894 1.333854437
13.33513927 10.0284729 1.797959447
13.60546017 10.26594353 3.059166431
12.9015274 9.693984032 3.537524939
12.8423233 9.651353836 4.125201225
12.78026295 9.610227585 4.715706348
18.02763557 13.74935722 0.526922822
18.09128189 13.80885887 1.340012908
15.00522614 11.31028175 1.922441006
17.49290466 13.34259033 2.90299654
14.94080067 11.27105999 3.275923967
12.91976357 9.634050369 3.534631014
12.98352718 9.692152977 4.153379917
12.73231125 9.493360519 4.690418243
15.17339611 11.35955238 1.933113933
17.43231773 13.19267368 2.891102076
13.39301586 9.932757378 3.012925863
12.92393017 9.56294632 3.528812408
13.12363815 9.730858803 4.181186676
12.74690628 9.431879044 4.684945583
15.20972633 11.3015852 1.93383801
17.38799095 13.05705643 2.881254911
13.57739544 10.00406361 3.038331985
13.0830946 9.616818428 3.555860758
14.42986012 10.70649815 4.509699345
12.90826321 9.488770485 4.724315643
15.29268169 11.28084373 1.938092113
17.3522644 12.92937374 2.872523069
16.02799034 11.88111401 3.438468695
13.20422459 9.638936996 3.5747962
12.4659853 9.055583 3.995220184
12.26457405 8.900784492 4.518642426
18.39222145 13.65086842 2.169028282
12.5596981 9.041532516 2.293674469
16.19126701 11.92408562 3.459686279
13.3454895 9.679814339 3.598257303
12.48168945 9.00092411 3.991818666
14.34119892 10.37100315 2.503731012
13.70533085 9.877510071 3.044330597
14.25531197 10.31682205 3.782453775
12.54215622 8.974680901 3.999168158
13.03462696 9.372704506 4.733808517
18.60667038 13.58375645 0.5317345262
18.61157799 13.60115051 1.35526371
12.58776379 8.918506622 2.290660858
12.79214287 9.087498665 2.889265776
12.39241505 8.781238556 3.385012627
12.50976658 8.879057884 3.983198404
13.07455826 9.330917358 4.736231804
18.67675781 13.53912258 0.5328431129
18.63828087 13.51779747 1.356025338
15.36596775 10.99311256 1.935892701
12.63582325 8.888988495 2.293490171
12.81101036 9.030736923 2.887716055
12.48808002 8.789816856 3.399317503
12.51545334 8.817223549 3.977435827
13.88713741 9.88950634 4.971485615
18.74608612 13.48848343 0.5340801477
18.73505592 13.49373531 1.358940482
18.73218346 13.50010777 2.185304642
12.60818577 8.797557831 2.287179708
11.88818359 8.252552986 2.732385874
12.45744038 8.69691658 3.386943579
12.57688427 8.795172691 3.985542059
12.88733482 9.044706345 4.661411762
18.79847908 13.42989731 0.5354450941
18.85663986 13.48287582 1.362624884
14.87020683 10.44866085 1.895379424
12.61795807 8.738846779 2.28551054
11.94189644 8.22796154 2.736939669
12.47481441 8.644878387 3.384955168
21.26030922 15.37894249 6.18149662
12.90763474 8.989185333 4.658275604
14.79943657 10.31734276 1.888467431
12.55933762 8.625034332 2.275623322
12.03981113 8.23668766 2.748707056
12.41977119 8.534554482 3.367679596
15.37626076 10.78860569 4.67964077
12.90292263 8.914797783 4.647731304
14.87983608 10.29690361 1.892740726
12.48258972 8.498566628 2.263658285
12.07615757 8.198285103 2.750449657
12.44445896 8.485325813 3.367047787
14.77808285 10.25311756 4.519646645
13.10433483 8.996520996 4.698812485
14.96028042 10.27603436 1.897027254
12.3285656 8.315526009 2.242646217
12.58108521 8.520022392 3.389611006
15.59622955 10.78598404 4.71730566
13.1383543 8.950901031 4.69987011
13.1903286 8.882152557 1.764307618
12.56513405 8.424418449 2.267752409
12.0561285 8.052471161 2.73900485
12.60092545 8.46675396 3.388015509
16.01869583 11.01603699 4.814657211
13.17846298 8.909804344 4.702788353
19.30032539 13.28693867 0.5398184657
19.30084801 13.29644108 1.376281381
13.17925835 8.802969933 1.762051105
12.58942032 8.374675751 2.267830849
12.08867836 8.01160717 2.740241766
19.20069313 13.27040195 4.741406918
21.79670906 15.19774723 6.254995823
13.32326126 8.946033478 4.736783028
19.35135078 13.22069454 0.5413709283
19.34373665 13.2243309 1.377657175
13.20171452 8.745241165 1.762226701
12.64082432 8.344866753 2.271119356
19.28226089 13.2222929 4.749261856
15.46698952 10.43556309 4.658261776
15.29415894 10.32109833 5.31073904
19.40298653 13.1496973 0.5430318117
19.39931488 13.16147232 1.379435301
13.23033237 8.695650101 1.762947559
12.65994167 8.288031578 2.270504713
13.25237274 8.728157043 2.919532537
15.85543156 10.62773895 4.038277626
14.70075893 9.795704842 4.458446503
14.03704548 9.32394886 4.929656506
19.39264488 13.04444027 0.5452520847
19.37516403 13.04118252 1.378795862
13.5908823 8.885142326 1.788122654
15.50536728 10.27549458 2.600675821
13.90811539 9.130982399 3.020553589
14.98626232 9.920298576 3.853939056
14.74686909 9.755103111 4.462359905
13.14528179 8.604737282 4.657902241
19.35006142 12.91161537 0.5479738712
13.16519547 8.512595177 1.755514026
15.6525507 10.29904079 2.61461091
14.33461189 9.363071442 3.08447814
19.2537384 12.90056324 4.718894005
16.63767433 11.03387737 4.924600601
13.18741989 8.565781593 4.661764622
19.3018837 12.77579784 0.5507485867
19.30060005 12.78426743 1.376758575
13.19622231 8.465494156 1.756477714
15.65075207 10.21560764 2.611170769
13.30161953 8.553567886 2.9147892
19.2273941 12.78084564 4.705409527
14.07594204 9.122311592 4.280152798
13.17558479 8.488261223 4.649846077
19.25463486 12.64163589 0.5534954071
19.27296066 12.66392994 1.376055241
13.47677422 8.594232559 1.775754809
16.21645164 10.53275681 2.673782587
13.40397167 8.556352615 2.927007437
14.36932182 9.248688698 3.709533215
14.81476784 9.571193695 4.455701351
13.1935482 8.432275772 4.646751404
19.21652794 12.51483345 0.5561160445
19.22668266 12.5313673 1.374796629
13.62586594 8.628435135 1.785375118
15.39315605 9.872231483 2.574932575
13.34568596 8.445905685 2.913624763
19.16807175 12.53905678 4.677444935
16.85338211 10.92490482 4.951719284
13.19535828 8.365103722 4.639012814
19.17612076 12.38733006 0.5587498546
19.17971611 12.39929104 1.373530388
13.66876411 8.58770752 1.787224412
15.40428925 9.800361633 2.573175907
13.21027184 8.282763481 2.888063669
15.01885223 9.551925659 3.829319239
15.39174557 9.81968689 4.582688332
13.22718716 8.319162369 4.640105247
19.1630764 12.27953339 0.5610460639
19.15677261 12.2847023 1.37301147
13.64249706 8.499225616 1.784038067
15.40855789 9.72401619 2.570662737
13.1685524 8.18601799 2.877504587
12.90419865 8.013641357 3.395856857
15.33028126 9.69807148 4.559765339
13.24765301 8.265367508 4.637948513
15.49765778 9.678760529 0.6061066389
15.47169495 9.668740273 1.260557413
13.78550339 8.527130127 1.793228269
15.0822525 9.421729088 2.529999733
13.42899609 8.297010422 2.914885044
13.36773014 8.265473366 3.484237194
15.36836624 9.645787239 4.561438084
13.33684921 8.258897781 4.655792713
15.50635147 9.605545044 0.6077283621
15.50014973 9.609110832 1.261596918
13.82811737 8.485744476 1.795101762
13.44973373 8.23571682 2.338848829
13.45749569 8.247955322 2.915487766
16.35074234 10.23676109 4.794570923
13.37312508 8.215750694 4.658299923
15.55123138 9.556962013 0.6089318395
15.53998852 9.557226181 1.262996316
14.32754707 8.752075195 1.830234647
13.50611782 8.205500603 2.342825413
13.40690899 8.145571709 2.903641224
13.05315399 7.917069912 3.410592318
13.47757816 8.211152077 4.083865166
13.39798641 8.164830208 4.657557011
18.96599197 11.75766373 0.5717973113
14.52365685 8.810828209 1.843257904
13.48800278 8.125163078 2.338252068
13.45134163 8.107652664 2.906842709
13.0933857 7.878170967 3.413658381
13.53985119 8.184958458 4.092543602
13.43879318 8.124695778 4.661472321
18.94171333 11.64612389 0.5741639137
19.02140236 11.71335983 1.369970441
15.26258278 9.228239059 1.895680904
13.57230854 8.113367081 2.345477581
14.99346161 9.068989754 3.145816088
16.77284431 10.26129627 4.145274162
13.64131832 8.187986374 4.11111021
16.84863853 10.33472252 5.635121346
18.90802956 11.53381062 0.5765212774
18.98790741 11.60078621 1.369192719
14.81087399 8.857979774 1.861723661
13.88947868 8.258020401 2.379518747
13.46729755 7.99004364 2.902239799
14.77673149 8.862576485 3.740429163
13.65140724 8.129868507 4.107430935
16.86257362 10.26397228 5.629949093
18.85371017 11.40874767 0.5790952444
18.9526825 11.4830904 1.368386865
14.76450825 8.757513046 1.857224345
14.03119564 8.285063744 2.393404961
14.64909744 8.697393417 3.083808184
14.57613468 8.661070824 3.695221424
14.14941692 8.388936043 4.221920013
14.43516445 8.584785461 4.924697399
18.82104492 11.29394436 0.5815198421
18.8262825 11.3070488 1.36479795
14.71259117 8.646897316 1.852236152
14.03293037 8.216596603 2.391159058
14.74208641 8.685241699 3.094412327
18.71932983 11.28190422 4.5145154
15.9040966 9.458378792 4.640092373
16.97485161 10.16979694 5.643052101
18.77981377 11.1697607 0.584127903
18.78506279 11.18285656 1.363846064
14.62653923 8.518798828 1.844871521
14.04932213 8.154407501 2.390500784
14.79350662 8.642018318 3.09832859
14.6037302 8.531128883 3.689852238
14.7463789 8.631496429 4.352920532
13.91550064 8.102324486 4.759869099
18.75270653 11.06007195 0.5864679217
18.7377243 11.0602541 1.362703443
14.61882782 8.441955566 1.843200803
14.03201962 8.07429409 2.38615489
15.6931982 9.145364761 3.234743118
16.15249634 9.452213287 3.991886616
15.03979683 8.747363091 4.417073727
13.34252071 7.666090012 4.589002132
18.70816803 10.94001007 0.5889830589
18.70121765 10.94994164 1.36188817
14.69168282 8.41659832 1.847365975
14.21770668 8.123506546 2.404941559
14.34549618 8.21585083 3.021057844
14.74844551 8.480055809 3.708161116
15.57226276 9.01287365 4.538623333
13.26384735 7.554009914 4.559765816
18.67451668 10.83218479 0.5912681222
18.67638206 10.84314442 1.36145854
14.7206049 8.36320591 1.848378062
14.13283825 8.004223824 2.393084764
14.34845829 8.147856712 3.017851114
14.70576382 8.384892464 3.694849014
13.84686375 7.850298882 4.117210865
13.36188221 7.551501274 4.58049202
18.74761009 10.78705692 0.592533052
18.75109863 10.79911137 1.364101529
18.74999237 10.81287003 2.137465954
14.27673817 8.025651932 2.407123804
16.34629631 9.328662872 3.324261427
16.1368103 9.210392952 3.972212553
14.0147562 7.888503551 4.151472092
13.34804726 7.47810173 4.569500923
18.85292053 10.76156139 0.5934776068
18.85124016 10.7704792 1.367542028
15.8384037 8.913380623 1.926690221
14.28732204 7.963254929 2.40604949
14.34338093 8.005852699 3.009873629
16.46990776 9.335663795 4.03208065
14.19956398 7.932499409 4.189411163
13.5005827 7.50876236 4.605656147
18.96372414 10.73425484 0.5944873095
18.93948746 10.73396683 1.370632768
15.9557476 8.909351349 1.934039712
14.35850716 7.934929371 2.411750793
14.23063469 7.867427349 2.988910913
14.97065926 8.331802368 3.731721401
14.25827694 7.900540829 4.19741106
13.68326187 7.556859016 4.650242805
19.04491043 10.69733524 0.5956110954
19.04647636 10.70843315 1.374316812
15.9164772 8.808959007 1.930155277
14.38924599 7.888387203 2.413118124
19.02299881 10.72958851 3.725622892
14.98573303 8.272972107 3.729973555
14.22685909 7.816503525 4.184215069
13.59125137 7.434998035 4.617322445
19.14518929 10.66702175 0.5966599584
19.13812065 10.67298317 1.377544999
15.98601818 8.778949738 1.93415606
14.48263359 7.876381397 2.421467304
14.79957294 8.076633453 3.069794893
13.87770748 7.528458118 3.507881641
14.20658016 7.736401558 4.173470497
13.58494854 7.366447449 4.608683109
19.23863029 10.63202572 0.5977942348
19.25032425 10.64936924 1.381423831
16.04178047 8.732705116 1.937081218
19.24545288 10.67188358 2.955908537
13.90810204 7.469785213 2.929044962
13.77808952 7.3992939 3.48368597
13.59834766 7.298847198 4.022650242
13.55502892 7.28397274 4.59349966
19.33577919 10.59417725 0.5990116596
19.34026146 10.61182785 1.384632707
16.44386482 8.896425247 1.96486938
17.0955925 9.294127464 2.711050749
13.86889362 7.380635262 2.919782639
13.72370911 7.301694393 3.468673468
13.66687965 7.275630951 4.033414364
13.59475994 7.243783474 4.597946644
19.44786263 10.57372189 0.5998952389
19.42328453 10.56972218 1.387644768
16.19427872 8.671432495 1.946017146
16.19546318 8.684823036 2.607547283
19.43974304 10.61608982 3.771777391
13.73188496 7.245192051 3.466166735
13.68514061 7.225411415 4.032544613
13.58924675 7.176578999 4.589774132
19.54302979 10.53813362 0.6010636687
19.52521706 10.53830338 1.391257763
19.54017448 10.5623045 2.184256792
19.53990364 10.57291603 2.980589151
13.96690178 7.307949543 2.928486824
13.81772232 7.231363773 3.47861743
13.75526237 7.202620029 4.043726921
13.62195301 7.132238388 4.59236002
19.63126373 10.49800014 0.6023142338
19.62716866 10.50631428 1.394888639
19.63337517 10.52525234 2.189782619
15.86938572 8.343257904 2.566415548
14.03975677 7.285223007 2.936522007
13.72895908 7.123063087 4.032133102
13.81563187 7.182034492 4.639876366
19.73679352 10.46736622 0.6034187675
19.73086739 10.47474003 1.398591518
19.72137642 10.48468685 2.194955111
15.85480785 8.261015892 2.562594175
14.61547661 7.552996159 3.021426678
15.22351742 7.917011738 3.74312067
13.72769451 7.058537483 4.026533604
13.88032055 7.155418396 4.651381493
19.83366203 10.43117237 0.6046220064
19.82763863 10.43862057 1.402097106
19.82838249 10.45455837 2.201501846
19.8205452 10.46110916 3.003880024
14.62228012 7.489217758 3.019295692
15.57707405 8.049696922 3.807105541
14.65356827 7.527626038 4.239397049
13.9382515 7.124559402 4.661026001
19.9426918 10.40135384 0.60573107
19.90874863 10.39307594 1.405134678
19.93888474 10.42580223 2.208314657
19.93941879 10.43725014 3.014511347
14.62020588 7.420582771 3.015853167
14.85909462 7.568572998 3.663548231
14.62123966 7.44162178 4.226274014
14.03833771 7.117512703 4.68239069
20.04652405 10.36797142 0.6069066525
20.03159523 10.37064362 1.409484625
20.03203583 10.38661385 2.213908672
17.53047752 8.986747742 2.743171215
16.93818092 8.66226387 3.365563154
14.83673096 7.487674713 3.654901743
14.6908083 7.413861275 4.237170219
13.94569492 7.000586033 4.650357723
20.13989258 10.32814789 0.6081942916
20.13532639 10.33676338 1.413259983
20.14437485 10.36898041 3.03215909
16.7981739 8.506335258 3.340764999
14.63391972 7.314731121 4.218436241
14.04563808 6.993001461 4.671740532
20.24197197 10.29265976 0.6094213128
20.35449982 10.3662138 1.420643806
20.34218979 10.37540436 2.233959913
20.2407608 10.33060265 3.040332079
17.02645874 8.556575775 3.371975899
14.61162758 7.226930141 3.603060007
14.52516842 7.187495708 4.187671661
14.35625839 7.102223873 4.751278877
20.35436821 10.26687622 0.6104696393
20.44073677 10.32566071 1.423884869
20.4667511 10.35608578 2.241885662
16.25141144 8.046560287 2.594405174
15.0190258 7.37659502 3.064395905
14.50351906 7.104216576 3.578374624
14.51553154 7.119534016 4.180474758
14.46735573 7.10180378 4.775935173
20.45296288 10.22829056 0.6117640138
20.53940201 10.28682709 1.427559495
20.59336281 10.33246517 2.249924183
16.28407669 7.990838528 2.596041203
14.55003548 7.052251816 2.990405083
14.42553234 6.995910645 3.559385061
14.48978806 7.039786816 4.169329643
14.41975212 7.010291576 4.756574631
20.56736946 10.19769764 0.6129416227
20.64508438 10.2512331 1.431471705
16.66101646 8.11205101 1.969938159
16.30080223 7.926457882 2.595935822
14.59662247 7.011927128 2.994596958
14.42631245 6.928072929 3.555410147
14.52391624 6.993067741 4.172221661
14.55441761 7.018639088 4.787421703
20.67315674 10.15718555 0.614320457
20.77736855 10.22464275 1.436265469
16.6797123 8.043464661 1.970499039
16.28020668 7.83851862 2.591630697
14.55715847 6.921889305 2.985678673
14.46847153 6.882769585 3.559420824
14.43506241 6.876745701 4.146289349
14.54351521 6.944209099 4.777983665
20.78245544 10.11791992 0.6156901121
20.87955475 10.18587685 1.440107822
20.89998055 10.20860004 2.268866062
20.75933456 10.14573097 3.085440159
14.68384361 6.92429781 3.002017021
14.44826126 6.807285786 3.551724672
14.56023693 6.879112244 4.170461178
14.60978985 6.914672375 4.790082455
20.89499664 10.08900356 0.6168358326
21.01517487 10.16881371 1.444981813
21.04247284 10.19518852 2.278146505
16.12212944 7.609620571 2.570406437
14.6779232 6.858986855 2.998512506
14.68085003 6.86925602 3.592580318
14.53712463 6.805238724 4.160451889
20.99692917 10.0539217 0.6180865765
21.09612465 10.11767864 1.448197842
21.10197067 10.13747692 2.281566381
16.1412468 7.551593781 2.570804834
14.63794804 6.772842884 2.989790201
14.74115181 6.83900404 3.600492716
15.19825745 7.088302135 4.308805466
15.58210564 7.299843311 5.044033051
21.11853027 10.02378178 0.6193084717
21.13081932 10.04219532 1.449982166
21.10830116 10.04730129 2.281204939
16.07682228 7.446678162 2.561921597
15.59136105 7.203729153 3.130392551
14.68729973 6.745740891 3.586482763
15.11620331 6.978308678 4.284846783
15.77215004 7.330156326 5.089616299
21.21703529 9.981071472 0.6207340956
21.22025299 9.999538422 1.453462958
21.20300484 10.00287056 2.287121773
16.11804008 7.39699173 2.564733744
15.67955971 7.183904171 3.140980482
14.72234154 6.699092865 3.589470863
15.13103676 6.919361591 4.283390999
15.79889488 7.278002739 5.090962887
21.32965851 9.949677467 0.6219572425
21.34715843 9.97082901 1.458174944
21.33143806 9.975140572 2.295443773
16.08145905 7.31099844 2.559084177
15.71976852 7.135567188 3.144245625
14.72609901 6.639571667 3.586727142
15.06759644 6.8237257 4.264170647
15.84415722 7.231879711 5.097088814
21.44061661 9.91212368 0.6233239174
21.43663788 9.92245388 1.461731195
21.43668556 9.939567566 2.302182198
21.44068527 9.954110146 3.147215605
15.60776901 7.009955883 3.124747753
14.74673462 6.585586548 3.587054491
15.09756756 6.773020744 4.266335011
15.19633675 6.832840443 4.915014267
21.55514526 9.875716209 0.6246839166
21.55463982 9.887903214 1.466204405
21.55281448 9.899481773 2.309638262
16.20735168 7.233564377 2.569621801
15.60668182 6.94130373 3.121920824
15.44310951 6.868441105 3.71535635
15.05869675 6.684311867 4.25247097
15.26963139 6.803581715 4.929096699
21.68231773 9.840177536 0.6260834336
21.66379356 9.843543053 1.470459223
21.65633774 9.857149124 2.316261292
21.67407227 9.878691673 3.168426752
15.65455532 6.893902302 3.126322031
15.51038742 6.834873676 3.724440098
15.14953518 6.664257526 4.268735409
15.21904087 6.708649158 4.909359932
21.77712059 9.792678833 0.6276323199
21.78898621 9.811142921 1.475202203
21.7688446 9.813958168 2.323507309
21.80055046 9.847110748 3.180191755
15.77916527 6.887592316 3.142333031
15.52590942 6.772015095 3.723578453
15.16972637 6.605378151 4.268567562
15.24678421 6.656537056 4.911211491
21.89350128 9.750447273 0.629155457
21.90168953 9.767186165 1.479613781
21.89383125 9.780892372 2.331688166
21.89136124 9.792619705 3.187961102
15.89635372 6.873389244 3.157111645
15.50091553 6.692755222 3.715291977
15.22181892 6.56549263 4.275992393
24.02476501 10.89938259 7.276040554
22.01521301 9.714832306 0.6305491328
22.0071106 9.723775864 1.483775854
21.99188805 9.734059334 2.337991714
21.99993134 9.750969887 3.197807312
16.21386337 6.95894289 3.201852322
15.55537605 6.652525425 3.722058296
24.10338974 10.81896877 6.30431366
24.12099266 10.84298515 7.293310642
22.13875389 9.679349899 0.6319528818
22.12327766 9.689660072 1.488256097
22.13128281 9.706503868 2.347230911
17.10396194 7.306846619 2.659862041
16.25029564 6.910401821 3.204853535
15.59907913 6.606884003 3.726825476
24.21587753 10.76988983 6.323051453
24.22911835 10.79702187 7.314260006
22.26407814 9.648739815 0.6332523823
22.25213051 9.656141281 1.493202686
22.22567749 9.656705856 2.353320837
17.03922272 7.206572533 2.651323557
16.27002716 6.85035038 3.205276012
15.63780308 6.562050819 3.730859756
24.33514595 10.7286377 6.343716621
24.31464577 10.73449993 7.328736782
22.37499237 9.605846405 0.6347882748
22.37016869 9.616750717 1.497828603
22.36511612 9.632367134 2.362632513
17.05820274 7.142902851 2.651901722
16.29312515 6.791941166 3.20623517
15.66520882 6.508405685 3.73262763
24.43515587 10.68817043 7.352665901
22.48949814 9.564005852 0.6363202929
22.49543953 9.580050468 1.502706647
22.47571182 9.58895874 2.369907141
17.14185524 7.109544277 2.659572363
16.22803688 6.692303181 3.194152832
15.70313644 6.45968771 3.736412048
24.57673073 10.6510725 7.382280827
22.58763695 9.513957977 0.6379818916
22.60258102 9.538992882 1.506984472
22.60257149 9.552444458 2.378350019
17.10627937 7.020494938 2.654251575
16.26545334 6.644403458 3.197435379
24.70755577 10.6133213 7.409448147
22.73300743 9.489746094 0.6392372251
22.72422218 9.499214172 1.511791468
22.7203846 9.511006355 2.386178493
17.11416435 6.955519676 2.653777361
16.45710182 6.663883209 3.223457813
22.70784187 9.55643177 5.042567253
24.87212181 10.58516598 7.445254326
22.85294151 9.448330879 0.640799284
22.84587669 9.463522911 1.516573668
22.8400135 9.474503517 2.394179821
17.12495995 6.88842535 2.653580427
22.82349777 9.499517441 4.162693501
22.81367111 9.509243965 5.057755947
25.12316322 10.60081863 7.504596233
22.96741867 9.408560753 0.6423010826
22.97846222 9.427222252 1.521775603
22.95233727 9.429234505 2.401668072
22.97799492 9.459493637 3.289631128
22.94779205 9.459939003 4.177881241
22.95000076 9.480050087 5.078905106
25.2385025 10.54788399 7.527238846
23.09273148 9.358511925 0.6441102028
23.10372543 9.382038116 1.526817203
23.07005119 9.380911827 2.409540892
23.10088348 9.408665657 3.301069021
23.07205582 9.414792061 4.192931652
23.05212784 9.420295715 5.09300518
25.40827179 10.49155903 6.540770054
25.38053322 10.50103664 7.556638718
23.22363853 9.324627876 0.6455549598
23.20523453 9.330434799 1.531072855
23.21150017 9.347193718 2.419126272
23.20565033 9.363535881 3.310824394
23.2090168 9.379322052 4.210037708
23.18307495 9.387182236 5.113193035
25.43813705 10.40431404 6.541388988
25.53303719 10.46325874 7.589259624
23.34168053 9.279527664 0.6472198963
23.341465 9.2934618 1.536464334
23.34025002 9.311870575 2.427859068
23.34859085 9.329749107 3.324667931
23.33148193 9.336662292 4.225030422
23.30317307 9.343710899 5.131157398
25.52160072 10.33546448 6.553877354
25.66602135 10.41592979 7.616704464
23.49273491 9.248005867 0.6487119198
23.45570564 9.246137619 1.541174293
23.46346474 9.268543243 2.436209679
23.47696495 9.288750648 3.336952686
23.45756912 9.294839859 4.240581512
23.43589973 9.305037498 5.151501179
25.66772842 10.29356098 6.580561638
25.79897499 10.36782455 7.644175529
23.60892487 9.200592995 0.6504359245
23.59745979 9.209939957 1.546793222
23.57931137 9.221338272 2.444068432
23.6071682 9.247755051 3.349460602
23.58364105 9.252274513 4.256156445
23.56863976 9.265550613 5.171870232
25.81206322 10.25000954 6.606868744
25.93367767 10.31969738 7.672144413
23.73242569 9.155625343 0.6521398425
23.72820854 9.168190956 1.552083254
23.71339417 9.176344872 2.453221083
23.72821045 9.202075958 3.361000538
23.72610092 9.215949059 4.274166584
23.68136406 9.211843491 5.188332558
25.97451782 10.20799065 6.636974335
26.07371521 10.27305222 7.70156002
23.85949707 9.106518745 0.6539691687
23.84972763 9.121788979 1.557100892
23.8475647 9.135424614 2.462418318
23.84545326 9.149212837 3.372078657
23.84851074 9.170259476 4.289255142
23.82314301 9.174654961 5.210435867
26.11165047 10.1595583 6.661715984
26.22624969 10.23089218 7.73431921
24.01628685 9.078811646 0.6554156542
23.97859383 9.077734947 1.562380195
23.98541451 9.095237732 2.471899986
23.98487282 9.114710808 3.385740757
23.97088623 9.123838425 4.304368019
23.92866898 9.126293182 5.226046562
26.24145699 10.11258316 6.685143948
26.37879944 10.18778992 7.76710701
24.13604927 9.029973984 0.6572141647
24.12789154 9.075941086 3.399740934
24.10420609 9.081246376 4.321114063
24.06680489 9.085993767 5.247526169
26.40384674 10.07307148 6.715620995
26.50265884 10.13182354 7.792338848
24.26132774 8.982676506 0.6590066552
24.34362221 9.031085968 1.576492786
24.35547447 9.055832863 2.497573137
24.26171112 9.032536507 3.412772179
24.24485016 9.040854454 4.338960171
24.18853569 9.038106918 5.265994072
26.54092407 10.02212715 6.740442753
26.64619827 10.08327103 7.822811604
24.40325546 8.941356659 0.6607366204
24.50593948 8.997789383 1.582940102
24.54897499 9.035265923 2.511039257
24.39183426 8.986809731 3.425430298
24.37081337 8.993625641 4.354683399
24.3156929 8.991732597 5.285498142
26.69427872 9.976994514 6.768948078
26.79871368 10.03750992 7.85568428
24.53775787 8.89621067 0.6625316143
24.6441803 8.953842163 1.588634014
24.63887596 8.971906662 2.517259121
24.51269341 8.936602592 3.437115431
24.51512146 8.953041077 4.373120785
24.43915939 8.943118095 5.30435133
26.84581947 9.930206299 6.797077179
26.95662308 9.993015289 7.890010357
24.68154144 8.853923798 0.6643061638
24.75097466 8.901581764 1.593269706
24.81397057 8.941895485 2.529487133
24.65938759 8.895946503 3.451621532
24.64669991 8.911465645 4.389854431
24.57905579 8.900321007 5.326272011
26.96279907 9.868677139 6.817508698
27.11268616 9.952252388 7.924238205
24.8236351 8.815070152 0.6659912467
24.92638206 8.87066555 1.600227118
24.91484642 8.88158989 2.536533356
24.80069923 8.857263565 3.465638399
24.7799511 8.864798546 4.406729698
24.70993423 8.858086586 5.346748352
27.12699318 9.830636978 6.848818779
27.23990822 9.893676758 7.950550079
24.95063972 8.76453495 0.6679013968
25.05714417 8.821290016 1.605758071
25.02135468 8.827965736 2.544002533
24.94555664 8.814126968 3.479999542
24.91686821 8.818761826 4.424170017
24.84613419 8.8122015 5.368044853
27.27118301 9.778297424 6.875405312
27.3869381 9.842135429 7.982113838
25.08506393 8.716095924 0.6698013544
25.0964222 8.735989571 1.608324528
25.06966591 8.741326332 2.547415972
25.06812859 8.761496544 3.491985559
25.06669235 8.776908875 4.443524361
24.97662354 8.758280754 5.388131618
27.44087791 9.72951889 6.907443047
27.55385017 9.797448158 8.01893425
25.24356461 8.670934677 0.6717451215
25.2120266 8.679650307 1.613408566
25.207407 8.693641663 2.55713582
25.21088982 8.710843086 3.506120443
25.21282578 8.73268795 4.462368488
25.090662 8.702278137 5.405415058
27.58499527 9.675317764 6.934088707
27.70807648 9.746847153 8.052457809
25.38376617 8.627979279 0.6735463142
25.35560036 8.633200645 1.619435668
25.35072517 8.647212029 2.567276001
25.3596077 8.671617508 3.521046162
25.33856201 8.6798563 4.478271961
25.26194763 8.672336578 5.433447838
27.73274994 9.62716198 6.961853027
27.86954689 9.698049545 8.087915421
25.52936363 8.581139565 0.6754791737
25.49728775 8.585144997 1.625429988
25.49050713 8.603645325 2.577191591
25.498806 8.622879982 3.534916878
25.47536278 8.630441666 4.495820045
25.41095352 8.627929688 5.4572258
27.89326859 9.577424049 6.992224216
28.01464081 9.642094612 8.119122505
25.671175 8.532042503 0.6774562001
25.64644623 8.538990021 1.631698847
25.62067032 8.550667763 2.586466312
25.66223335 8.582253456 3.551427841
25.63628578 8.589120865 4.516910553
28.07677078 9.5165205 5.943181992
28.05377579 9.526679039 7.022627354
28.17240715 9.590028763 8.153688431
25.80168724 8.477948189 0.6795091033
25.7918396 8.49052906 1.637873769
25.77514839 8.505767822 2.597478628
25.79203796 8.52831459 3.564349413
25.7804718 8.540670395 4.535597324
28.22153854 9.458791733 5.965900898
28.23079681 9.481023788 7.056735039
28.33744049 9.539648056 8.190192223
25.96224022 8.433897972 0.6814644933
25.93720055 8.441166878 1.644077182
25.92586517 8.458561897 2.608257771
25.9348793 8.478310585 3.578706264
25.92649078 8.492004395 4.554583549
28.3921833 9.409585953 5.993404388
28.38022423 9.424245834 7.084753036
28.49880028 9.486927986 8.225774765
26.11149597 8.384807587 0.6834970117
26.09570694 8.395614624 1.650745273
26.06904984 8.407721519 2.618538857
26.08891487 8.43145752 3.594300747
26.07247925 8.442421913 4.573598862
28.56095505 9.358660698 6.020601273
28.53880882 9.369837761 7.114843369
28.680233 9.440442085 8.266631126
26.26072311 8.334789276 0.6855592728
26.23912811 8.343754768 1.65694499
26.23665619 8.364635468 2.630566835
26.24668884 8.384971619 3.610329628
26.21282959 8.389961243 4.591829777
28.72414017 9.304704666 6.046811581
28.69919205 9.315119743 7.145373344
28.82508659 9.379763603 8.297988892
26.39262581 8.272681236 0.6878497005
26.39760208 8.296268463 1.663674474
26.37383461 8.304722786 2.640505075
26.40417099 8.332228661 3.626315117
26.36808395 8.34186554 4.612258911
28.88903809 9.244691849 6.073194504
28.8594265 9.253721237 7.175665855
28.98084068 9.322092056 8.332238197
26.55906868 8.231990814 0.6897721291
26.55417633 8.247125626 1.670372963
26.52820206 8.255059242 2.651669264
26.53775406 8.280565262 3.639853716
26.5345459 8.2967062 4.634346962
29.04201889 9.210395813 7.211437702
29.14937782 9.267921448 8.369856834
26.72332764 8.18434906 0.6918690801
26.69180489 8.190556526 1.676472783
26.69040489 8.212306023 2.663398743
26.69544792 8.231186867 3.655974388
26.68976402 8.246629715 4.654839039
29.19117737 9.148790359 7.239610672
29.2884922 9.20259285 8.399873734
26.88378906 8.134384155 0.6940124035
26.83882332 8.136339188 1.682915807
26.84851265 8.161969185 2.674890995
26.84934425 8.1795578 3.671721458
26.81867981 8.186678886 4.671557426
29.3569355 9.091932297 7.27149868
29.46243095 9.148301125 8.438988686
27.03853035 8.081518173 0.6962071061
26.99906921 8.085613251 1.689832449
26.99523544 8.106850624 2.685616255
26.99943161 8.12569046 3.68709445
26.98506355 8.138552666 4.693740368
29.54118538 9.040309906 7.307513714
29.62713814 9.089817047 8.475751877
27.18562698 8.025198936 0.6984575987
27.16687393 8.03640461 1.697034717
27.15136719 8.053956032 2.69703722
27.16646576 8.076505661 3.704323292
27.1326313 8.083122253 4.713235855
29.91179657 9.029145241 6.242963791
29.70685768 8.981315613 7.339469433
29.80283165 9.034003258 8.515414238
27.34026909 7.97041893 0.7007139325
27.32896042 7.98425293 1.704080343
27.31694221 8.003160477 2.709157228
27.31644821 8.020730019 3.719757795
27.31402397 8.037878036 4.737662315
29.92131233 8.91697979 6.241436481
29.88734245 8.926177979 7.37473774
29.99693298 8.983147621 8.559890747
27.52341652 7.923854828 0.7029129267
27.48530579 7.929244518 1.710966945
27.48818398 7.95318079 2.72171092
27.47584534 7.967047691 3.736239195
27.47280502 7.984146118 4.75885582
30.07850647 8.852866173 6.266890049
30.00263596 8.84873867 7.395691395
30.21872902 8.940096855 8.611578941
27.68941879 7.870657444 0.7052006125
27.6229229 7.872625351 1.71717298
27.63469124 7.894219398 2.732560158
27.64277267 7.914792061 3.753566265
27.62623978 7.933032513 4.779400826
30.26375198 8.796808243 6.297499657
30.16247749 8.784964561 7.426512718
30.40193367 8.889004707 8.653594971
27.8481369 7.81947422 0.7074020505
27.79820824 7.821749687 1.724762559
27.80015373 7.840328693 2.744779348
27.81573868 7.868716717 3.771605015
27.76225281 7.870178699 4.797382832
30.44355965 8.743672371 6.327315331
30.33551025 8.730222702 7.460502625
30.57197952 8.826761246 8.691969872
30.64885139 8.579319 0.7024337053
30.65226364 8.600147247 1.822862625
30.58992386 8.606492996 2.941813707
30.68570709 8.656326294 4.078932285
30.6594162 8.668432236 5.214048386
30.62309647 8.683545113 6.356972218
30.51947403 8.672060966 7.496727943
30.70119476 8.750638008 8.71985054
30.80607796 8.510326385 0.7051100731
30.85139656 8.544114113 1.831498027
30.75620651 8.540790558 2.954222441
30.84590721 8.588552475 4.09560585
30.83412552 8.605362892 5.237548828
30.7894001 8.618208885 6.384271145
30.89783669 8.672973633 7.575708866
30.93964958 8.707726479 8.776005745
31.02255249 8.458246231 0.7076660991
30.99503136 8.470016479 1.838293314
30.94530678 8.481004715 2.9682796
31.01743126 8.52323246 4.113537788
31.02771378 8.546977043 5.263818264
30.97445869 8.55756855 6.415027142
31.09313202 8.615237236 7.614492893
31.13360977 8.649600029 8.820714951
31.21219635 8.396788597 0.7103322148
31.17490578 8.405894279 1.846354365
31.13598061 8.414574623 2.982529163
31.21554756 8.464836121 4.134365082
31.20229721 8.481636047 5.287391663
31.19313622 8.500008583 6.451798439
31.26939774 8.544570923 7.648949623
31.3331089 8.591928482 8.86689949
31.38230133 8.32242775 0.7132424712
31.39082909 8.345347404 1.855780721
31.30774879 8.347259521 2.99545002
31.41331482 8.399147987 4.155182362
31.38028336 8.41030407 5.311429024
31.37998581 8.43743515 6.482977867
31.46458054 8.484379768 7.687812805
31.44487381 8.500778198 8.890272141
31.56603622 8.256918907 0.7159984708
31.53218842 8.267643929 1.862611055
31.52156258 8.291148186 3.01137948
31.6189785 8.340419769 4.1769104
31.65971565 8.422925949 7.726716518
31.77853775 8.198484421 0.7187303305
31.89835739 8.280563354 3.038856506
31.79783821 8.272662163 4.195811749
31.84915543 8.358585358 7.764424801
31.9794693 8.135432243 0.7215291262
32.06430817 8.207491875 3.051501751
31.97469711 8.203210831 4.214545727
32.04415512 8.294686317 7.803407669
32.17071533 8.068386078 0.724388659
32.17250443 8.117200851 3.060110807
32.18783951 8.142892838 4.237215519
32.23722076 8.228977203 7.842019081
32.39080048 8.008070946 0.7272340655
32.54108429 8.070796967 1.905519843
32.29968262 8.031582832 3.070101738
32.37601852 8.07425499 4.257258892
32.49170303 8.128216743 5.46463871
32.48202133 8.153849602 6.670040607
32.43772888 8.164152145 7.88231945
32.47269058 8.197125435 9.130144119
32.55294037 7.930649281 0.7302260995
32.56820679 7.956218243 1.908624887
32.48246765 7.960449219 3.084065676
32.57946014 8.008615494 4.278986454
32.57217026 8.028604507 5.475017548
32.52986526 8.045399666 6.676363468
32.66081619 8.104268074 7.927610397
32.67172241 8.130696297 9.1766119
32.75165176 7.86199522 0.733191967
32.76290131 7.886601925 1.917530298
32.74993896 7.910933018 3.10406518
32.79050827 7.943750858 4.301579475
32.78619003 7.964756489 5.504672527
32.70664215 7.971822739 6.706095219
32.86687088 8.038314819 7.969234467
32.89690781 8.070108414 9.229849815
32.98508072 7.801262379 0.7361444831
32.96715164 7.818287849 1.926810265
32.95379639 7.842782497 3.119615078
32.98996353 7.874439716 4.322980881
32.9829216 7.894927502 5.531894684
32.9213562 7.907289028 6.742749691
33.05393982 7.965993404 8.006772041
33.10329056 8.003030777 9.278326988
33.18364716 7.72992754 0.7391966581
33.17325592 7.749175072 1.936199188
33.16723633 7.775828838 3.135891914
33.20087051 7.806887627 4.345659733
33.19105911 7.826842308 5.560811043
33.14553833 7.843895912 6.781170845
33.26549911 7.898950577 8.049718857
33.26456833 7.922662258 9.315300941
33.39655685 7.673451424 0.7419319153
33.3821106 7.691850662 1.945498943
33.35636139 7.713650703 3.15037322
33.42027664 7.752586842 4.369287491
33.39422226 7.76856184 5.589160919
33.36288834 7.789651394 6.81861496
33.47779846 7.843177319 8.093200684
33.52600479 7.879971981 9.378441811
33.60271835 7.601528168 0.745056808
33.59582138 7.622092247 1.955241442
33.5537262 7.633816719 3.165668488
33.64647293 7.686273575 4.393706799
33.60412979 7.698355198 5.61843729
33.56554031 7.711711407 6.853157043
33.70015717 7.770048618 8.138467789
33.73216629 7.808911324 9.427046776
33.82382584 7.525772572 0.7483785152
33.83030319 7.54989624 1.965874195
33.79980087 7.571130276 3.184406757
33.84513474 7.605311871 4.415240765
33.826931 7.623805523 5.64958334
33.77042389 7.639245987 6.888264179
33.91148376 7.698890686 8.181548119
33.93404388 7.729197979 9.474419594
34.0472641 7.455388069 0.7515741587
34.03219223 7.474375248 1.97530365
33.99161148 7.49343586 3.199348211
34.05764771 7.53275013 4.438303947
34.03663635 7.550835133 5.678949356
