# .PCD v0.7 - Point Cloud Data file format
VERSION 0.7
FIELDS x y z
SIZE 4 4 4
TYPE F F F
COUNT 1 1 1
WIDTH 1277
HEIGHT 1
VIEWPOINT 0 0 0 1 0 0 0
POINTS 1277
DATA ascii
-11.54340172 26.1783905 2.836602449
-24.66897202 81.11555481 0.4955352545
-19.27683449 69.20275116 0.4692183435
-18.90982628 68.74502563 0.459877491
-18.60871506 68.50933838 0.4492299259
-18.29741478 68.21767426 0.4392268956
-18.01791763 68.06150055 0.4279845059
-17.75547218 67.97853851 0.4160588384
-17.46435165 67.75361633 0.4056441486
-17.16692543 67.48828888 0.3957458138
-6.647046566 16.77524757 3.201204538
-16.85570335 67.14328766 0.3868096173
-6.700898647 16.9674778 2.071666479
-6.606376171 16.66753006 2.616434336
-6.592106819 16.78847313 3.198326349
-16.57798004 66.8927536 0.3775996566
-6.646161556 16.97033119 2.068179607
-6.557953835 16.91061211 3.209823132
-16.32841301 66.837677 0.3656817973
-6.593539238 16.99903107 2.066065311
-6.487155914 16.64048195 2.605527639
-6.525067806 17.02826118 3.220921278
-16.03700829 66.55968475 0.3563124537
-6.540385246 17.02560043 2.063825607
-6.429207802 16.61924362 2.599588633
-6.452361107 16.94937897 3.205963373
-15.77274132 66.41411591 0.3455262482
-6.321881294 16.15869331 2.008397579
-6.386955738 16.69820976 2.603009701
-6.33165741 16.60079384 3.155767202
-15.50095654 66.22031403 0.3353613019
-6.264422894 16.1450386 2.00398922
-6.339975357 16.75354767 2.604170799
-6.233446598 16.36484337 3.120513916
-15.24556541 66.10807037 0.3243018985
-6.280587673 16.75629807 2.600145578
-6.202237606 16.50562668 3.134538174
-14.98184395 66.00865936 0.3125136793
-6.142455578 16.09000969 1.993427396
-6.260392189 16.97030258 2.616278648
-6.13619566 16.46301842 3.124439001
-14.71399021 65.81165314 0.3025816083
-6.064025402 15.94970703 1.981669307
-6.164753914 16.74445534 2.590935946
-6.062175751 16.35312271 3.105875731
-6.02175808 16.00357437 1.9814955
-6.157407284 17.04476166 2.615106344
-6.019767761 16.43284607 3.111963034
-6.074543953 17.23672295 4.398132324
-6.152956009 17.13764954 2.043930531
-5.981422901 16.52376747 3.11969471
-6.028555393 17.29810905 4.405627728
-5.911402225 15.9895792 1.973716378
-6.052627563 17.09449768 2.611842155
-5.919679642 16.48566246 3.110548735
-5.96880722 17.29000854 4.398886681
-6.097562313 17.78117561 2.671531439
-5.965344429 17.15347481 3.192325115
-5.902304649 17.25496674 4.386529922
-5.82667923 16.14058495 1.975483298
-5.904930592 16.90021706 2.58555603
-5.899784088 17.1215992 3.18367219
-5.849511147 17.2930069 4.389156818
-5.77327013 16.12861824 1.971503615
-5.851482868 17.1671505 3.185423613
-5.789286613 17.25856209 4.377530098
-5.714147568 16.09512329 1.966141939
-5.592670918 15.72334862 2.996618509
-5.717885494 16.87983894 3.717644453
-5.599719524 15.91895008 2.483590364
-5.535197735 15.70770741 2.990546227
-5.650713444 16.82381821 3.703788519
-5.605637074 16.13105392 1.960982442
-5.542615414 15.91102791 2.479039192
-5.481287003 15.71740723 2.987740278
-5.579353333 16.73228264 3.684207439
-5.471205711 15.77418232 2.462881565
-5.615865231 17.15510368 3.166706562
-5.522197723 16.72426796 3.678543329
-5.420137405 15.78715324 2.460500002
-5.481434345 16.84732437 3.69424057
-5.698066235 18.12568855 2.062204123
-5.376936913 15.86319351 2.463880539
-5.552504539 17.57598114 3.211695194
-5.419490337 16.80171204 3.682513237
-5.330493927 15.87319851 2.461595297
-5.515096664 17.7068367 3.224438906
-5.320544243 16.39039993 3.611967087
-5.359423161 17.0251236 4.297944069
-5.52837944 17.68027115 2.030275345
-5.279256821 15.88766479 2.459372759
-5.445529938 17.61955261 3.209203005
-5.27328968 16.45599556 3.61845541
-5.303475857 17.03408051 4.295166016
-5.404265404 17.12810135 1.996096134
-5.373928547 17.50832176 3.19102478
-5.204140186 16.32714272 3.593513012
-5.23841095 16.95894432 4.27579546
-5.428567886 17.50041962 0.845970571
-5.424641609 17.47135162 1.429696202
-5.358321667 17.22807121 1.998039961
-5.280698299 17.19161415 3.147111416
-5.153338909 16.36096382 3.594922781
-5.177026749 16.94047356 4.267477036
-5.366890907 17.47320747 0.8432359099
-5.240998268 16.68676186 1.964823246
-5.254159451 17.15031242 2.56232214
-5.175039768 16.76226234 3.089061022
-5.098463535 16.35729408 3.590307951
-5.126285076 16.99760628 4.274343014
-5.189582825 16.72665977 1.963568211
-5.241601944 17.57863045 2.597013712
-5.109415054 16.63975525 3.070043087
-5.040691853 16.32395554 3.580955505
-5.073022366 17.00348854 4.271345139
-5.182984352 17.55088806 2.590889692
-5.029031277 16.38691139 3.034634829
-5.104987144 17.55441666 3.774613142
-5.012149811 16.95868492 4.258197308
-6.476416111 30.06075287 0.631575644
-5.185258389 17.80156708 2.014911652
-5.121096611 17.5172863 2.584084034
-5.038024902 17.46407127 3.755899191
-6.361031532 29.93154907 0.6281229258
-5.122341633 17.76576805 2.009347916
-5.080352306 17.70560074 2.597082615
-6.251121998 29.84967804 0.6239385009
-5.060431004 17.73768806 2.0042274
-5.089492321 18.49332619 2.663079739
-6.139270306 29.73951149 0.6202536821
-5.014874935 17.89040756 2.008802414
-6.034103394 29.6384449 0.6167290807
-5.931896687 29.62309837 0.6115074158
-5.824501038 29.60379791 0.6060826182
-5.720425606 29.55979156 0.6013661027
-5.625517368 29.56689262 0.5960383415
-5.526573181 29.58799171 0.5901819468
-5.426704407 29.59677505 0.5845353007
-5.320908546 29.59155464 0.5788610578
-5.223286629 29.63754654 0.5725198388
-5.129993916 29.76506042 0.5646452904
-5.037624359 29.92621422 0.5560871959
-5.277493 82.8041153 2.288318396
17.15933037 107.5517883 16.69528389
20.00823593 64.20487213 0.7029638886
20.02464485 62.27464676 0.678669095
20.15128326 61.37188721 0.661467135
20.25501823 59.28463364 0.6312074065
20.39754105 59.05340958 0.6214231253
20.50808716 58.74801254 0.6123360991
20.5410347 58.26178741 0.6049122214
20.67905045 58.00390244 0.5950717926
20.76785851 57.66173172 0.586653173
20.83872795 57.28292465 0.578690052
13.5329504 37.90417099 0.7062743902
13.98522377 37.84732437 0.6837125421
14.14020061 37.85773468 0.6763462424
14.29320621 37.84639359 0.668831408
14.47834301 37.91672897 0.6607190967
14.62485409 37.88967133 0.6533529758
14.78025055 37.87997818 0.6457676888
14.95365238 37.90543747 0.6377292871
35.22164536 78.15715027 3.145974874
15.08251953 37.84080505 0.6308063269
35.53574753 78.11134338 3.133874655
15.26907349 37.88986969 0.6224243641
15.4306879 37.88822174 0.6146680117
15.60535622 37.91078186 0.6065710783
25.64195061 57.07624054 2.55608511
15.78040981 37.9325676 0.5984559059
25.65401077 56.62382889 2.53654933
15.90936947 37.86504364 0.5915398002
16.05598259 37.84644318 0.5843424201
22.54587364 46.99090195 0.3784826994
22.7242794 46.91250229 0.3692015707
22.89242744 46.85303116 0.3606234789
23.07649994 46.82065201 0.3516024351
22.99956512 46.32167816 0.349771589
23.19116783 46.28578568 0.3403798044
23.39305115 46.26630402 0.3306950927
23.60331726 46.25970459 0.3207679689
23.83588219 46.30663681 0.3103858531
16.37403488 32.64500427 3.13177228
16.48752594 32.59291077 3.127051592
16.63853836 32.58750153 3.125278711
16.81559944 32.62179184 3.126075268
18.26713371 33.39560699 0.4325670004
18.1977253 32.57032013 0.4272779524
18.18209267 32.32371902 0.4254778028
18.16822052 32.07049561 0.4235371649
18.16201782 31.83086205 0.4213910997
18.15326118 31.59002113 0.4193578362
18.13961983 31.34472466 0.4175109267
18.11106491 31.11447906 0.4165034592
18.10519218 30.88471413 0.4144725502
18.11256981 30.66453743 0.4119414985
18.10048676 30.43073273 0.4101691842
18.09606934 29.99658012 0.4060813785
18.11114693 29.80569077 0.4035221636
18.13939285 29.64438438 0.4006632566
18.23204422 29.56926727 0.3957360089
18.36810303 29.55107117 0.3894056678
18.50805283 29.52685547 0.3828484714
18.67258263 29.53363419 0.3754883707
18.81898499 29.51595879 0.3687182963
18.99764824 29.5384922 0.3608878851
4.819980621 11.01622772 2.197544336
4.846452236 11.01173306 2.660521269
4.879326344 11.0165453 2.198868275
4.890508175 10.993577 2.660331726
4.929838657 11.00586033 2.19902277
4.951900959 10.99953842 2.663773537
4.976054192 10.99336052 2.198936462
4.999348164 10.98849487 2.664618015
5.031286716 10.99131966 2.20001173
5.053238392 10.98482323 2.66663909
5.086597443 10.98902321 2.201083899
5.099455357 10.97184277 2.667246819
5.153741837 10.98955059 2.202704191
5.158707142 10.96322536 2.66898942
5.207927704 10.98518562 2.203603745
5.21536684 10.96181393 2.671472549
5.225989342 11.03013611 0.3363742828
5.199270248 10.97487736 1.269972801
5.21227932 10.95829964 1.734435678
5.212489605 10.9234066 2.198236942
5.255580425 10.93767166 2.670582294
5.241626263 10.97688961 0.3362487853
5.233881474 10.97903824 0.8034158945
5.240888119 10.95207691 1.2682693
5.263032436 10.94606209 1.733748674
5.310369492 10.96518612 2.204315901
5.335056305 10.95813942 2.676714182
5.367787361 10.96005249 2.205282211
5.37881422 10.94102859 2.67685008
5.428814411 10.96215057 2.206993341
5.434869289 10.93406391 2.678763866
5.483735085 10.95347977 2.207625628
5.509545326 10.94753647 2.683939695
5.533370495 10.93862343 2.207602262
5.57377243 10.94881916 2.687242985
33.72367859 42.26005936 1.765793443
5.596394062 10.93831444 2.209212065
33.76148987 42.01314163 1.756434798
5.659119606 10.9407444 2.211071014
39.51348495 43.1105957 1.681199789
44.5867691 44.34189606 1.63071084
44.57709885 44.02991867 1.621235371
44.56134415 43.69950867 1.6113379
44.58136368 43.41791153 1.602383971
44.58663559 43.13978958 1.59381938
44.57553101 42.84894562 1.585173845
44.5974884 42.57384109 1.576503873
44.76062775 42.42170334 1.569292426
44.9304924 42.26049423 1.561743498
45.1933136 42.19244003 1.555534244
45.56729507 42.24577332 1.551207781
34.36608505 29.39733887 1.351045966
42.83901978 32.65158844 1.324768782
42.78601074 30.32212639 1.267873883
42.75799561 30.08977127 1.262652874
42.7492981 29.87065506 1.2575562
42.8449707 29.71738052 1.252857447
42.83278275 29.48641586 1.24758637
47.99772263 23.83496094 1.084208608
51.65047073 23.21499252 1.046443224
59.11275864 25.99344444 1.035488129
59.09511185 25.74613571 1.031847835
59.06908035 25.49629593 1.028267026
59.08783722 25.2396183 1.024311543
59.07476044 24.99630928 1.020818591
59.06491852 24.74245071 1.017189741
59.04970551 24.23861504 1.010084987
16.97780418 6.642232895 2.534659624
16.97745132 6.56934166 2.532543182
16.97974014 6.493491173 2.530536175
16.98464203 6.422280312 2.528851748
16.98351097 6.349559307 2.52677846
16.93174171 6.286813259 1.044475317
16.99554825 6.292033195 1.784245014
16.96761322 6.269299507 2.523607731
17.00775146 6.245754242 0.3035240769
16.98711777 6.213675976 1.782599568
16.96493149 6.192714691 2.521393061
16.95616341 6.114733219 2.518791199
16.97032356 6.042710304 2.517814398
16.96978569 5.970849037 2.515948296
16.95241928 5.891236305 2.51285696
16.94553185 5.818151474 2.510617971
64.26603699 10.29062939 0.8639112115
71.38919067 6.065239429 3.453851461
64.34436035 4.8898983 0.8584674597
84.83460999 6.082278252 3.875207424
84.94300842 5.178329468 3.878179789
103.745285 5.340123653 4.469004631
69.50643921 -3.801431656 0.8790736794
69.38972473 -4.296309948 3.434980392
-5.095736504 -28.85566139 0.7928136587
-5.187571526 -28.55218506 0.8018779755
-5.091754436 -28.8884449 1.83521986
-5.043980598 -28.88311577 2.876972675
-5.291169643 -28.56215477 0.8074231744
-5.196249962 -28.89455032 1.841288328
-5.149568558 -28.90909958 2.884653091
-5.097480297 -28.92518997 3.933038473
-5.05122757 -28.96147537 4.99227047
-5.003429413 -28.97974586 6.060536385
-5.441818237 -29.38437653 0.8047684431
-5.329269409 -29.37128258 1.859170794
-5.263004303 -29.15426064 2.905221462
-5.201904774 -28.92684364 3.93957305
-5.155793667 -28.96304893 4.999090195
-5.103680611 -28.99732971 6.069966316
-5.053402424 -28.98099899 7.145626068
-5.542605877 -29.38581467 0.8102609515
-5.432302475 -29.40881348 1.86584866
-5.380321026 -29.43485451 2.928042173
-5.328538895 -29.38158798 3.989050388
-5.256219864 -28.98242188 5.00795126
-5.203634262 -29.00669289 6.078092098
-5.153161049 -28.98827553 7.153900623
-5.64814949 -29.37856865 0.8161222935
-5.533450127 -29.41407776 1.871726871
-5.486181736 -29.42975235 2.934034824
-5.436416626 -29.49404907 4.006018639
-5.386182785 -29.47450447 5.078785419
-5.332805634 -29.41118622 6.152488708
-5.255414009 -29.03630829 7.170512199
-5.753652573 -29.37095261 0.8219798207
-5.640374184 -29.42460632 1.87805438
-5.592458725 -29.43025398 2.940389156
-5.547145367 -29.47821999 4.011435032
-5.493899822 -29.49467468 5.088300705
-5.447960377 -29.5512886 6.18300581
-5.370156765 -29.11061287 7.193282127
-5.860682964 -29.38290787 0.8276549578
-5.751040459 -29.41242218 1.884111047
-5.699328899 -29.43834877 2.947227478
-5.653902054 -29.48224831 4.018458843
-5.606127739 -29.50020599 5.096297741
-5.554689884 -29.55119705 6.190217018
-5.475076675 -29.10663986 7.199886322
-5.967026711 -29.38451576 0.8334232569
-5.851858616 -29.4106369 1.889836311
-5.806143284 -29.44407082 2.953947783
-5.759811878 -29.47398949 4.024336338
-5.707118988 -29.49628258 5.102406979
-5.663386345 -29.5782795 6.202038288
-5.57450676 -29.09880829 7.205404282
-6.073394775 -29.38574791 0.8391913772
-5.958148956 -29.41007423 1.895907283
-5.912220955 -29.43947029 2.960059643
-5.861942768 -29.48564911 4.031832218
-5.813694477 -29.49553871 5.1093297
-5.770833492 -29.58530045 6.21057272
-5.679552555 -29.09606934 7.212403297
-6.181050777 -29.40055084 0.8448435068
-6.064800739 -29.41311836 1.902083397
-6.018956184 -29.44245338 2.966659546
-5.969006538 -29.49055099 4.039051533
-5.92031002 -29.49441338 5.116252899
-5.878835201 -29.59783554 6.22010088
-5.785069466 -29.09882545 7.220598221
-6.285529137 -29.37912369 0.8507958055
-6.172369003 -29.42574692 1.908525586
-6.124725819 -29.43312645 2.972524881
-6.075280666 -29.48515511 4.045310497
-6.028905392 -29.51662827 5.126313686
-5.984858513 -29.58443451 6.225336552
-5.891245365 -29.10902596 7.230390072
-6.393327236 -29.3931675 0.8564526439
-6.277866364 -29.41410255 1.914330959
-6.231893063 -29.43933296 2.979371786
-6.187209606 -29.48285675 4.052247524
-6.135819435 -29.51672173 5.133503437
-6.091503143 -29.57851982 6.231891632
-6.001782894 -29.10663223 7.238079548
-6.505536556 -29.3963604 0.8624851108
-6.38974905 -29.413517 1.92074883
-6.344598293 -29.4466362 2.986637354
-6.293848038 -29.48066139 4.058889389
-6.247878075 -29.51394844 5.140723228
-6.203091145 -29.56778526 6.238075733
-6.108138561 -29.11605835 7.247878075
-6.612337589 -29.39768219 0.8682428002
-6.49754858 -29.42498589 1.927199125
-6.45153904 -29.4480896 2.993242264
-6.401641369 -29.48997879 4.066691399
-6.355408192 -29.51918983 5.148700714
-6.303167343 -29.49040222 6.232684135
-6.213006973 -29.10754204 7.254078388
-6.714101315 -29.40117645 0.8736934662
-6.604461193 -29.42612648 1.933381796
-6.551623821 -29.43383026 2.998559713
-6.508570671 -29.48900986 4.073529243
-6.460690022 -29.50037384 5.153522491
-6.320036888 -29.12206841 7.265083313
-6.820114136 -29.39381218 0.8795105815
-6.705277443 -29.41950417 1.939051747
-6.65920639 -29.4405098 3.005536795
-6.616935253 -29.50152397 4.081726074
-6.564158916 -29.51727104 5.162786961
-6.421396255 -29.13092613 7.274600506
-6.921747684 -29.39461327 0.8849776983
-6.811164379 -29.40997124 1.944957733
-6.762223244 -29.45334816 3.01259923
-6.716576576 -29.48058701 4.086327553
-6.672272205 -29.5253315 5.171297073
-6.527316093 -29.13105583 7.28280735
-7.029614449 -29.40241241 0.8906821012
-6.912177086 -29.40464592 1.950679064
-6.86912775 -29.45133591 3.019082785
-6.823558807 -29.47850418 4.093163967
-6.773677349 -29.51982498 5.177667141
-6.695455551 -29.24948311 6.222238064
-6.627621174 -29.12752151 7.28992033
-7.140455246 -34.62414551 9.729204178
-7.131596565 -29.40449715 0.8961390257
-7.019855022 -29.41027641 1.957028151
-6.97099638 -29.45156097 3.025399208
-6.927724361 -29.49842644 4.101855755
-6.881930828 -29.52713776 5.186182022
-6.795324802 -29.23779106 6.22776413
-6.732770443 -29.11912918 7.296519756
-7.187934875 -33.88850021 9.560695648
-7.127045155 -33.9353714 10.87429142
-7.237181187 -29.39169502 0.9019794464
-7.122108459 -29.41417694 1.963032126
-7.076543808 -29.43692207 3.031125069
-7.036457539 -29.50943565 4.110066414
-6.982704639 -29.51501846 5.191756725
-6.893345356 -29.16242409 6.222892761
-6.835681438 -29.13826942 7.308460236
-7.304895878 -33.88999939 9.570837021
-7.250624657 -33.93976212 10.88639259
-7.349021912 -29.38578987 0.9080581069
-7.235972881 -29.42435265 1.96985054
-7.189485073 -29.43908501 3.038277388
-7.143417835 -29.50424385 4.116714001
-7.096133232 -29.51895142 5.200302124
-7.002034187 -29.13700294 6.22697258
-6.947456837 -29.14016342 7.317765236
-7.434484959 -33.89342117 9.582591057
-7.379956245 -33.93912506 10.89775753
-7.45687294 -29.39008141 0.9137819409
-7.342647076 -29.41891289 1.975922465
-7.298211098 -29.44943047 3.045648098
-7.248909473 -29.48682022 4.122180462
-7.20458889 -29.52511215 5.208823681
-7.105367184 -29.11186981 6.230755806
-7.052688122 -29.13064384 7.324363708
-7.560357094 -33.91646194 9.598726273
-7.502803802 -33.93495941 10.90770817
-7.565612793 -29.39992523 0.9194738269
-7.448039532 -29.40318298 1.981704831
-7.407294273 -29.46136665 3.053150415
-7.356832504 -29.48878098 4.129610062
-7.310657024 -29.51121712 5.214686394
-7.211462975 -29.1098671 6.238549709
-7.157899857 -29.12075806 7.330959797
-7.685283184 -33.92938995 9.612513542
-7.626810551 -33.93992996 10.9203558
-7.672817707 -29.39749527 0.9252383113
-7.557361603 -29.41680908 1.988353968
-7.51469183 -29.45905304 3.059764862
-7.466376305 -29.50219154 4.138225555
-7.417195797 -29.50087929 5.221078396
-7.320590019 -29.13095474 6.250370979
-7.264538765 -29.12216377 7.339976311
-7.808668613 -33.92836761 9.623002052
-7.751157761 -33.94636154 10.93354511
-7.780053616 -29.39468384 0.9310029745
-7.665178776 -29.41815376 1.994657874
-7.620497227 -29.44449615 3.06561017
-7.574725151 -29.5053463 4.145858288
-7.526299477 -29.50982094 5.230135918
-7.425807953 -29.12036324 6.256826401
-7.37123394 -29.12318802 7.348994732
-7.929403782 -33.90569305 9.628293991
-7.876087189 -33.95617294 10.9478178
-7.886190891 -29.38357544 0.9368113279
-7.773908615 -29.42505264 2.001141071
-7.728729248 -29.44736099 3.072607756
-7.682619572 -29.50416756 4.153098106
-7.634982109 -29.51444054 5.238663673
-7.533118248 -29.12503433 6.26597023
-7.479532242 -29.13548088 7.360442638
-8.051818848 -33.89609146 9.636889458
-7.999894142 -33.95598221 10.95939445
-7.993461132 -29.38000488 0.9425747991
-7.882437229 -29.4295845 2.007567883
-7.836765289 -29.44785881 3.079479218
-7.7885952 -29.48881149 4.158949852
-7.745132446 -29.52848244 5.248532772
-7.640497208 -29.12932205 6.275115967
-7.586397648 -29.13573456 7.369466782
-8.177317619 -33.90916824 9.65116024
-8.121479034 -33.93817139 10.96610737
-8.1043787 -29.39977837 0.9482200146
-7.988707066 -29.4179039 2.013521194
-7.946013927 -29.45586967 3.08686924
-7.89679718 -29.48884201 4.166386604
-7.852625847 -29.52250481 5.255728722
-7.747405529 -29.12931442 6.283590794
-7.691690922 -29.12396622 7.376060009
-8.30165863 -33.91216278 9.663070679
-8.243537903 -33.9237442 10.97389698
-8.210250854 -29.38555717 0.9540355206
-8.096762657 -29.41770935 2.019831896
-8.052101135 -29.44177818 3.092837334
-8.005652428 -29.4924202 4.1742239
-7.960981846 -29.52203178 5.263728619
-7.854949474 -29.13283157 6.292742729
-7.801383972 -29.14285088 7.389142036
-8.424977303 -33.90702057 9.67308712
-8.369274139 -33.93558502 10.98926067
-8.196352959 -28.61843109 0.9633311629
-8.203629494 -29.40922737 2.025901794
-8.159660339 -29.43717766 3.099451065
-8.114571571 -29.49561119 4.18206358
-8.070861816 -29.53096581 5.273073196
-7.961413383 -29.12815666 6.300545692
-7.91069603 -29.15745163 7.401420593
-8.548062325 -33.89951324 9.682630539
-8.496268272 -33.95459747 11.00679874
-8.283802032 -28.53957367 0.9690012932
-8.250014305 -29.01931572 2.020250559
-8.213377953 -29.12350082 3.085305929
-8.222670555 -29.49250603 4.189306736
-8.179368019 -29.52970505 5.281078339
-8.06324482 -29.12785339 6.308735847
-8.018434525 -29.16003799 7.411267757
-8.668498993 -33.91561508 9.6975317
-8.614285469 -33.95317459 11.01804543
-8.451940536 -28.94976997 0.9725540876
-8.346496582 -28.98746872 2.025223494
-8.296660423 -29.00686836 3.084119558
-8.260271072 -29.0791378 4.154408455
-8.270298958 -29.45063019 5.278011322
-8.166350365 -29.13498878 6.318282127
-8.118907928 -29.1495533 7.41797924
-8.788243294 -33.92552948 9.711015701
-8.730923653 -33.94182968 11.02658272
-8.561963081 -28.96784401 0.9781422615
-8.447389603 -28.98291969 2.031046391
-8.408002853 -29.03290749 3.092750549
-8.357945442 -29.05282593 4.15887785
-8.317100525 -29.09930801 5.237407684
-8.276018143 -29.1486721 6.329474926
-8.22150898 -29.15226936 7.427540779
-8.91536808 -33.94168854 9.726742744
-8.856568336 -33.9480896 11.04088116
-8.669431686 -28.96975327 0.9837997556
-8.55486393 -28.98502541 2.037404299
-8.513306618 -29.02113724 3.098894119
-8.472789764 -29.06562805 4.168135166
-8.420071602 -29.07175255 5.241819382
-8.382047653 -29.13860893 6.336604595
-8.33402729 -29.14896202 7.43686533
-9.042957306 -33.9198761 9.733773232
-8.983208656 -33.95960236 11.05681324
-8.776291847 -28.96733284 0.9894751906
-8.669322968 -28.99567986 2.044362545
-8.620944023 -29.02276421 3.105957985
-8.580573082 -29.06713486 4.175904274
-8.535367012 -29.08592224 5.252465248
-8.490667343 -29.14372444 6.346449852
-8.439457893 -29.13455963 7.443454742
-9.165346146 -33.90441895 9.741892815
-9.106041908 -33.94594574 11.06568718
-8.879636765 -28.94484901 0.9952198863
-8.774880409 -29.01563072 2.051002979
-8.728672028 -29.02400208 3.113025188
-8.690452576 -29.08001709 4.184885502
-8.640360832 -29.10152054 5.262541771
-8.592116356 -29.10569572 6.348820686
-8.543491364 -29.14390182 7.454652309
-9.285117149 -33.91069794 9.75491333
-9.232272148 -33.95274353 11.08053875
-8.990858078 -28.96527481 1.000814915
-8.881594658 -29.01065254 2.057183743
-8.839274406 -29.04056549 3.1211555
-8.793181419 -29.08169365 4.192372799
-8.745640755 -29.08651733 5.268844128
-8.704818726 -29.13334846 6.362748146
-8.65025425 -29.13648033 7.462874413
-9.413365364 -33.92884827 9.771611214
-9.353201866 -33.92681122 11.08614349
-9.097114563 -28.95777321 1.006505251
-8.987273216 -28.99939346 2.063175678
-8.947185516 -29.04101753 3.128229618
-8.899105072 -29.07029343 4.198936462
-8.853652954 -29.08674812 5.277315617
-8.812962532 -29.13341141 6.371918678
-8.757352829 -29.13060951 7.471503735
-9.538480759 -33.92739487 9.783545494
-9.481861115 -33.9459877 11.10481262
-9.20939064 -28.98132133 1.012102365
-9.09696579 -29.00937271 2.069865227
-9.052981377 -29.0293045 3.134505749
-9.007891655 -29.07417107 4.207120419
-8.961024284 -29.08268929 5.285245419
-8.926773071 -29.16411018 6.386548042
-8.866199493 -29.13399124 7.482181072
-9.664678574 -33.93122101 9.796915054
-9.609067917 -33.95519638 11.12076378
-9.318091393 -28.98481369 1.017765403
-9.204564095 -29.00716591 2.07617712
-9.158036232 -29.01329422 3.140512705
-9.11895752 -29.08939171 4.216526985
-9.072067261 -29.09772301 5.295901299
-9.03445816 -29.15948868 6.395046711
-8.980068207 -29.16393471 7.498600483
-9.787893295 -33.9173851 9.805988312
-9.735386848 -33.95826721 11.13508797
-9.42375946 -28.97221947 1.023471475
-9.312583923 -29.00653648 2.082554102
-9.270587921 -29.0361042 3.149197578
-9.223479271 -29.06901932 4.222276211
-9.185113907 -29.12207985 5.307928562
-9.139619827 -29.14092445 6.401152611
-9.087759972 -29.15880394 7.507647991
-9.91354084 -33.91648865 9.818406105
-9.858011246 -33.94004822 11.14341164
-9.536153793 -28.99257469 1.029096723
-9.421459198 -29.00943184 2.089063406
-9.381844521 -29.05065346 3.157356262
-9.331745148 -29.06781006 4.230060577
-9.29240799 -29.11487961 5.315596581
-9.249923706 -29.14908409 6.412045002
-9.196230888 -29.15712738 7.517518044
-10.03820515 -33.90940094 9.829390526
-9.981308937 -33.92517853 11.1528244
-9.642303467 -28.98116302 1.034799695
-9.528040886 -29.00017738 2.095184088
-9.490128517 -29.04913902 3.164443016
-9.440835953 -29.07011414 4.238255024
-9.400092125 -29.10923958 5.323536873
-9.354683876 -29.1278286 6.417803764
-9.303263664 -29.14737892 7.525745392
-10.1650753 -33.913311 9.843248367
-10.10709763 -33.92310333 11.16605854
-8.895419121 -24.89165115 1.048623562
-9.638250351 -29.00816917 2.101893902
-9.601264 -29.06092262 3.172478437
-9.553175926 -29.08761787 4.248091221
-9.503142357 -29.07990456 5.328190327
-9.467829704 -29.14872169 6.431101322
-9.411813736 -29.14492416 7.535616875
-10.2946806 -33.93009186 9.860466957
-10.23476601 -33.93001556 11.18202877
-9.044439316 -25.1729641 1.052771688
-9.745429039 -29.02662849 2.108653545
-9.698442459 -29.03040123 3.177251101
-9.657268524 -29.09021759 4.256007671
-9.609555244 -29.09402466 5.338583946
-9.572815895 -29.15485001 6.441374779
-9.512890816 -29.13167191 7.542733192
-10.41385555 -33.92483139 9.871603966
-10.35761166 -33.9434166 11.1993103
-9.021954536 -24.62960434 1.058609843
-9.870871544 -29.10420418 2.117763996
-9.810969353 -29.04726028 3.18569994
-9.767500877 -29.09522057 4.264626503
-9.719737053 -29.09888268 5.348172665
-9.681962013 -29.15369415 6.450909138
-9.626989365 -29.15530205 7.558373928
-10.54109001 -33.92736053 9.885476112
-10.48142719 -33.92865372 11.20927143
-9.088132858 -24.50668716 1.063642025
-9.919106483 -29.04223633 3.19265914
-9.872868538 -29.07647133 4.270778656
-9.833315849 -29.11883545 5.359966755
-9.789578438 -29.14442253 6.459071636
-9.734184265 -29.14400482 7.566604137
-10.66959 -33.93512726 9.900793076
-9.327656746 -25.16238594 1.067663312
-10.02897167 -29.04462242 3.200164795
-9.984911919 -29.08846283 4.280226231
-9.942111969 -29.11512184 5.3684659
-9.901297569 -29.15403557 6.470675468
-9.842190742 -29.13615036 7.575657845
-10.79624557 -33.93291855 9.913711548
-9.466317177 -25.35255051 1.07242465
-10.13419628 -29.02516937 3.206166744
-10.09456921 -29.08837128 4.288442135
-10.04843903 -29.09939575 5.375311852
-10.00733948 -29.13627052 6.477460384
-9.953497887 -29.14321899 7.58801651
-10.91935444 -33.9131546 9.9223032
-9.465515137 -24.93211937 1.077785611
-10.31556702 -29.13058281 2.144830942
-10.24856472 -29.04622841 3.215050697
-10.20776367 -29.10341454 4.298315525
-10.15729904 -29.09489632 5.383810997
-10.12222576 -29.15853691 6.491487503
-10.0640974 -29.14604568 7.599553585
-11.04857254 -33.92141724 9.938112259
-9.587036133 -25.0455246 1.082631946
-10.42199421 -29.11423492 2.150843382
-10.35425091 -29.02794456 3.221188307
-10.31410789 -29.08699036 4.304881573
-10.27231407 -29.11705208 5.396183491
-10.2270298 -29.13422203 6.497236252
-10.17481422 -29.14846039 7.611094952
-11.17670631 -33.92350006 9.952484131
-9.690863609 -25.08057976 1.087560773
-10.52931595 -29.10139656 2.15699029
-10.47211838 -29.06175995 3.231054783
-10.42219734 -29.07794189 4.312273979
-10.38226986 -29.11559868 5.405244827
-10.33698177 -29.13259506 6.507127762
-10.28475761 -29.14665222 7.62181139
-11.30621243 -33.93080521 9.968305588
-9.792667389 -25.10549736 1.092509151
-10.63708115 -29.09012222 2.163203478
-10.58158588 -29.05822182 3.2383039
-10.53486443 -29.08786583 4.321747303
-10.48735809 -29.09251976 5.411258221
-10.44833946 -29.13632011 6.518059731
-10.39391232 -29.14062309 7.631701469
-11.43629932 -33.93951035 9.98461628
-9.89184761 -25.11837196 1.097470284
-10.74768734 -29.09011459 2.16983223
-10.69016838 -29.05040359 3.245275974
-10.64767456 -29.09737015 4.331227303
-10.59965324 -29.09991074 5.421708107
-10.56433105 -29.15880203 6.532463074
-10.50620556 -29.14753342 7.644496441
-11.56437302 -33.93827057 9.998518944
-9.985869408 -25.10952187 1.102437019
-10.8588419 -29.09164238 2.176532984
-10.79878521 -29.04219246 3.252248287
-10.75923443 -29.10064697 4.340087414
-10.70792389 -29.08955193 5.429661751
-10.67370892 -29.15209961 6.541674614
-10.61953926 -29.15782928 7.658128262
-11.6876564 -33.9157753 10.00710964
-10.02153015 -24.8696022 1.107338309
-10.97009659 -29.09276009 2.183237791
-10.90600967 -29.027771 3.258802652
-10.86759853 -29.08998489 4.347488403
-10.82279968 -29.10573006 5.441512585
-10.785882 -29.15648651 6.552968502
-10.73076153 -29.15818596 7.669689178
-11.81492519 -33.90982819 10.02004719
-10.22163868 -25.2953701 1.112216592
-11.08342171 -29.10120964 2.190228462
-11.01285172 -29.03364944 3.266468763
-10.97548294 -29.07700157 4.354678631
-10.93787956 -29.12147331 5.453373432
-10.89061451 -29.15222549 6.562243462
-10.84486198 -29.16952896 7.683751106
-11.94637871 -33.9203949 10.03734303
-11.31352425 -29.11567688 1.119740248
-11.18470573 -29.08347893 2.195947886
-11.12997246 -29.057127 3.275830746
-11.08728886 -29.07905388 4.363547325
-11.04308319 -29.11892891 5.462164879
-11.00397968 -29.15961838 6.574243546
-10.94916821 -29.16281891 7.693367481
-12.07241726 -33.93392181 10.05479908
-11.39306259 -28.99350739 1.125381589
-11.29370785 -29.07370949 2.202306509
-11.23984814 -29.05117607 3.283092499
-11.1954422 -29.08784485 4.372764111
-11.15162945 -29.1069603 5.470127106
-11.11313725 -29.14939499 6.583114147
-11.06590748 -29.16056824 7.705225945
-12.20190048 -33.93409348 10.06968784
-10.28437233 -24.41878128 1.126590014
-11.39366245 -29.0080452 2.20694685
-11.35398388 -29.03957748 3.290358782
-11.31469917 -29.09538269 4.382770061
-11.2654314 -29.09320068 5.478374958
-11.23244858 -29.15645218 6.595757961
-11.18079853 -29.15028191 7.715418339
-12.33707523 -33.93027115 10.08442783
-11.61954975 -28.98459053 1.137113333
-11.5144434 -29.02120972 2.21451354
-11.4629364 -29.02894402 3.297339916
-11.42955399 -29.08513451 4.390883923
-11.38325214 -29.09433556 5.488862991
-11.3491621 -29.17398453 6.609867573
-11.29393101 -29.1542244 7.728247643
-12.47380066 -33.93156815 10.10062695
-11.72578716 -28.96381378 1.14281702
-11.62081909 -29.02130508 2.220941544
-11.57918739 -29.04487991 3.306307316
-11.54280949 -29.0893364 4.400192261
-11.49583626 -29.11700249 5.501589298
-11.45450497 -29.14727783 6.615948677
-11.40692043 -29.17810059 7.74497509
-12.59850597 -33.93566132 10.11616707
-11.38664532 -27.34766006 1.145922542
-11.72719574 -29.00030899 2.226931572
-11.69037056 -29.04112625 3.313860893
-11.64419842 -29.06960678 4.406467915
-11.6082058 -29.11677551 5.511523247
-11.57253838 -29.16774368 6.63077116
-11.51682758 -29.16796684 7.754889965
-12.72794724 -33.93199158 10.13058662
-11.47251701 -27.27573395 1.151218891
-11.84211826 -29.00973511 2.23408556
-11.80002785 -29.03119469 3.320988894
-11.76390076 -29.07535362 4.416491032
-11.71648884 -29.10084343 5.519209862
-11.68149185 -29.15355301 6.639300823
-11.63202095 -29.15594292 7.765092373
-12.86404228 -33.92799377 10.14582825
-11.58225155 -27.28813934 1.156662345
-11.96131706 -29.0133934 2.241384029
-11.91079712 -29.02470207 3.328403234
-11.88122082 -29.09169006 4.427298069
-11.83901501 -29.11545944 5.531970024
-11.79517651 -29.1560421 6.650984764
-11.74819374 -29.16761589 7.780035019
-12.98810577 -33.92694473 10.16040993
-11.68948364 -27.30922508 1.161862731
-12.05426788 -28.963871 2.245980978
-12.02297497 -29.04232025 3.337255239
-11.98918056 -29.09377861 4.436127186
-11.94483852 -29.1097374 5.540782928
-11.90107632 -29.15014267 6.660631657
-11.85616207 -29.16905403 7.792183399
-13.11381626 -33.93104935 10.1764555
-11.79466248 -27.32224655 1.167054415
-12.15423584 -28.93900871 2.251527071
-12.13037682 -29.04227829 3.344823122
-12.09287834 -29.08017921 4.443255424
-12.05670261 -29.1245842 5.552704334
-12.00597191 -29.14007568 6.669578552
-11.96424961 -29.17009926 7.804337025
-13.24330521 -33.94779205 10.19592094
-11.87095928 -27.23710442 1.172005653
-12.28170967 -29.00778008 2.260714054
-12.24123955 -29.05333328 3.353259563
-12.20432568 -29.09296227 4.453371048
-12.16215801 -29.11618996 5.56124115
-12.12175179 -29.16749573 6.685557365
-12.06813717 -29.15571594 7.813133717
-13.36827564 -33.94724274 10.21100521
-11.98165035 -27.21436691 1.177914739
-12.40317345 -28.99662781 2.267867327
-12.36113358 -29.03633881 3.360824585
-12.32997608 -29.09489632 4.463710308
-12.28169632 -29.09700775 5.569786549
-12.25133801 -29.1821785 6.701000214
-12.19753742 -29.17004585 7.830354691
-13.51549149 -33.93147659 10.22546577
-12.08251381 -27.19418335 1.183285832
-12.51537132 -29.01078606 2.274993896
-12.47461891 -29.03540039 3.368833065
-12.44188881 -29.08805847 4.472198486
-12.39958477 -29.12958336 5.584559917
-12.3623209 -29.17117691 6.710596085
-12.30428028 -29.16423607 7.841258049
-13.63794041 -33.92063904 10.2381134
-12.21938801 -27.29018402 1.18902123
-12.62833881 -29.00762749 2.281810999
-12.59398746 -29.05312729 3.378296614
-12.55208397 -29.09383583 4.48169136
-12.51392269 -29.12974739 5.59509325
-12.46997643 -29.14844704 6.718077183
-12.42410851 -29.18266678 7.858344555
-13.77254486 -33.92795944 10.25647259
-12.34267998 -27.33976936 1.19464314
-12.73726082 -28.99067116 2.288100004
-12.70305538 -29.03605843 3.38515234
-12.66649914 -29.09377289 4.491045952
-12.6249342 -29.11810684 5.603926659
-12.58837891 -29.16114044 6.732260704
-12.53800392 -29.18002129 7.870806694
-13.9133997 -33.95520401 10.28022194
-12.53411674 -27.60236168 1.201045752
-12.8521328 -28.99240112 2.295149088
-12.82278442 -29.0528717 3.394632101
-12.77924824 -29.08757591 4.499758244
-12.74063492 -29.12119102 5.615036488
-12.70643425 -29.17147446 6.746101379
-12.65654659 -29.19190598 7.886646748
-14.04786968 -33.95959473 10.29811001
-12.63461494 -27.5744915 1.206469178
-12.97317696 -29.01273727 2.302970171
-12.9397192 -29.05970764 3.403389692
-12.89743233 -29.098032 4.5104146
-12.85408688 -29.1162796 5.625010967
-12.82759094 -29.19075012 6.761719704
-12.76203251 -29.16035843 7.892785072
-14.17511845 -33.9393692 10.30963516
-12.66277504 -27.32370758 1.211011052
-13.0920229 -29.02498436 2.310494661
-13.04472542 -29.02807808 3.409223795
-13.00797749 -29.08338737 4.518270016
-12.97420025 -29.13169861 5.638127804
-12.93719578 -29.17198372 6.770266056
-12.88080597 -29.17136574 7.908634663
-14.30062389 -33.9131279 10.31968498
-12.70054722 -27.10726738 1.215604067
-13.20613766 -29.02155495 2.317409754
-13.16186523 -29.03404427 3.417989254
-13.12644863 -29.09294128 4.52893877
-13.08729744 -29.12401581 5.647826672
-13.06110477 -29.19783401 6.787318707
-12.99800587 -29.17630959 7.923223972
-14.43539047 -33.91601944 10.33758354
-12.79179001 -27.05603218 1.220832467
-13.31412506 -28.99869728 2.323551893
-13.27608299 -29.03007126 3.426026106
-13.24386311 -29.09825325 4.539181709
-13.20108223 -29.11778259 5.657814026
-13.17204189 -29.18196297 6.796578884
-13.11180305 -29.16962433 7.935282707
-14.58028793 -33.94980621 10.36383915
-13.17792511 -27.88219643 1.230011344
-13.42835808 -28.99442101 2.330470085
-13.40103054 -29.05785561 3.436576843
-13.35708809 -29.08988953 4.547911644
-13.31617355 -29.11488342 5.668376446
-13.28909492 -29.18439102 6.809390545
-13.22386837 -29.15692329 7.946071148
-14.71726036 -33.95714951 10.38323116
-13.25498962 -27.78010559 1.235144138
-13.54842281 -29.00675201 2.338098049
-13.51615906 -29.05487061 3.444773436
-13.47729015 -29.10184288 4.559036255
-13.42886448 -29.10403061 5.677795887
-13.40873337 -29.19384956 6.823629379
-13.34325027 -29.16610336 7.961946964
-14.84840679 -33.94553375 10.39771366
-13.1323843 -27.09911346 1.23740387
-13.67253971 -29.02996826 2.346207619
-13.63267994 -29.05521584 3.453271151
-13.59197807 -29.09636307 4.568208694
-13.54978466 -29.11715126 5.690948009
-13.52109528 -29.18042564 6.833605289
-13.4628334 -29.17480469 7.977832317
-14.97779369 -33.92789841 10.41072083
-13.3265276 -27.34301567 1.244123936
-13.78721142 -29.02432632 2.353144646
-13.7415514 -29.03247833 3.459987164
-13.70804596 -29.09420776 4.577821732
-13.67089272 -29.12979507 5.704108238
-13.63727379 -29.1777668 6.845719814
-13.57946682 -29.17377472 7.991600513
-15.11519146 -33.93367767 10.43013
-13.45143414 -27.38403893 1.249870062
-13.89803028 -29.00692177 2.359607458
-13.86085224 -29.03948975 3.469087601
-13.82944012 -29.08977699 4.587721825
-13.78582573 -29.12322235 5.714402199
-13.74592495 -29.15231323 6.85355854
-13.69899559 -29.16303444 8.003961563
-15.2606926 -33.94229126 10.45135593
-13.56135464 -27.38118553 1.255399823
-14.01537323 -28.99103355 2.366510868
-13.98098755 -29.0479126 3.478345156
-13.94703484 -29.09045792 4.597780704
-13.90800762 -29.11997032 5.725847721
-13.87763596 -29.19343376 6.87424469
-13.81393719 -29.15554428 8.016461372
-15.39678574 -33.96196747 10.47390556
-13.74154949 -27.58858871 1.261852622
-14.13169956 -29.00477982 2.373970985
-14.09808254 -29.06337166 3.487776995
-14.06347942 -29.10381508 4.608876228
-14.01592445 -29.10876846 5.734998703
-13.99153805 -29.19872284 6.887518406
-15.57094479 -33.89803314 9.123579979
-15.52301025 -33.9518013 10.48856926
-13.41106033 -26.37037659 1.260290861
-14.24554348 -29.01054955 2.381119251
-14.21186256 -29.05208588 3.495548964
-14.17348003 -29.09798622 4.617785454
-14.130476 -29.11583519 5.747037411
-14.10300732 -29.17940521 6.896793842
-15.69783115 -33.8895874 9.137507439
-15.65412235 -33.93530655 10.50257778
-13.4370842 -26.14790916 1.264307737
-14.3688364 -29.02526474 2.389042377
-14.32707882 -29.04410934 3.503624439
-14.29415798 -29.10481453 4.628740788
-14.25311184 -29.12800217 5.760525227
-14.21445656 -29.1596756 6.906065941
-15.84786034 -33.92632675 9.162854195
-15.79557323 -33.94755936 10.52449512
-14.00751019 -27.39549065 1.277463555
-14.48547459 -29.02071762 2.396163702
-14.44372559 -29.03944206 3.51200366
-14.40958023 -29.09622002 4.63794136
-14.36651707 -29.11362457 5.769969463
-14.34192944 -29.18395805 6.923938274
-15.98773384 -33.93301773 9.18139267
-15.93402576 -33.9501152 10.54395008
-14.15315437 -27.48410988 1.283622742
-14.59805775 -29.00447655 2.402799845
-14.57223892 -29.06612015 3.522958517
-14.53443432 -29.09640884 4.648752689
-14.48541355 -29.11368561 5.781733513
-14.46295547 -29.18922615 6.93823719
-16.12457466 -33.91114426 9.194290161
-16.08199883 -33.95894623 10.56621552
-14.20804977 -27.33083344 1.288212657
-14.71725941 -28.9895916 2.409881115
-14.69548988 -29.07731438 3.532716274
-14.65696907 -29.10552788 4.660170555
-14.61241055 -29.11872292 5.794946671
-14.5868721 -29.20139503 6.953979015
-16.26072502 -33.90571976 9.210276604
-16.22348595 -33.96765137 10.58766842
-14.31066608 -27.30451202 1.293620944
-14.84310246 -29.02304459 2.418374538
-14.80556107 -29.05257034 3.539595842
-14.77970123 -29.11414528 4.671596527
-14.72706032 -29.12166977 5.806729794
-14.69867039 -29.1798687 6.963263988
-16.39230156 -33.90574646 9.226795197
-16.3476963 -33.94721985 10.60037422
-13.72714806 -25.39591026 0.3014983833
-13.95563984 -26.11030388 1.290510416
-14.96020317 -29.01667023 2.425513983
-14.91677284 -29.0461998 3.5475595
-14.88682938 -29.09640884 4.679423332
-14.85338593 -29.13881874 5.821421146
-14.80658531 -29.16363907 6.972980022
-16.53146172 -33.90658188 9.244503975
-16.48407936 -33.94032288 10.61787224
-13.77979183 -25.27459526 0.3088561893
-14.03151131 -26.0270977 1.295271158
-15.07506561 -29.01931763 2.432706118
-15.04835796 -29.0764637 3.559015274
-15.00417709 -29.08924675 4.68908596
-14.96060181 -29.12052917 5.830015182
-14.92536449 -29.15968323 6.985861301
-16.66885185 -33.92021942 9.264462471
-16.6186161 -33.94614792 10.63802338
-13.82166767 -25.10131073 0.3181210458
-15.30495644 -28.96043205 1.322779298
-15.19542122 -29.00439644 2.43988657
-15.17103386 -29.06694794 3.5677104
-15.12808037 -29.09830475 4.700754642
-15.08968258 -29.1272583 5.843839645
-15.06360054 -29.18992805 7.006239414
-16.81444359 -33.91756821 9.282515526
-16.77512932 -33.97200775 10.66579437
-13.85713196 -24.92802238 0.3271328211
-14.14055538 -25.74306679 1.304084063
-15.32161522 -29.01895142 2.448040724
-15.29078007 -29.06457329 3.576586723
-15.25070953 -29.10316849 4.711985111
-15.20584393 -29.11525726 5.854180336
-15.18843174 -29.19963646 7.02202177
-16.95695877 -33.92402267 9.30196476
-16.9148159 -33.97067642 10.68530273
-13.97109795 -24.95121193 0.33023718
-15.56294918 -29.00160408 1.335011125
-15.44880772 -29.034832 2.456291199
-15.4084301 -29.05617332 3.585005999
-15.36843014 -29.09459686 4.721663475
-15.33365059 -29.13225365 5.869197845
-15.30485058 -29.18685722 7.033481121
-17.09256172 -33.91170502 9.317127228
-17.04693794 -33.9489212 10.69934559
-14.07019901 -24.93691826 0.3344513178
-14.4173336 -25.89227295 1.315929413
-15.55382347 -28.99459457 2.46201992
-15.53063774 -29.05841064 3.594353437
-15.4899044 -29.09478951 4.732460499
-15.45442295 -29.13034058 5.88130188
-15.41260052 -29.15169907 7.04060173
-17.23543549 -33.91702652 9.336591721
-17.18400574 -33.93930817 10.71687126
-14.16933918 -24.9222393 0.338665992
-15.79240131 -28.96848488 1.346702099
-15.69188309 -29.03541374 2.471470833
-15.65522957 -29.06571579 3.604169607
-15.61601162 -29.10555649 4.744608402
-15.57308388 -29.12244606 5.892531395
-15.54514503 -29.17822838 7.060019493
-17.37705421 -33.91814423 9.355203629
-17.33478355 -33.96334457 10.74386215
-14.25849628 -24.88319778 0.3435842693
-15.23092651 -27.3242569 1.33878231
-15.80984974 -29.02573204 2.478644848
-15.77626514 -29.06326866 3.613222361
-15.73858738 -29.10660362 4.755645275
-15.7008028 -29.13607216 5.90728569
-15.66768265 -29.17867088 7.074382782
-17.52177238 -33.92594528 9.375545502
-17.48084068 -33.97417068 10.76738167
-14.34516907 -24.8383255 0.3486540318
-15.36019421 -27.35691452 1.344736695
-15.93400383 -29.0303688 2.486503839
-15.90963364 -29.08982086 3.624762297
-15.86280346 -29.11083603 4.767136097
-15.81900215 -29.12537193 5.918233395
-15.80080223 -29.20410347 7.093827724
-17.66378975 -33.92590332 9.394175529
-17.61698532 -33.95924759 10.78393078
-14.77527905 -25.60078621 0.3302538395
-15.43518925 -27.26012421 1.34956646
-16.04909134 -29.01237488 2.4933424
-18.31442451 -34.55049133 4.095544338
-15.97501659 -29.08520126 4.775038719
-15.93650913 -29.11239052 5.928888321
-15.91774464 -29.18896866 7.105306149
-17.8030014 -33.91807175 9.411086082
-17.74880409 -33.93304443 10.79748917
-14.76417732 -25.32083893 0.3421949446
-15.52854919 -27.20727158 1.354766488
-16.17588234 -29.0215435 2.501472473
-16.1056633 -29.1031189 4.788342476
-16.05943871 -29.11171913 5.941606998
-16.04228783 -29.19154167 7.120416164
-17.95133209 -33.93132782 9.433182716
-17.89613152 -33.94393539 10.82152939
-14.79741478 -25.14766693 0.3509781957
-16.41095734 -28.98081589 1.376878381
-16.2989769 -29.020998 2.509180546
-16.22806358 -29.10035515 4.799179077
-16.18943214 -29.12695312 5.956983089
-16.1608963 -29.17910004 7.13262558
-18.08784485 -33.91515732 9.448379517
-18.04222298 -33.95063782 10.84458256
-14.8817091 -25.09362602 0.3562960029
-15.97447205 -27.6964035 1.370765448
-16.42142868 -29.01811981 2.516808033
-16.34669113 -29.08797073 4.808891773
-16.31892776 -29.13981819 5.972077847
-16.28727722 -29.1843071 7.148476601
-18.23509216 -33.9236145 9.469629288
-18.1960659 -33.9745903 10.87264729
-14.93584347 -24.97165871 0.3635246158
-16.66731071 -28.99979973 1.389170527
-16.54480171 -29.01659012 2.524527788
-16.60525703 -29.26888657 3.687407732
-16.47326279 -29.09336662 4.820868492
-16.43534851 -29.1212635 5.982161045
-16.41385841 -29.18897247 7.164336681
-18.37949944 -33.92429352 9.489160538
-18.33737946 -33.96757126 10.89222145
-15.03001213 -24.94091606 0.3681284189
-16.7892952 -28.99388695 1.395186067
-16.67397118 -29.02735138 2.532867193
-16.72156334 -29.24809074 3.69528079
-16.60879135 -29.11826134 4.835347176
-16.56205368 -29.12583351 5.996088028
-16.54845238 -29.21116638 7.183850765
-18.5256424 -33.92796707 9.5095644
-18.47271919 -33.94576263 10.90779781
-15.08549118 -24.82415962 0.3751395047
-16.90077972 -28.96374512 1.400968671
-16.80415726 -29.03941727 2.541303635
-16.85242844 -29.25965691 3.705989122
-16.72939491 -29.10803795 4.845528126
-16.68419647 -29.11901283 6.008248329
-16.66443062 -29.18954468 7.194621563
-18.67045403 -33.92744827 9.529112816
-18.61347008 -33.93586731 10.92687798
-15.17672634 -24.78740311 0.3798688054
-17.03118134 -28.97510147 1.407176852
-16.91989899 -29.01810646 2.548164845
-16.96074295 -29.21971321 3.712287664
-16.8412323 -29.07735443 4.853213787
-16.81926727 -29.14063835 6.025155544
-16.79155922 -29.19265556 7.210505009
-18.81700706 -33.9299202 9.549534798
-18.77222633 -33.96619415 10.95749664
-15.32120228 -24.86662483 0.3813464642
-17.17431068 -29.01318359 1.413683176
-17.0447197 -29.01637268 2.555999279
-17.07633781 -29.19573212 3.72000289
-16.96441841 -29.07163048 4.86408186
-16.94416046 -29.13820267 6.038220406
-16.91083717 -29.17729378 7.222739697
-18.96219826 -33.92821121 9.569099426
-18.91803741 -33.96573639 10.97960186
-15.38571548 -24.77098083 0.3876922429
-17.28687286 -28.9834404 1.419492483
-17.16303062 -28.99959373 2.563127995
-17.20432281 -29.19852448 3.730094433
-17.10494423 -29.10341263 4.879741192
-17.06106377 -29.117239 6.048320293
-17.04150009 -29.18655396 7.24009943
-19.10916901 -33.92946625 9.589539528
-19.05460358 -33.94345093 10.99569416
-15.49457455 -24.77120018 0.3913587928
-17.42300034 -29.00405121 1.425849319
-17.29312515 -29.00775337 2.571507931
-17.32330894 -29.18087387 3.738444805
-17.23264503 -29.10566521 4.891767979
-17.19600677 -29.13541985 6.064961433
-17.17239571 -29.19525909 7.257470131
-19.2514782 -33.91945648 9.60737896
-19.19915962 -33.93828201 11.01680946
-15.63085079 -24.82884216 0.3934415281
-17.53650475 -28.97518921 1.431679964
-17.4326992 -29.03529549 2.580883026
-17.45746613 -29.19529915 3.749663353
-17.36134529 -29.10919189 4.904029846
-17.32879257 -29.14761543 6.080725193
-17.29203224 -29.17840004 7.269718647
-19.40043259 -33.92306519 9.628705025
-19.35267639 -33.95191193 11.04346085
-15.73504639 -24.81723404 0.3974271119
-16.85918808 -27.27795792 1.418644667
-17.55054855 -29.01520157 2.587936878
-17.58004951 -29.18387985 3.758660078
-17.49443817 -29.12119102 4.91744566
-17.45015907 -29.13414764 6.092326164
-17.41999435 -29.17890358 7.285638332
-19.54796028 -33.92250824 9.649168968
-19.49196434 -33.93321228 11.06107044
-15.81160927 -24.74754143 0.4029816985
-17.79098701 -28.98722839 1.443838835
-17.67956734 -29.018116 2.59616518
-17.7094059 -29.19969368 3.769616604
-17.61765099 -29.11103821 4.928121567
-17.57749176 -29.13271904 6.106019497
-17.55617714 -29.20989227 7.307157516
-19.6957016 -33.92134094 9.669642448
-19.63418007 -33.93619537 11.08389187
-16.40611458 -25.75953674 0.3790781796
-17.9220047 -29.00634003 1.449939013
-17.80785751 -29.03201675 2.604573488
-17.73658943 -29.10470772 4.938750267
-17.7022686 -29.13865089 6.120333672
-17.67263603 -29.19761086 7.319874287
-19.84253502 -33.9330864 9.692412376
-19.78316689 -33.95262909 11.11075306
-16.81533623 -26.37439728 0.36612764
-18.04107285 -28.99971962 1.455753922
-17.93119049 -29.0345993 2.612447977
-17.86161232 -29.110466 4.950990677
-17.82385635 -29.13694382 6.133460522
-17.7891407 -29.18489456 7.33259201
-19.98126221 -33.92660141 9.710831642
-19.91757774 -33.93694687 11.12855339
-18.15672112 -28.985466 1.461485744
-18.0547123 -29.03668022 2.620330811
-17.98513794 -29.11213493 4.962781906
-17.94901848 -29.14188004 6.147791862
-17.9295311 -29.22136116 7.355623245
-20.12351036 -33.92660904 9.731002808
-20.07367516 -33.96619797 11.1594696
-18.36437416 -29.00391579 0.3040523529
-18.30036736 -28.97478104 1.468515754
-18.19316483 -29.02876472 2.628970385
-18.12277412 -29.10198975 4.974961758
-18.10043907 -29.15988922 6.166573524
-18.06994629 -29.20257568 7.370589733
-20.29008293 -33.92934418 9.75521946
-18.48104858 -28.97710419 0.3089855015
-18.44462585 -29.00344658 1.475115538
-18.3266716 -29.03614807 2.637607574
-18.25098038 -29.09822083 4.986816883
-18.22867584 -29.15578079 6.180305481
-18.21282387 -29.22811127 7.392460346
-20.44819069 -33.94439697 9.780542374
-17.24406433 -26.27352333 0.3843959868
-18.57487488 -29.00289154 1.481370211
-18.4487896 -29.01974297 2.645055056
-18.39346313 -29.12238693 5.002378941
-18.34130478 -29.11922836 6.18863678
-18.34560394 -29.23185921 7.409915447
-20.58857727 -33.92197037 9.796694756
-17.37319756 -26.29327583 0.3877034783
-18.69895554 -28.9893074 1.487470746
-18.58357811 -29.02781487 2.65380168
-18.52561569 -29.12461281 5.01517725
-18.47765732 -29.13003731 6.20508194
-18.46112633 -29.1998291 7.41999054
-20.74287033 -33.92696381 9.819852829
-17.54930687 -26.40312767 0.3886641264
-18.01902199 -27.40754128 1.47292006
-18.72222519 -29.04243279 2.662930965
-18.65350723 -29.11740685 5.026825428
