# .PCD v0.7 - Point Cloud Data file format
VERSION 0.7
FIELDS x y z
SIZE 4 4 4
TYPE F F F
COUNT 1 1 1
WIDTH 1271
HEIGHT 1
VIEWPOINT 0 0 0 1 0 0 0
POINTS 1271
DATA ascii
-14.63885117 -9.02841568 2.024706364
-15.00206089 -9.369529724 2.597146511
-15.23524189 -9.59932518 3.18561697
-14.93871021 -9.351704597 3.682686329
-15.37047195 -9.757332802 4.358332634
-15.01568508 -9.195063591 0.4471035302
-14.70034218 -8.935038567 0.9850846529
-14.32211018 -8.618772507 1.491964579
-14.71077156 -9.022426605 2.029570103
-15.08398151 -9.370022774 2.604971647
-15.23622036 -9.526348114 3.181175709
-14.98324299 -9.319142342 3.686500549
-15.49388027 -9.79220295 4.38385582
-15.3912859 -9.723343849 4.942846775
-15.03295326 -9.135928154 0.4500893652
-14.67877388 -8.847335815 0.9873922467
-14.3371582 -8.565136909 1.492999434
-15.13765812 -9.345075607 2.609121561
-15.24575329 -9.461372375 3.178293467
-14.9789257 -9.243291855 3.679350615
-15.40640831 -9.6393013 4.351696968
-15.42393303 -9.677213669 4.943329334
-15.42216778 -9.694776535 5.540023327
-15.04214573 -9.073591232 0.4533093572
-14.64329815 -8.744868279 0.9899099469
-14.52262974 -8.659533501 1.500217438
-15.13462257 -9.253427505 2.062448502
-15.12385082 -9.260935783 2.604538679
-15.32091522 -9.450543404 3.186808348
-15.04537392 -9.23004055 3.688131094
-15.43722916 -9.591930389 4.351965427
-15.38089943 -9.560777664 4.919035912
-15.39735222 -9.594088554 5.518389225
-15.10108757 -9.054251671 0.4537252486
-14.69352436 -8.720334053 0.9914578199
-14.58633614 -8.643831253 1.503043652
-14.94992542 -9.018465996 2.046015024
-14.84074402 -8.9401474 2.565061331
-15.43474388 -9.476520538 3.202349663
-14.98871422 -9.105591774 3.669067383
-14.70044708 -8.871278763 4.143304825
-15.21974373 -9.345811844 4.857540131
-15.40637589 -9.527584076 5.510052681
-15.13874531 -9.01647377 0.4553200603
-14.69551849 -8.670010567 1.507500172
-14.58644199 -8.635975838 2.014928102
-14.82975006 -8.861302376 2.560972452
-15.42134571 -9.39169693 3.195485115
-15.28161716 -9.288156509 3.728415251
-14.76706028 -8.859811783 4.153869152
-15.2363472 -9.287610054 4.853254318
-15.57355213 -9.598940849 5.560238838
-15.5601511 -9.606407166 6.166499138
-15.20220852 -9.000500679 0.4554786682
-14.7267437 -8.613669395 0.995171845
-14.90561485 -8.780928612 1.515637636
-14.83363438 -8.77989006 2.034259081
-14.87128162 -8.827943802 2.563675165
-15.42706585 -9.323876381 3.192028761
-15.39638901 -9.314614296 3.747871399
-15.01197815 -9.001310349 4.212630749
-15.52511692 -9.464216232 4.935854912
-15.57075977 -9.521940231 5.54759407
-15.56937313 -9.539626122 6.156884193
-15.29171562 -9.006048203 0.4542134404
-14.8857851 -8.69594574 1.515398264
-14.94800186 -8.808570862 2.042616367
-14.8474884 -8.739003181 2.557990551
-15.42038822 -9.245857239 3.186440945
-15.49347973 -9.325033188 3.763343811
-15.05093193 -8.964335442 4.21559
-15.44601154 -9.322911263 4.901034355
-15.12881756 -9.068945885 5.373677731
-15.63034153 -9.517633438 6.169008732
-15.39367485 -9.021341324 0.4522874057
-15.00457573 -8.712186813 0.9966264367
-14.80099773 -8.560584068 1.512755156
-14.58174992 -8.431580544 2.011432886
-14.86262798 -8.686987877 2.557464838
-15.56671238 -9.314501762 3.773490667
-15.16275597 -8.992630959 4.238558769
-15.49199581 -9.289283752 4.906136036
-15.16355038 -9.027527809 5.375442982
-15.48203564 -9.024564743 0.4511229694
-14.99016953 -8.635742188 0.9986470938
-14.75088787 -8.452048302 1.511391163
-14.60494518 -8.388263702 2.012371302
-14.96007633 -8.700727463 2.56736517
-15.10059166 -8.834223747 3.121996641
-15.63069344 -9.299378395 3.781881571
-15.53286648 -9.234007835 4.330422878
-15.55358601 -9.013331413 0.4508799613
-15.13600063 -8.688506126 0.999355793
-14.77262878 -8.403788567 1.51264739
-14.70175266 -8.402889252 2.019304991
-14.97971058 -8.648994446 2.567301035
-15.63744068 -9.232508659 3.777339935
-15.56665897 -9.190120697 4.331811905
-15.93355942 -9.518206596 5.027297974
-15.61590672 -8.994147301 0.4511360228
-15.42644691 -8.854802132 0.998967886
-14.79106903 -8.352967262 1.513778448
-14.73104286 -8.361070633 2.020694971
-15.17891026 -8.761182785 3.127284765
-15.64842606 -9.169493675 3.773783207
-15.53246212 -9.08981514 4.315068722
-15.72032452 -9.005243301 0.4493296742
-15.46813011 -8.819501877 1.00062263
-15.31029701 -8.706354141 1.533300996
-14.71698761 -8.280533791 2.018489361
-15.67571068 -9.080967903 2.650735855
-15.14820385 -8.667181015 3.117844582
-15.19185257 -8.718537331 3.667312145
-15.57806015 -9.052529335 4.319337845
-15.85284138 -9.041648865 0.4458807409
-15.50517178 -8.776917458 1.002407193
-15.35149097 -8.671328545 1.535279036
-14.84187126 -8.316728592 2.027709723
-15.59775829 -8.94644928 2.638167858
-15.41363144 -8.811956406 3.159455299
-15.35820293 -8.785747528 3.69811821
-15.95592499 -9.056959152 0.4438429773
-15.67453194 -8.847132683 1.002929926
-15.48460674 -8.709918976 1.540634155
-15.32596779 -8.641694069 2.066267729
-15.74503326 -8.99524498 2.654246569
-15.51353455 -8.826964378 3.172776699
-15.44399834 -8.786078453 3.711209059
-51.63124847 -38.19562912 13.86993408
-16.04845619 -9.059576988 0.4425597191
-15.67398643 -8.7772789 1.004913211
-15.60092354 -8.734002113 1.545375228
-15.32489681 -8.572775841 2.065150023
-15.57299709 -8.786552429 2.62982583
-15.70034218 -8.907581329 3.200826406
-15.45621777 -8.726574898 3.708224297
-16.13487053 -9.056735992 0.4416103661
-15.66996288 -8.705069542 1.006902337
-15.60934067 -8.671844482 1.546144128
-15.44845104 -8.603381157 2.074203014
-15.56934643 -8.714353561 2.626803637
-15.75461769 -8.88066864 3.206013203
-15.50359535 -8.695415497 3.712935448
-16.26077271 -9.0841856 0.4386275411
-15.9253273 -8.836550713 1.006926179
-15.68981266 -8.666525841 1.549565196
-15.40162945 -8.498403549 2.069366693
-15.56533623 -8.642306328 2.623761892
-15.81662846 -8.85964489 3.212529182
-16.49748039 -9.196700096 0.4299656749
-15.94182205 -8.779691696 1.008762002
-15.63477707 -8.555082321 1.547984004
-15.08720016 -8.184520721 2.042773724
-15.85994816 -8.823599815 3.215843678
-15.94059658 -8.917811394 4.370974064
-16.63227463 -9.228356361 0.4266240299
-16.36326027 -9.035821915 1.007675767
-15.70244884 -8.539559364 1.550927401
-15.21960354 -8.222362518 2.052560806
-45.22836685 -31.6300106 6.352695942
-46.01398087 -32.3565712 10.29581642
-16.73888588 -9.237324715 0.4247564971
-16.45653343 -9.035974503 1.009004235
-15.73206043 -8.497802734 1.552440405
-15.70774937 -8.533979416 2.09121871
-44.35393906 -30.73043823 6.234697819
-15.45372772 -8.401189804 4.229449272
-16.83775902 -9.239632607 0.4233022034
-15.69003487 -8.398044586 1.551319838
-15.85767651 -8.584465981 2.102421522
-15.94020844 -8.662124634 2.661020756
-45.12773132 -31.20609283 10.06771088
-16.95736885 -9.260567665 0.4206392467
-34.67787933 -22.67472458 0.8902611732
-15.75584412 -8.380756378 1.554186821
-15.43028641 -8.190354347 2.066774368
-15.98455906 -8.626854897 2.664082527
-45.3602829 -31.10287094 8.212118149
-45.41482544 -31.19329643 10.11102581
-17.04865837 -9.255683899 0.4196043313
-34.61430359 -22.45668983 0.8953390121
-46.28628922 -31.26568794 2.687091827
-15.93784142 -8.508543015 2.106893063
-45.32326889 -30.84275436 8.192551613
-17.1096077 -9.227624893 0.4200959802
-34.72759628 -22.37204361 0.8992118835
-46.36291885 -31.0897522 2.69140172
-16.91057396 -9.170844078 2.184558868
-45.09338379 -30.38110733 6.29443121
-47.99688339 -32.72831726 12.64892769
-17.13677979 -9.174323082 0.4222623706
-34.85190582 -22.29524422 0.9029990435
-46.47739029 -30.94222641 2.697103977
-45.17989349 -30.21828651 6.297111034
-45.1088295 -30.22244644 8.13014698
-45.46445084 -30.53530502 10.06709766
-48.15785217 -32.60368347 12.66616535
-17.22658539 -9.167052269 0.4213092923
-34.97446823 -22.21664619 0.9067857862
-46.6138916 -30.81089973 2.703614473
-45.42567444 -30.17372131 6.319660187
-45.01029587 -29.92226982 8.100693703
-45.95985794 -30.67414665 10.1548996
-17.36174393 -9.192214966 0.4181352556
-35.07746124 -22.12335014 0.9106767178
-46.7080307 -30.6483345 2.708538294
-44.95353699 -29.59945679 6.252948284
-17.4535141 -9.184943199 0.4171171486
-35.19315338 -22.03898239 0.914475143
-46.80155182 -30.4855175 2.713426352
-45.13678741 -29.51014328 6.267835617
-45.59539413 -29.90095711 8.173769951
-48.58510971 -32.18611145 12.70393467
-17.51454544 -9.155025482 0.4176054597
-35.31189346 -21.9564209 0.9182418585
-47.26119614 -30.58629608 2.731955767
-45.3021965 -29.40706635 6.280516624
-45.19588852 -29.38464165 8.094137192
-17.57240105 -9.118875504 0.4184142053
-35.43857193 -21.87913132 0.9219491482
-47.35117722 -30.41931534 2.736698866
-45.56915665 -29.37643814 6.305774212
-45.75139236 -29.56230736 8.17477417
-45.62765121 -29.51708031 10.01408672
-48.54837418 -31.67376328 12.64709377
-17.66597748 -9.111428261 0.4173216224
-35.55763626 -21.78754616 0.9259056449
-47.48291397 -30.28217506 2.742988825
-46.08416748 -29.52126312 6.361653328
-45.54999542 -29.18235588 8.128070831
-45.76556778 -29.39130974 10.02614117
-17.73185921 -9.083931923 0.4175670147
-35.68232727 -21.70791054 0.929597199
-47.74829865 -30.23881149 2.754265547
-46.2533226 -29.41652107 6.374746323
-45.65146255 -29.03194618 8.13275528
-17.81411934 -9.06752491 0.4170272052
-35.79472733 -21.62759209 0.9331240058
-47.95817947 -30.15506935 2.763463497
-46.43852615 -29.32243729 6.389827728
-45.62927246 -28.79444504 8.116904259
-18.00823021 -9.127926826 0.4111813903
-35.92463303 -21.5423069 0.9369782805
-48.39473343 -30.22740555 2.781144381
-47.80146027 -30.00757027 4.648725033
-47.39845276 -29.76873207 6.500216484
-46.28596878 -29.04436493 8.214666367
-46.39993286 -29.16650772 10.10894775
-18.12557793 -9.130296707 0.4091873169
-36.03952789 -21.44615364 0.940892458
-48.68623352 -30.18493462 2.793462992
-54.33011627 -34.33397675 7.343446732
-47.45012665 -29.61856651 8.395189285
-46.32855988 -28.88145638 10.07642746
-50.99218369 -32.17139053 13.15160084
-18.17374229 -9.084715843 0.4104630053
-36.16735458 -21.35849762 0.9447258115
-48.75679016 -29.98970985 2.797492743
-47.82518768 -29.58425903 6.536264896
-46.5704155 -28.81448174 10.10966587
-18.2946434 -9.088124275 0.4083225131
-36.28172302 -21.26124763 0.9486059546
-48.90927505 -29.85045624 2.804582596
-52.78206253 -32.72700882 7.13519001
-47.68559647 -29.30206299 8.40840435
-18.30265236 -9.026209831 0.410954386
-36.38095474 -21.17841339 0.9519114494
-49.38578415 -29.95168686 2.823705673
-47.25032425 -28.69983864 4.591576099
-48.4486084 -29.55142593 6.597137451
-47.0701828 -28.70941925 10.18106556
-18.41534615 -9.026732445 0.4090419412
-36.49931335 -21.09142685 0.9555331469
-9.800729752 -3.330798388 1.602394462
-45.55253601 -27.37508583 6.235764027
-46.01308823 -27.77319145 9.944809914
-18.46318054 -8.98363781 0.4101350307
-36.66584015 -21.03588295 0.9589352608
-9.817102432 -3.309823036 1.60325551
-46.59923935 -27.87107468 6.356656551
-53.21299744 -32.33051682 9.282726288
-18.50918579 -8.942934036 0.4111359119
-36.75666809 -20.93806076 0.9624426961
-9.801055908 -3.268972635 1.601559401
-46.87677002 -27.84816933 6.383584976
-49.06980896 -29.34179115 8.589195251
-18.58191299 -8.915774345 0.4110665023
-36.88451385 -20.85590935 0.9659852982
-9.801488876 -3.239227295 1.601179242
-47.13789368 -27.85063934 8.260715485
-52.59697723 -31.53468513 13.39519691
-18.6748085 -8.897509575 0.4102399051
-37.00421143 -20.75968552 0.9697480798
-54.82759094 -32.33743668 3.035042763
-9.788179398 -3.197514534 1.599667311
-46.034729 -26.85258865 6.266572952
-47.29268646 -27.72180176 8.274054527
-18.74418831 -8.867341995 0.4103203416
-37.13504791 -20.67843819 0.9732518196
-9.808754921 -3.152526617 1.33801198
-9.798110962 -3.17112565 1.600006223
-46.09931946 -26.67191315 6.267115593
-47.33737946 -27.52109146 8.269423485
-18.81860352 -8.840026855 0.4101698697
-37.27753448 -20.60406113 0.976700902
-9.792504311 -3.111125946 1.337560654
-9.805548668 -3.144744158 1.600171089
-46.17179871 -26.50721169 6.269003868
-47.08634949 -27.14159966 8.217158318
-18.88118172 -8.804840088 0.4105478823
-37.42666626 -20.53323936 0.9801164269
-9.788860321 -3.079538107 1.337574482
-9.799413681 -3.109786034 1.599262714
-47.13980484 -26.92426682 6.379616737
-47.04362488 -26.89858818 8.199090004
-50.45318222 -29.11428452 10.74999619
-18.94709969 -8.775200844 0.4106115699
-37.59402084 -20.48139 0.9832656384
-9.788464546 -3.05014205 1.33770895
-9.794104576 -3.077090502 1.598444939
-9.796045303 -3.089967966 2.124959946
-19.04520988 -8.761540413 0.4093971252
-37.77668762 -20.43815994 0.9863624573
-9.792015076 -3.021815062 1.337998271
-9.788650513 -3.044471741 1.597619295
-9.791475296 -3.051198244 1.859212756
-9.807559967 -3.067854166 2.125335455
-9.817835808 -3.07942009 2.394317627
-19.10259819 -8.722121239 0.4099912345
-38.03832626 -20.42609787 0.9895950556
-9.790349007 -2.990351439 1.338088155
-9.79728508 -3.019268751 1.597890735
-9.7917099 -3.020679712 1.85825932
-9.806923866 -3.035097837 2.123591423
-9.81163311 -3.044590712 2.390895844
-9.8237257 -3.057264805 2.663791895
-9.731394768 -2.902106524 0.3134373128
-9.718273163 -2.898836613 0.5712599158
-19.26215363 -8.741231918 0.4062334299
-38.16360474 -20.3369503 0.9930701256
-9.775578499 -2.949490309 1.337686777
-9.801403999 -2.989808321 1.597787619
-9.789101601 -2.987015486 1.856924415
-9.810508728 -3.006635189 2.122624874
-9.815995216 -3.014975548 2.389550686
-9.818231583 -3.021389484 2.659574747
-9.733172417 -2.878278971 0.5717613697
-9.724289894 -2.8775177 0.8272670507
-9.779580116 -2.91570878 1.081357598
-9.782131195 -2.92339015 1.338083148
-9.792806625 -2.95417881 1.596704006
-9.790750504 -2.957643747 1.856159568
-9.799450874 -2.967758656 2.119225979
-9.817871094 -2.985460758 2.387822866
-9.821880341 -2.992885113 2.657778978
-9.737412453 -2.855855942 0.827908814
-9.741456985 -2.862823248 1.082153082
-9.762907982 -2.88179493 1.337499976
-9.786411285 -2.918589354 1.595778346
-9.799067497 -2.932447195 1.856203794
-9.801063538 -2.938364983 2.117970705
-9.815242767 -2.951792717 2.385093927
-9.815389633 -2.958278418 2.653511286
-19.55594826 -8.692131042 0.402700156
-9.745189667 -2.841405869 1.336971045
-9.785354614 -2.889422178 1.595317602
-9.79536438 -2.900039911 1.85481298
-9.807634354 -2.912085533 2.117529154
-9.809437752 -2.919398308 2.381948948
-9.827145576 -2.934928656 2.65375638
-19.65804672 -8.677007675 0.4013528824
-9.780641556 -2.828495741 1.08335793
-9.748867989 -2.837692976 1.592050195
-9.772737503 -2.856462479 1.851165771
-9.813437462 -2.886916876 2.117049456
-9.805837631 -2.886989117 2.379171133
-9.820364952 -2.900449991 2.64947319
-19.74989128 -8.655219078 0.4004527926
-9.775286674 -2.794327974 1.084069133
-9.790063858 -2.80885911 1.338955164
-9.767012596 -2.818849564 1.593089104
-9.7413311 -2.808012486 1.846483946
-9.803430557 -2.849402666 2.113889456
-9.808858871 -2.858690739 2.377756357
-9.815105438 -2.867066145 2.645592928
-19.8434391 -8.630064964 0.3996335268
-9.787436485 -2.80418396 1.851033568
-9.760169029 -2.793987274 2.105481148
-9.795446396 -2.819283009 2.372936726
-9.815396309 -2.835642099 2.642970562
-19.94055748 -8.610207558 0.3985121846
-39.29802704 -19.83176613 1.016749024
-9.787014961 -2.746678829 1.339118838
-9.777926445 -2.764728069 1.593157053
-9.805473328 -2.785112381 1.852275014
-9.785629272 -2.777853251 2.108056784
-9.774392128 -2.777145386 2.366702557
-9.794635773 -2.793503523 2.63536787
-20.10881042 -8.630573273 0.394372195
-39.4706459 -19.7646656 1.020023704
-9.798586845 -2.722602844 1.339698911
-9.786121368 -2.738631725 1.59340024
-9.80687809 -2.754878283 1.851492882
-9.810417175 -2.762687445 2.110599041
-9.803156853 -2.762812376 2.370445251
-9.781069756 -2.754377842 2.629432917
-20.2617588 -8.640999794 0.3909075558
-39.57025909 -19.65502548 1.023447633
-9.788607597 -2.687703609 1.339450121
-9.790121078 -2.711635828 1.593335629
-9.795442581 -2.718846798 1.849235892
-9.816292763 -2.736519814 2.110119104
-9.81590271 -2.740573168 2.371063709
-9.807347298 -2.739997864 2.633346558
-20.37322044 -8.626876831 0.3892140985
-39.72524643 -19.57645035 1.026738167
-9.787160873 -2.657841444 1.339523911
-9.795740128 -2.685646534 1.593400717
-9.79419899 -2.688859224 1.848202229
-9.811738968 -2.704465151 2.107984781
-9.820019722 -2.713400126 2.369958878
-9.814923286 -2.714776754 2.632723808
-20.43420982 -8.583780289 0.3896448612
-39.85919189 -19.48528671 1.030059457
-9.79603672 -2.63390851 1.339989185
-9.799520493 -2.658678055 1.593323946
-9.796290398 -2.660877466 1.847572803
-9.798422813 -2.667602301 2.104468346
-9.815451622 -2.681390285 2.367128849
-9.813889503 -2.684719324 2.630033255
-20.5807209 -8.587920189 0.3864928484
-40.15374756 -19.48288155 1.033073187
-9.778629303 -2.595366955 1.33945024
-9.794482231 -2.626856089 1.592559814
-9.803468704 -2.635845184 1.847554207
-9.802194595 -2.640586853 2.10369277
-9.810742378 -2.649450779 2.364290953
-9.822957039 -2.660472393 2.629811049
-20.66794395 -8.558366776 0.3858260214
-40.27009201 -19.38014793 1.036411762
-9.804774284 -2.581147432 1.340570569
-9.79802227 -2.599953175 1.592469931
-9.805333138 -2.607907772 1.846912146
-9.802397728 -2.61165452 2.102360964
-9.805886269 -2.617592812 2.361445189
-9.823390007 -2.631435394 2.627520323
-20.77094841 -8.536952019 0.3845029473
-40.47039795 -19.32290268 1.039595842
-9.778302193 -2.537982941 1.339681149
-9.806695938 -2.575958252 1.592783689
-9.808823586 -2.580958843 1.846469998
-9.811145782 -2.587554932 2.102399111
-9.806058884 -2.588671207 2.359624863
-9.82369709 -2.602442741 2.625222445
-20.88104248 -8.518743515 0.3828906119
-40.58108139 -19.21588135 1.042915106
-9.774440765 -2.507446766 1.3396523
-9.810023308 -2.549077511 1.592682004
-29.34215355 -13.24080563 4.154212475
-9.807641983 -2.556776762 2.100503445
-9.807834625 -2.560739279 2.358142138
-9.808444023 -2.565012932 2.619200468
-20.94720078 -8.476229668 0.3830884695
-30.53409767 -13.64384079 1.06090498
-9.782761574 -2.483618021 1.340086937
-9.797455788 -2.513655424 1.591342688
-29.31264687 -13.10735703 4.147288799
-9.798780441 -2.523224592 2.097773075
-9.819874763 -2.538490534 2.358721018
-9.813628197 -2.538967371 2.618127346
-21.05913925 -8.457801819 0.3814036846
-30.53168106 -13.52130222 1.063401818
-29.55260658 -13.01367378 2.096039772
-9.80580616 -2.489702463 1.591638565
-30.1513958 -13.44186974 4.24279213
-9.798480034 -2.494480371 2.096413851
-9.812766075 -2.505910873 2.355502605
-9.818711281 -2.512925148 2.617048502
-21.17469406 -8.4405756 0.3795766234
-30.64012146 -13.45786667 1.065729856
-29.56385994 -12.90295887 2.096938372
-9.803503036 -2.460098982 1.591106415
-29.77653885 -13.1216526 4.195155144
-9.803771019 -2.472493649 2.351931095
-9.825415611 -2.487814188 2.616377354
-21.27085876 -8.412459373 0.3785422146
-41.09700775 -18.82244682 1.05591464
-29.54811478 -12.77838135 2.096796036
-9.802833557 -2.431488752 1.590704441
-29.68638992 -12.95588017 4.181146145
-50.72783661 -24.1265583 8.552013397
-9.813011169 -2.452605963 2.611150503
-21.36349869 -8.38193512 0.3776497543
-41.21340942 -18.71624756 1.059136987
-29.69493103 -12.73900795 2.102869272
-9.814413071 -2.409407854 1.591258407
-29.84377861 -12.92123508 4.196287155
-50.88150406 -23.99537849 8.56667614
-21.45435905 -8.349982262 0.3768267035
-41.28332901 -18.58560181 1.062388062
-30.4350071 -13.00503826 2.13166213
-9.811752319 -2.379923105 1.590706587
-30.34713936 -13.06557274 4.252038002
-50.44754028 -23.58325577 10.38474655
-55.0018959 -25.98727226 13.39183521
-21.48986626 -8.285262108 0.3783630431
-41.52551651 -18.54304695 1.065455437
-30.51001167 -12.92453098 2.134987593
-29.42333221 -12.46980762 4.140313625
-51.04001236 -23.65432549 8.572699547
-50.44522858 -23.37242699 10.37152767
-21.643013 -8.284041405 0.3750353754
-41.56787491 -18.38929749 1.068853259
-30.49921227 -12.80027962 2.13501811
-29.8276062 -12.54817009 3.143996477
-29.46094894 -12.37427711 4.141489029
-51.26720047 -23.54904747 8.598558426
-50.42447281 -23.1529808 10.35480309
-21.73028374 -8.248682976 0.3743466437
-41.75997162 -18.31936264 1.07194519
-30.2813282 -12.56646538 2.12711978
-29.83394814 -12.42969704 3.143015385
-29.45084953 -12.24887466 4.136940956
-50.2217598 -22.80735397 8.425358772
-21.87478828 -8.241313934 0.371383667
-41.9824791 -18.26346016 1.075011373
-30.32095528 -12.46928501 2.12906456
-29.89810753 -12.34637928 3.146597385
-30.9505825 -12.88812065 4.309092999
-50.6129837 -22.82227325 10.3663826
-21.98160744 -8.210396767 0.370059222
-42.15126419 -18.17968178 1.078106761
-30.66666222 -12.52340126 2.142751217
-49.09796906 -21.78144264 4.63273716
-30.97537041 -12.78020763 4.308661461
-50.32934952 -22.44997406 8.42428112
-50.63911438 -22.62796402 10.35921574
-22.08327293 -8.180297852 0.3687995672
-42.23160172 -18.04339981 1.081391811
-31.1746254 -12.65439224 2.162671089
-30.80765152 -12.56449795 3.214260578
-30.57521057 -12.46278095 4.258680344
-49.83569336 -21.99094582 8.33788681
-50.38550568 -22.295784 10.29728413
-22.17775917 -8.14610672 0.3678204119
-42.38736725 -17.951931 1.084462047
-31.4164772 -12.64617062 2.172396898
-30.72769928 -12.40098286 3.206595421
-50.2159996 -21.94297791 6.544207096
-50.26394272 -21.99864006 8.396043777
-50.54803848 -22.16030502 10.31653023
-53.88898849 -23.82250214 13.00603008
-22.22538185 -8.088877678 0.3686679006
-42.55739212 -17.86651611 1.087514997
-31.6076355 -12.61789703 2.180152655
-30.43452454 -12.14125919 3.182534695
-29.86459351 -11.87736416 4.169383526
-50.22240829 -21.77528191 8.380917549
-50.85503387 -22.10457993 10.36468124
-22.27643967 -8.033154488 0.3693641126
-42.72006989 -17.77672386 1.090558767
-30.28736687 -11.95456028 3.169797182
-29.91438675 -11.78738022 4.172101021
-50.39406586 -21.65554428 8.399076462
-51.20127106 -22.06574631 10.42046547
-22.37072563 -7.997632504 0.368368268
-42.86088181 -17.67577744 1.09359324
-30.1914978 -11.79387665 3.161045551
-29.89203453 -11.66301918 4.166453362
-50.82291412 -21.65759659 8.457242966
-51.99222946 -22.23683167 10.56298351
-22.52655411 -7.990348339 0.364989996
-43.01415634 -17.5799942 1.0966115
-30.33848 -11.74884701 3.171054602
-29.87454224 -11.54150486 4.161403656
-22.66986656 -7.97619009 0.3621067107
-43.10190964 -17.45310783 1.099615693
-30.93919945 -11.91486549 3.21605134
-31.38814926 -12.13621998 4.33393383
-51.38817978 -21.51575851 8.528008461
-51.97423935 -21.81098557 10.53578281
-22.79514694 -7.952808857 0.3599238694
-43.23470688 -17.3466835 1.102599025
-31.91621208 -12.25026512 3.289999485
-51.40937805 -21.29087257 6.65023756
-51.45534897 -21.34226608 8.529984474
-51.65304565 -21.45432854 10.4616766
-22.89865494 -7.91874218 0.3585758507
-43.37087631 -17.24120712 1.105565667
-57.1178894 -23.51714516 3.164894342
-31.16030312 -11.78318596 3.230394363
-51.56966782 -21.16083336 6.663462639
-53.62020493 -22.132864 8.856661797
-51.83816147 -21.33391762 10.4861536
-23.05319214 -7.907037258 0.3552817106
-43.545578 -17.16090393 1.108376741
-57.20940399 -23.34402466 3.169068098
-51.0161705 -20.69694519 4.757507801
-50.9531517 -20.7158432 8.436126709
-52.05142975 -21.23573112 10.51668835
-23.22612762 -7.902517796 0.3512989879
-43.63879776 -17.02648354 1.111444831
-51.01480484 -20.49608231 4.755122185
-60.44081879 -24.76249504 7.678019047
-50.39658356 -20.25389099 8.341670036
-52.06020355 -21.03375816 10.50705528
-23.38281441 -7.889628887 0.3479453027
-43.77052307 -16.91723633 1.114356756
-50.52067947 -20.06620598 4.71476078
-60.57442093 -24.57042694 7.686978817
-50.47735596 -20.09214973 8.346199036
-53.54984283 -21.48438263 10.78348923
-54.31052017 -21.84464455 12.94920444
-23.53416252 -7.873341084 0.3448032141
-43.94412231 -16.82573891 1.117269397
-50.47672272 -19.84989548 4.709163666
-57.31570816 -22.89037323 7.305134296
-50.38735199 -19.85473061 8.324467659
-53.59167099 -21.29198456 10.78013515
-54.27878571 -21.61594391 12.92704773
-23.59394455 -7.8163414 0.3451083302
-44.08821487 -16.72050095 1.1201545
-49.50331116 -19.22791862 4.632223129
-50.29446411 -19.61740685 8.302401543
-53.13501358 -20.88113976 10.68066311
-23.80233002 -7.822936058 0.3398338258
-44.21062851 -16.6136837 1.122871399
-49.66675949 -19.11691093 4.642735481
-52.73607254 -20.46481514 6.766964436
-50.55651855 -19.53563309 8.335018158
-53.51041794 -20.846838 10.74248791
-54.31257629 -21.21430969 12.90656948
-23.9153614 -7.787499428 0.3381388485
-44.38486099 -16.51159477 1.125879526
-49.54564667 -18.87331581 4.631318569
-50.32149887 -19.2223835 6.484186649
-50.71133423 -19.41596794 8.351539612
-53.62763977 -20.6884613 10.75398254
-24.01332283 -7.740814686 0.3371266127
-44.49437332 -16.38128281 1.128826261
-49.56817627 -18.68289757 4.630834579
-50.51203918 -19.09962463 6.501018047
-50.71987534 -19.21364975 8.344883919
-24.13369179 -7.707129955 0.3351503015
-44.62633896 -16.26833725 1.131631255
-49.98163223 -18.657341 4.660310268
-50.5629921 -18.91710281 6.501840115
-50.72759247 -19.01150894 8.338183403
-24.21897888 -7.658199787 0.3344686925
-44.77647781 -16.16236115 1.13443172
-49.96851349 -18.46080208 4.657216549
-50.81175232 -18.82690048 6.525622368
-50.90278244 -18.8896637 8.357578278
-54.22179794 -20.29162598 10.83431244
-24.2893734 -7.602728367 0.334325105
-44.90233612 -16.0456562 1.137194157
-50.02654648 -18.29422379 4.659583569
-50.43202209 -18.48542786 6.477624893
-50.9971962 -18.73349953 8.364638329
-24.43188095 -7.576149464 0.3315192759
-45.08054352 -15.9580574 1.139856219
-49.86090088 -18.04582214 4.644961357
-50.53251266 -18.33423233 6.48448801
-53.84373474 -19.72919083 10.74103355
-55.54116821 -20.44104958 13.10571766
-24.48725891 -7.513702869 0.3319049776
-45.29495239 -15.87562084 1.142673612
-50.04504013 -17.93135643 4.656998634
-50.7763176 -18.24078751 6.507770538
-52.45476151 -18.94463921 8.572937965
-54.04320908 -19.60354042 10.76873016
-55.52479172 -20.22041321 13.08821106
-24.56103325 -7.458358765 0.3316012919
-45.42670441 -15.75059414 1.145520806
-50.89820099 -18.09706116 6.5171175
-54.49094772 -19.57656479 10.84390068
-55.73981857 -20.09350586 13.12412548
-24.69938278 -7.423752785 0.3290534317
-45.57754135 -15.64095211 1.14823997
-50.80352402 -17.8445816 4.710756779
-53.20451355 -18.80941963 6.775696754
-55.56241226 -19.76924706 9.031299591
-54.55470657 -19.38345909 10.84518623
-56.4925766 -20.1685524 13.28302956
-24.76923943 -7.365900993 0.328869909
-45.70117188 -15.51148796 1.151034594
-50.25945663 -17.43996239 4.66722393
-53.05266953 -18.54850578 6.753652096
-53.44444275 -18.71553993 8.700900078
-54.69486618 -19.23089981 10.86164761
-55.72137451 -19.64904785 13.09240437
-24.89678764 -7.329899311 0.3265861273
-45.82157135 -15.38873482 1.153677106
-50.60715866 -17.3769455 4.691648483
-52.74760818 -18.22982788 6.714216232
-53.05857849 -18.36337662 8.634937286
-59.36857986 -20.85710907 13.91587067
-24.99862671 -7.287615299 0.3251104653
-45.96498108 -15.28270531 1.156206369
-50.63207626 -17.2066288 4.691661835
-52.69195175 -18.01994896 6.703520775
-52.4864502 -17.95312881 8.541223526
-25.07565117 -7.23112154 0.3246343434
-46.13340378 -15.17692184 1.158874989
-51.04236603 -17.18313408 4.721039772
-52.97245407 -17.95090866 8.608325005
-25.21388435 -7.192751408 0.3220645189
-46.28939438 -15.05713654 1.161629558
-50.98316956 -16.96124458 4.714463234
-52.8058815 -17.67954063 8.575716972
-57.07152176 -19.29966545 11.2729044
-25.30571175 -7.140695572 0.321036607
-46.43482208 -14.94111919 1.164229631
-52.69243622 -17.40905952 6.689666748
-54.21705246 -17.99804306 8.782225609
-25.41434097 -7.094250679 0.31939888
-46.5649147 -14.81881237 1.166786075
-51.35118484 -16.70897484 4.738460064
-53.4241333 -17.48245811 6.768350601
-54.31616592 -17.83198929 8.790205002
-25.63947678 -7.089224815 0.3136141896
-46.75112534 -14.71614933 1.169412374
-54.17290115 -17.57728577 8.761588097
-57.2854805 -18.72372246 11.28268051
-25.7556591 -7.04374218 0.3117036521
-46.90321732 -14.60030651 1.171965718
-52.24240875 -16.65070152 4.8022995
-52.41739273 -16.72330666 6.645441532
-53.07478714 -16.9799099 8.588845253
-59.09103394 -19.1611042 11.61428738
-25.90383148 -7.008862495 0.3086556494
-47.13425064 -14.51152992 1.174636364
-52.55140305 -16.56832504 4.823818207
-53.11079788 -16.79623795 8.58764267
-25.99352264 -6.952644348 0.3076655567
-47.31609344 -14.40418243 1.177208781
-52.63085175 -16.40317917 4.8279109
-53.1872139 -16.6270504 8.592596054
-26.14356041 -6.916745663 0.3045428693
-47.50527191 -14.29838276 1.17977798
-22.84027672 -5.835394859 2.56672883
-53.19015503 -16.43208694 8.586531639
-59.11969376 -18.51036263 11.58972645
-26.25767326 -6.867643356 0.3026762605
-47.67153931 -14.18367577 1.182288766
-22.0539093 -5.438726902 1.819324255
-22.79198074 -5.742978096 2.562317371
-52.06256866 -15.83003044 6.58866024
-53.30839539 -16.27734184 8.597895622
-59.17970657 -18.31180191 11.59126759
-47.86785507 -14.07824898 1.184838414
-22.70739174 -5.638776779 2.555166245
-52.34279633 -15.73524952 6.616276741
-55.0397644 -16.67215347 8.851928711
-59.54837799 -18.21855354 11.65100479
-48.02983093 -13.96022034 1.18730557
-21.91187286 -5.246947765 1.81401813
-22.84919548 -5.611602306 2.565170765
-52.85477066 -15.71678638 6.670044899
-54.71804047 -16.3618927 8.797054291
-59.48048019 -17.97576141 11.6286211
-48.22189713 -13.85128593 1.189813018
-21.90282822 -5.172575951 1.813761115
-22.60111046 -5.45380497 2.545661926
-52.61811066 -15.44561768 6.639343262
-55.40916824 -16.39208603 8.894421577
-48.47079468 -13.75978851 1.192420959
-22.03030014 -5.142959595 1.818795204
-22.5966301 -5.378186226 2.544605494
-52.76930618 -15.30433273 6.652433395
-55.14199829 -16.1017971 8.847913742
-48.64725876 -13.64340973 1.194864988
-59.48162079 -17.1510849 3.271787643
-22.5520134 -5.289732456 2.540520906
-52.35754013 -14.98880672 6.602336407
-55.26130295 -15.93979263 8.859481812
-48.79998398 -13.52720451 1.197137952
-22.03668022 -5.005701065 1.819205761
-22.31982231 -5.145208359 2.522304535
-52.78378296 -14.93659019 6.646459579
-56.94462967 -16.28011131 9.105365753
-49.01654816 -13.41291618 1.199732542
-21.95802879 -4.909712791 1.816231012
-22.28375053 -5.06121397 2.518890142
-53.75233459 -15.05366993 6.751547813
-54.37843704 -15.26809311 8.715204239
-22.73252869 -5.070513248 1.143024921
-22.11277771 -4.883499622 1.822312593
-22.40254021 -5.022567749 2.527142525
-22.95775604 -5.198534489 3.286711931
-54.34857941 -15.05239964 8.704427719
-22.498909 -4.925457001 1.143319368
-22.37840462 -4.890217781 1.832693815
-22.39743423 -4.944797516 2.526042223
-22.89828491 -5.101572514 3.278477907
-54.30272293 -14.83241177 8.691345215
-22.69500923 -4.910857677 0.4442482293
-49.64274597 -13.07255554 1.207158923
-22.12877846 -4.742549419 1.823069811
-53.36407471 -14.33154488 4.861073494
-22.82022285 -5.003284454 3.268257141
-56.32643509 -15.25599957 8.98765564
-22.72187805 -4.842430592 0.4449378848
-22.72492218 -4.848454475 1.145444274
-22.15599632 -4.679743767 1.824186325
-53.38253021 -14.14657688 4.860699654
-23.47086906 -5.125627518 3.339791059
-55.49929047 -14.8035326 8.858230591
-22.67293739 -4.756543159 1.146141291
-22.10825539 -4.594733238 1.822388768
-22.22432709 -4.676600933 2.51099062
-22.79616737 -4.848323822 3.262701035
-55.27191162 -14.52673244 8.818190575
-22.6925354 -4.689682484 1.146955132
-22.04765511 -4.502981663 1.820089936
-22.38434219 -4.648811817 2.522358656
-51.88529205 -13.32028008 6.519293785
-53.46784592 -13.79828262 8.543688774
-50.58885574 -12.63638592 1.217050552
-22.05101776 -4.433743 1.820267439
-22.84997559 -4.71215868 2.556762457
-53.26768875 -13.53719807 6.670546532
-56.47357178 -14.4804821 8.985637665
-22.80799484 -4.577581882 1.148737431
-22.8157444 -4.629025936 2.553524494
-22.8553009 -4.644999504 3.265150309
-56.10824966 -14.17423916 8.925552368
-23.00705719 -4.564321041 1.149939537
-22.8778286 -4.528877735 1.852452159
-22.62281036 -4.505085945 2.538389683
-52.91703033 -13.06996632 6.624483109
-53.5886116 -13.26206207 8.545390129
-51.2865181 -12.30648994 1.224106789
-21.95464897 -4.200793266 1.816638827
-22.43787766 -4.38133049 2.523842335
-53.31410599 -12.99379158 6.665410042
-55.75203323 -13.68560886 8.861721039
-51.55415344 -12.20036697 1.226546288
-22.30232239 -4.272693157 2.513023376
-53.54252625 -12.8686142 6.687491417
-56.47072983 -13.68589687 8.962946892
-51.79652023 -12.08574009 1.228902817
-22.08434486 -4.097182751 1.821731806
-23.09416962 -4.416851044 2.571883917
-22.83679771 -4.34743309 3.25773406
-53.4682045 -12.67046833 8.512099266
-52.11599731 -11.99010754 1.231449366
-22.02245522 -4.011235237 1.819350362
-22.3861351 -4.153849125 2.518078327
-22.85115814 -4.278555393 3.258037567
-53.41967773 -12.46919632 8.499817848
-52.52470779 -11.90660381 1.234310508
-22.04333496 -3.947526932 1.820179224
-23.19920731 -4.293935299 2.578456163
-54.04159164 -12.43574619 6.733036995
-56.45082474 -13.07186508 8.943551064
-53.02778625 -11.86295795 1.237259865
-22.15883064 -3.908167124 1.824678659
-23.49881363 -4.301893234 3.327626944
-53.70573044 -12.15908051 8.531945229
-53.40150452 -11.7739439 1.239926934
-21.94884491 -3.785404444 1.81653285
-33.99479675 -6.918192863 3.38677454
-54.21437454 -12.10167503 6.745685577
-58.17861938 -13.12789822 9.188981056
-53.85888672 -11.69407845 1.242899299
-21.92629623 -3.711239576 1.815662622
-55.32263184 -12.19307899 4.98448658
-23.36692619 -4.11912632 3.310378313
-58.20284271 -12.91925526 9.187015533
-54.11219788 -11.57014656 1.245198488
-22.19145012 -3.704829693 1.825962543
-35.82115555 -7.139771461 3.521642447
-23.38326263 -4.045464516 3.310877085
-58.23158264 -12.7221489 9.186048508
-54.60625839 -11.50309086 1.248175502
-22.74150467 -3.769118547 1.847323418
-34.32814026 -6.653947353 3.408820629
-23.47766304 -3.994628668 3.32012701
-55.08879471 -11.42995358 1.2511127
-22.98315811 -3.755760431 1.856701851
-34.22245789 -6.514196396 3.399958372
-23.38058853 -3.897017479 3.308114052
-54.65743637 -11.45158863 8.648450851
-55.48967361 -11.33433056 1.253800392
-23.11989403 -3.716066599 1.862001181
-34.67121124 -6.507157326 3.432600975
-23.49201012 -3.849795818 3.319272995
-58.76425552 -12.23785591 9.249370575
-55.9372673 -11.2468977 1.256614208
-22.23050499 -3.437828064 1.827443838
-35.20493317 -6.515264988 4.617595673
-34.88585663 -6.249487877 1.194652438
-33.83772278 -6.014438629 2.278206825
-34.17203903 -6.162129879 3.393397093
-56.36759186 -11.26956367 6.96241188
-34.88716125 -6.134797573 1.195503235
-33.82070541 -5.899243832 2.277508497
-34.40004349 -6.095181465 3.409480095
-33.55324554 -5.907071114 4.430801392
-34.61708832 -5.963767529 2.308391094
-34.37633896 -5.982000828 3.406843901
-34.15713882 -5.930932999 4.495957851
-70.4710083 -13.63282394 1.307165384
-22.99036598 -3.327835321 1.856850028
-34.44887924 -5.884569168 3.41135931
-33.59811401 -5.695698738 4.43231535
-70.32565308 -13.35754013 1.308382392
-23.02258682 -3.263480186 1.858064532
-34.41777039 -5.764452457 3.408140659
-33.92808533 -5.656280041 4.467134476
-70.57068634 -13.16557407 1.310772657
-23.04676819 -3.197321415 1.858962536
-34.51890182 -5.672739983 3.414800167
-34.56938553 -5.680561543 4.536373138
-81.89076233 -15.7105093 12.61219883
-70.56446075 -12.92037582 1.312333584
-34.87619781 -5.56264019 2.318203449
-34.56313324 -5.568608284 3.417217731
-34.24177933 -5.498642921 4.498452663
-35.04252625 -5.667954922 5.729655743
-34.966259 -5.460998535 2.321616411
-35.17569351 -5.580607414 3.462020397
-34.5717392 -5.453733921 4.533247948
-35.18553543 -5.58168745 5.748101711
-70.83644104 -12.46336555 1.316376686
-34.94621277 -5.336995125 2.320747375
-34.92543793 -5.409204006 3.442438364
-34.60848236 -5.342030048 4.535564899
-82.23693085 -14.88993454 12.64344978
-70.86527252 -12.21298504 1.317985415
-34.27830124 -5.087303638 2.294722795
-34.75371552 -5.249677181 3.428688288
-34.68881607 -5.233105183 4.542633533
-35.2527771 -5.345971584 5.752613544
-70.83984375 -11.96458244 1.319299817
-35.26876831 -5.16489315 2.333068132
-34.7064476 -5.127014637 3.424312115
-34.68271637 -5.118431091 4.540344715
-35.26276016 -5.232105255 5.751646519
-35.45368958 -5.09040451 2.34014225
-46.41548157 -7.232737541 4.295258522
-34.38994217 -4.955273628 4.50654459
-35.28594971 -5.120821476 5.752649784
-71.41746521 -11.59699821 1.323795557
-35.68761063 -5.023764133 2.349110603
-46.08923721 -7.024322033 4.269881248
-34.65356064 -4.897804737 4.534123898
-35.04821014 -4.797941208 2.324183226
-46.23497391 -6.904570103 4.27964735
-34.87604904 -4.831152916 4.55716753
-71.76262665 -11.19365025 1.327326059
-45.51051712 -6.543679714 2.729998112
-46.27044296 -6.764214039 4.281214237
-34.38604355 -4.635391712 4.501737118
-47.74034882 -6.76360178 2.816309452
-46.00748444 -6.555963993 4.260488987
-79.04912567 -12.33938503 9.416840553
-85.07750702 -13.39733219 13.01783752
-48.48403549 -6.730685234 2.844960928
-46.15710068 -6.428461075 4.270509243
-79.20467377 -12.09319592 9.430362701
-61.15631104 -8.673212051 1.295004129
-48.22253799 -6.525737762 2.83460927
-46.27291107 -6.294341564 4.278020859
-79.92023468 -11.94034767 9.505520821
-49.13322067 -6.505077362 2.869697332
-46.44071579 -6.16040802 4.289343834
-45.90194702 -5.828824997 2.74416995
-45.88731003 -5.909563065 4.247122765
-46.51677704 -6.010250568 5.827412605
-70.75923157 -9.546188354 1.330460072
-46.07921219 -5.704568863 2.750818014
-45.70276642 -5.736075878 4.232423782
-80.91702271 -11.25801373 9.604434013
-70.85852051 -9.321249962 1.33170557
-46.32922745 -5.590252399 2.760275602
-45.55810547 -5.562581062 4.220650196
-80.71141815 -10.94848919 9.578451157
-70.82647705 -9.076398849 1.332455635
-46.28835297 -5.431249619 2.758446455
-45.21746826 -5.360871792 4.194357395
-47.49406052 -5.462380886 1.252429843
-47.01237488 -5.383149147 2.786251307
-45.25487518 -5.217159748 4.196123123
-47.52389145 -5.310091972 1.25303781
-45.92578888 -5.075084209 2.743881941
-45.27005768 -5.070137501 4.196250439
-83.16590881 -10.46877575 9.83779335
-46.11665344 -4.950228214 2.751007318
-45.44079208 -4.944876194 4.207913399
-82.85070038 -10.14000702 9.799949646
-45.65545273 -4.736985683 2.732863903
-45.64081573 -4.822474957 4.221747875
-82.92033386 -9.865982056 9.804367065
-45.531147 -4.563534737 2.727750301
-45.45190811 -4.639914513 4.206732273
-46.57784271 -4.778060436 5.819475174
-45.42306519 -4.400659084 2.723272085
-45.48881149 -4.495344162 4.208501339
-46.64082718 -4.632545471 5.824687958
-45.34302521 -4.234697819 2.719856739
-45.55978394 -4.347445965 4.212752819
-45.29122925 -4.080251694 2.717542171
-45.73231125 -4.218930244 4.224572182
-46.94783783 -4.354763985 5.854920387
-45.75901794 -3.986353874 2.73532629
-45.65485382 -4.059925556 4.217904091
-47.03704834 -4.210717201 5.863070965
-45.94065857 -3.857210636 2.742023468
-45.64418793 -3.909193516 4.216187954
-47.14159012 -4.06792593 5.872921467
-45.80799103 -3.692762136 2.736550808
-45.65082169 -3.760569334 4.215761185
-58.33937454 -4.865844727 1.294997096
-45.91320419 -3.554363728 2.740271091
-46.28762436 -3.679481268 4.261911392
-45.9086113 -3.404189348 2.739735365
-46.47278595 -3.539657831 4.274633884
-58.28673553 -4.753534317 7.086072445
-46.24758911 -3.287792683 2.752471924
-46.15981674 -3.364043236 4.250658989
-58.3147583 -4.545455933 9.040868759
-46.58753967 -3.176791668 2.765250683
-46.19034576 -3.216244936 4.252023697
-47.09310913 -3.071086645 2.784394979
-46.37060547 -3.089809418 4.264493465
-47.2228508 -2.921250105 2.788982391
-46.47636032 -2.940430403 4.271379471
-47.14431381 -2.760860205 2.78553462
-46.68428421 -2.806713343 4.285852432
-47.22257614 -2.613673449 2.788133144
-46.77451324 -2.661953926 4.291646004
-47.68291855 -2.495407343 2.805469513
-46.83641815 -2.51441884 4.295357704
-48.97669983 -2.427102566 2.854926586
-47.03961945 -2.369481087 4.30945015
-48.63914871 -2.243951559 2.841434479
-47.0110054 -2.214257002 4.306503296
-48.53818512 -2.078878403 2.837064743
-47.46143341 -2.091907263 4.338860989
-121.9202042 10.55941105 1.442081213
-93.46994781 10.53310776 4.499250412
-51.75543594 6.375294685 6.331213474
-51.74008942 6.544934273 6.329856396
-51.77547455 6.720698357 6.334030628
-50.69723892 6.758646965 6.217490196
-50.44281006 6.90259552 6.190313816
-52.21833038 7.274805546 4.653967857
-52.21564102 7.447922707 4.653442383
-51.95172119 7.449778557 6.354863644
-52.46836853 7.694521427 6.411404133
-53.90306854 8.034170151 4.775877476
-50.67261124 7.613983154 6.217145443
-54.24386215 8.272656441 4.800405025
-49.88551712 7.667959213 6.132305622
-53.88773346 8.392036438 4.774151802
-50.70077133 7.94752121 6.22130394
-53.79565048 8.549298286 4.76716423
-50.87650299 8.143625259 6.24098587
-49.79376602 8.11476326 4.475111008
-50.72794724 8.298928261 6.225542545
-49.64102554 8.264724731 4.463718891
-50.20975876 8.393987656 6.170008659
-50.96950531 8.546731949 7.957448483
-88.2492218 14.87380886 4.269972324
-54.55929565 9.242207527 4.821993351
-50.01333618 8.538184166 6.149424553
-51.18160248 8.761401176 7.989862919
-88.45729828 15.18260288 4.275819302
-53.66080475 9.299798965 6.546097755
-51.06112289 8.896037102 7.974019051
-54.63676071 9.604273796 4.827178478
-50.47151566 8.935070992 6.200595856
-50.54373169 9.125772476 6.209280014
-50.02202225 9.066189766 7.827485085
-50.3073349 9.253626823 6.184435368
-49.82041931 9.206986427 7.80027771
-49.80307007 9.339613914 6.13055563
-49.69779587 9.352582932 7.784443378
-88.08412933 16.67368698 4.250630379
-49.59747314 9.4692173 6.109100819
-49.85890198 9.550447464 7.809716702
-57.21866989 11.03316593 5.014265537
-49.46775818 9.611883163 6.095915318
-50.71946716 9.882738113 7.93632412
-88.02323151 17.2739563 4.243807793
-57.18700027 11.22185421 5.011776924
-49.85894775 9.854485512 6.139381409
-50.80848694 10.07196236 7.95132494
-53.40806961 10.70417595 1.178852439
-53.39194107 10.74603844 2.95434761
-53.45853806 10.6863575 4.739953995
-51.5895462 10.3637476 6.328521252
-49.75648499 10.03664207 7.80109024
-53.38732147 10.88082981 1.176220655
-53.36910629 10.92257214 2.95212388
-53.4359169 10.8634758 4.73815918
-51.05716324 10.4322443 6.271677494
-50.58441925 10.37211704 7.923243523
-53.38358688 11.06105042 1.17358005
-53.35347748 11.10069466 2.950155735
-53.45176697 11.04850006 4.739178181
-50.48201752 10.48839664 6.210191727
-50.03909302 10.43260098 7.846458435
-58.73379898 12.4026947 3.14827776
-52.08380127 10.94768238 4.63939476
-50.25172806 10.61218739 6.186229706
-49.75201416 10.55162811 7.807238579
-53.34585571 11.47145653 2.946988583
-51.98038864 11.11213684 4.631744385
-50.31517029 10.80527496 6.194308758
-49.83441162 10.73874092 7.821529388
-57.32056046 12.43382454 5.02065897
-50.36598969 10.98777008 6.200994492
-50.04574585 10.95458412 7.854594707
-52.95669937 11.75038052 2.92972517
-51.29035568 11.36213112 6.302815437
-50.28708267 11.1788311 7.892093182
-52.82106781 11.90129471 2.923269749
-51.78169632 11.64718533 6.357564926
-49.79705429 11.2502594 7.823586464
-52.16065216 11.93249035 2.897424936
-49.7421875 11.36343861 6.136712074
-49.12742996 11.26893806 7.728864193
-52.41992188 12.17103195 2.905550241
-49.8780098 11.56519699 6.152779579
-50.80447006 11.82487297 7.975183964
-52.62752533 12.39965343 2.911741495
-52.54930496 12.31219292 4.672739983
-47.65413284 11.21685505 5.911736488
-50.69101334 11.96461391 7.9612813
-52.23061371 12.44692039 1.146815181
-52.94107437 12.65531445 2.921811342
-52.48597717 12.47826958 4.66808939
-47.82696533 11.42123222 5.93185091
-50.79671097 12.17351913 7.979575634
-52.19007492 12.61670876 1.143840909
-52.4666214 12.66376686 4.666651726
-47.36676025 11.48266983 5.883049011
-50.72642899 12.33218384 7.972193718
-54.55348969 13.35417557 4.818639755
-47.20990753 11.60709476 5.867272377
-50.81331253 12.52925205 7.987740993
-52.49351883 13.05164242 1.138096213
-47.75718307 11.8604517 4.323605537
-47.57579041 11.86057568 5.908545494
-53.20895767 13.30332565 8.33960247
-24.74375916 6.225850105 0.3506526351
-52.36746979 13.2013464 1.134940505
-53.64621353 13.57478046 2.941521168
-47.64136124 11.99581432 4.31517458
-47.52967072 12.0131216 5.904912949
-54.85489655 13.905756 8.582594872
-24.71730614 6.297744274 0.3495733142
-52.47351074 13.40969372 1.131915212
-53.82634354 13.80744553 2.946546555
-46.77123642 11.93814087 4.251810551
-47.35779953 12.13340282 5.887580872
-49.67670822 12.76702785 7.831116676
-24.70028877 6.37201786 0.3481376469
-47.18255997 12.2059803 4.281795502
-47.91519928 12.44218731 5.949902534
-51.55913925 13.43086624 8.108700752
-24.68301392 6.446226597 0.3466877937
-47.137146 12.35724258 4.278522015
-47.68244553 12.54716873 5.92598629
-50.79730988 13.40976524 8.000792503
-24.66934013 6.521407127 0.3450860083
-51.78882217 13.82547188 2.867131472
-46.74612427 12.4164505 4.250083923
-47.27081299 12.6028595 5.88254118
-24.65154266 6.595521927 0.3436073959
-51.53517914 13.93747902 2.856279135
-46.67109299 12.55836201 4.244671345
-47.43907166 12.81301403 5.902480602
-48.4732933 13.13363075 7.667953014
-24.65468788 6.675378323 0.3413535357
-51.60510635 14.13696098 2.857249498
-46.64372253 12.71304417 4.242740631
-48.23352814 13.19685745 5.99093008
-48.44384003 13.29524899 7.666853905
-24.6613884 6.756393433 0.3389440775
-51.79166412 14.36984348 2.862457991
-47.08293152 12.99735928 4.274807453
-47.82643509 13.25218678 5.948054314
-52.30667114 14.54518509 8.234800339
-50.32852173 14.07480907 4.511322021
-47.29698944 13.27022934 5.891795635
-47.47621155 13.36132717 7.531903744
-47.53294373 13.45469666 4.307766438
-47.1427803 13.39197445 5.876596928
-47.58869934 13.56058216 7.551664352
-24.63248253 6.990508556 0.3332073987
-47.473629 13.60428715 4.303548813
-47.81349564 13.75215435 5.951737881
-47.6296463 13.74861336 7.561193943
-24.64457893 7.077729702 0.3303746879
-47.52071381 13.79324627 4.307098866
-47.62121582 13.87257195 5.93253231
-49.31334686 14.41350651 7.811268806
-24.64481544 7.161725044 0.3279410303
-47.66692352 14.06278038 5.939424515
-48.17828751 14.25791359 7.648696899
-47.60900879 14.22242165 5.934998512
-47.90552521 14.35492134 7.612462997
-47.56428528 14.37758064 5.931956768
-50.17986679 15.22313213 7.949826717
-48.81922913 14.88229465 4.402292252
-48.10423279 14.71385479 5.993083954
-52.62646103 16.16276169 8.312917709
-24.70046425 7.500436306 0.3163605928
-48.53221512 14.96642971 4.381548405
-49.42625046 15.29985809 6.140119553
-52.64864731 16.35904503 8.320317268
-24.70782661 7.583740234 0.313629061
-54.99089813 17.18179893 4.852405548
-48.20796585 15.09011841 6.008411407
-24.73580551 7.673854828 0.3100997508
-48.37230682 15.31556511 6.028487206
-24.75390053 7.761185169 0.3069032729
-48.51104736 15.5342989 6.045799255
-52.31137848 16.81979752 8.283498764
-48.35968781 15.65910625 6.031270981
-85.41996765 28.17643356 4.0486269
-48.18010712 15.71887684 4.356888294
-48.22500229 15.78868961 6.018597126
-49.35122681 16.2113018 7.856133938
-54.96821976 18.17033005 4.85196352
-48.19553375 15.95303822 6.017521858
-52.0149498 17.29034233 8.253108025
-48.14383316 16.05433083 4.354716778
-50.83171844 17.025774 6.309892654
-48.48085785 16.40091896 6.053379059
-51.56274414 17.51440811 8.195501328
-48.21456909 16.50222778 6.026557922
-47.4355278 16.34712982 4.303882599
-48.8615799 16.90651131 6.100191116
-51.57451248 17.9162159 8.207045555
-51.33327484 17.90571976 4.588421345
-48.39526749 16.91908646 6.051148415
-51.53739929 18.09304428 8.206328392
-47.6930275 16.78586578 4.323235989
-48.51326752 17.13919449 6.066563129
-47.88967514 17.04086113 4.337899685
-48.50593567 17.32393074 6.068315983
-51.32610703 18.40664482 8.185014725
-47.88938141 17.21676445 4.338195801
-48.60900116 17.5408535 6.082176685
-47.70323181 17.32403755 4.324942589
-48.26292801 17.58265114 6.046328545
-50.43682098 18.45572853 8.063062668
-47.65987015 17.47509766 4.322099209
-47.88251114 17.61821175 6.00680685
-51.03512192 18.86995316 8.156878471
-47.80731583 17.76736832 6.001040936
-47.67776871 17.895504 5.989288807
-50.62276077 19.22773361 6.318149567
-87.36070251 33.84297562 4.067575455
-50.63273239 19.42198944 6.322086334
-54.32447052 23.18549728 2.873265266
-54.01984787 23.26251984 2.860272646
-53.44885635 23.21862984 2.838021278
-53.79719925 23.58521843 2.847750664
-53.38673782 23.60996819 2.831096649
-25.29574394 10.8845644 1.018207312
-53.16563416 23.71892548 2.821024656
-25.19364738 10.92939281 1.016199112
-25.20994949 10.97119427 1.851187348
-25.26593971 10.97152805 2.692988873
-25.24510193 10.99634838 3.534745455
