# .PCD v0.7 - Point Cloud Data file format
VERSION 0.7
FIELDS x y z
SIZE 4 4 4
TYPE F F F
COUNT 1 1 1
WIDTH 1293
HEIGHT 1
VIEWPOINT 0 0 0 1 0 0 0
POINTS 1293
DATA ascii
-37.98955536 36.28303528 3.742025614
-31.83791351 30.09221649 0.4267392457
-37.32426071 35.87307358 1.991073728
-37.58686829 36.11509705 3.713223457
-31.68464088 30.13740158 0.421872884
-37.29360199 36.08610535 1.986162663
-37.50271606 36.27450562 3.708837032
-83.71715546 84.66454315 11.33009624
-31.52172089 30.17176628 0.4172468185
-37.40684509 36.42219925 3.703565598
-31.37956429 30.22708321 0.4121201336
-37.34881973 36.61023712 3.701217175
-31.34031677 30.39082146 0.4044210017
-36.78005219 36.28507233 1.960332394
-31.32215118 30.57798767 0.3961230814
-36.86809921 36.62753296 1.958394289
-31.34525871 30.81075478 0.3866881728
-37.29003906 37.33317947 1.96493876
-31.38879585 31.06753159 0.3766161799
-44.14117813 44.99351501 4.233632088
-31.41870689 31.31170845 0.3667794168
-43.94954681 45.0942421 4.221533775
-31.46342468 31.57419777 0.3564346433
-42.90729523 44.5968132 2.088110209
-51.75543213 54.36767197 4.830430984
-42.68948746 44.96944046 2.072083712
-42.66803741 45.25584412 2.066190481
-43.13383102 45.75048447 4.172201157
-42.31546402 45.16673279 2.052126169
-42.91672516 45.81988144 4.158183098
-42.43935394 45.62165833 2.049725294
-42.82033157 46.02684784 4.153543472
-41.67901611 45.05839539 2.025791645
-42.34658813 45.79866028 4.11959362
-41.26436996 44.88790894 2.010351181
-42.58041 46.38888931 4.140661716
-38.60798264 42.3755188 1.936144114
-38.88508224 42.67416382 3.85848403
-38.32169342 42.32939529 1.924201608
-39.00932312 43.11879349 3.870898724
-38.72808456 43.1108551 1.928581595
-38.46508026 42.76755142 3.831151247
-38.45317078 43.07955551 1.91686213
-38.2679863 42.82818222 3.818496704
-38.05184174 42.89242935 1.902234554
-38.15469742 42.98972321 3.812404871
-37.9356575 43.04991531 1.894250393
-37.7145195 42.75197983 3.780718327
-37.80767822 43.16616821 3.790826082
-38.20301437 43.98696518 1.889588237
-37.7228775 43.36377335 3.787012577
-43.4831543 50.89860153 2.003386021
-37.54870605 43.7833252 1.863844395
-51.66164398 61.52035522 4.889557362
-42.01662445 50.46645355 1.945145369
-43.0106163 52.4536438 4.226323605
-42.25408936 51.86344528 1.930665255
-41.85212708 51.70148849 1.915407658
-41.912323 52.15185165 1.909959674
-41.2119751 51.95539093 1.881755471
-38.44480896 48.90600204 1.811654568
-38.21873093 48.94658661 1.80061245
-15.62279987 17.72862625 0.6187774539
-38.43574524 49.6036911 1.798437715
-38.28900146 49.75786972 1.788900971
-38.12099075 49.49637985 3.873186111
-38.17623138 49.96060944 1.780008912
-37.89377975 49.53572845 3.858589649
-37.41926575 49.24635696 1.75857389
-38.01106644 50.06464386 3.871661425
-37.49057388 49.7090416 1.753275275
-37.76873016 50.08352661 3.855886936
-37.01096344 49.37986755 1.737389684
-37.44032288 49.9764328 3.83317852
-37.47766495 50.42326736 1.739424706
-37.28268051 50.11472321 3.824218988
-37.04654694 50.53321457 1.717555165
-37.10288239 50.99207687 1.711576343
-36.96800613 51.16893387 1.702047706
-14.00334835 18.67474556 0.529235065
-13.9868288 18.78874588 0.5231177807
-13.98069191 18.92185211 0.5163469911
-13.98174953 19.06898499 0.5090801716
-13.96800327 19.19204903 0.5025555491
-13.97227764 19.3482666 0.4949062169
-13.96774292 19.49080086 0.4876610935
-13.96039009 19.63002586 0.4804821908
-13.9715662 19.80440331 0.4720936716
-13.98742771 19.9895916 0.4632923305
-12.87061214 18.09839249 0.5239797831
-12.72032261 17.96375084 0.5261136889
-12.58997345 17.86351204 0.5271198153
-12.47638035 17.79258728 0.5271562934
-42.85032272 75.96870422 1.500663996
-41.41503906 75.75021362 1.436350584
-41.44654083 76.4646225 1.423720002
-41.25960159 76.75045013 1.409080982
-34.20850754 64.2379303 1.318538666
-33.64107513 63.62354279 1.303420424
-33.41369247 63.710186 1.290713906
-33.13896179 63.66785431 1.278281927
-32.9615097 63.83088303 1.266434789
-32.87835693 64.22712708 1.254469633
-32.69422531 64.40911865 1.24189055
-27.88978004 54.4732933 1.208181739
-11.12596416 17.70881271 0.4872434437
-27.58697701 54.30093002 1.196929574
-37.90130234 77.15084076 4.164185524
-11.09355259 17.79351234 0.4817245901
-27.31585503 54.19467545 1.185875773
-37.59460831 77.17963409 4.145196915
-27.04738617 54.09082794 1.174889922
-37.36905289 77.38996124 4.133472919
-26.99520302 54.47663116 1.164557695
-37.21150208 77.75706482 4.127894878
-10.93889523 17.92290306 0.4696138799
-26.46888161 53.77674866 1.153001428
-10.88030624 17.95043564 0.4661231935
-26.31424522 53.90028 1.142942667
-10.82774258 17.98384476 0.4625248313
-26.52470589 54.90672302 1.132856131
-26.35656929 55.03454971 1.122025967
-11.00998116 18.75094986 0.4287037551
-26.14615631 55.06222153 1.111143231
-11.00766945 18.92079926 0.419686079
-37.41707993 82.80491638 4.200801849
-10.98433113 19.0514946 0.4119649231
-36.71055603 81.91086578 1.0841645
-10.9716301 19.20131683 0.4036045372
-10.95894241 19.34441376 0.3955873549
-10.94586372 19.49819374 0.3869794607
-10.94317532 19.6712513 0.3777176738
-10.93792439 19.86009407 0.3675129414
-10.91837597 20.01560211 0.3585366011
-10.91855717 20.22533035 0.3473944068
-10.92297935 20.45025635 0.3355865777
-10.95160103 20.70211792 0.3232345283
-21.00193024 54.44963455 2.837937832
-22.42279243 63.89221954 0.7427643538
-22.05072212 63.4438591 0.7332413793
-21.71178627 63.09539032 0.7232969403
-21.37129021 62.69033813 0.7144463658
-21.30733299 63.28295517 0.6987451315
-20.92278671 62.75164795 0.690271616
-20.80029869 63.14719391 0.6756945252
-20.61708641 63.33047104 0.6624620557
-20.3597126 63.24293518 0.6511183977
-19.92270279 63.35103226 0.6264103055
-19.94786263 64.34479523 0.6067320108
-15.99555302 53.5720787 0.6306342483
-15.75504684 53.37177277 0.6224175096
-15.53640175 53.21707153 0.6143561602
-15.22326851 52.6812439 0.6094685197
-15.25577545 53.67821121 0.5899772048
-14.9998579 53.39056396 0.5827691555
-15.11613369 53.92512512 2.475496292
-23.84494209 96.84403229 13.90681553
-14.81683636 53.43022156 0.572386384
-14.90520477 53.88936996 2.462472916
-23.9081192 96.69993591 6.981534481
-23.70821381 96.84055328 10.42346096
-14.62376308 53.37730408 0.5634382963
-14.77694035 54.15007782 2.458206177
-23.57861519 96.70944214 6.959955692
-6.792005062 16.52272224 0.3805896044
-14.45588684 53.4880867 0.5523095131
-14.65114975 54.43008804 2.454346418
-19.83530235 83.97158051 18.16914368
-14.33870602 53.84912872 0.5384876728
-19.90266991 83.87068176 12.07813835
-19.71233559 83.92266083 15.09096622
-19.52253914 83.98809052 18.1424427
-14.20394802 54.18242645 0.524325192
-19.9386673 83.71811676 6.104375839
-19.77735138 83.82649994 9.071017265
-19.58248138 83.84672546 12.04962444
-17.81551361 78.59089661 22.81144524
-19.8320179 83.69999695 3.140526533
-19.63396072 83.693573 6.083065987
-19.46034813 83.8167572 9.047076225
-17.70139694 78.51670837 19.83975601
-17.5264492 78.54206848 22.7675209
-19.54487419 83.68724823 3.123362064
-19.38233185 83.86511993 6.07459116
-17.62995529 78.45963287 16.93088531
-17.44571304 78.49520111 19.80935287
-17.69824219 78.38705444 11.26326561
-17.52734756 78.47319794 14.07555771
-17.34903336 78.52948761 16.91796875
-17.74939537 78.2519989 5.701350212
-17.57990456 78.33074188 8.461582184
-17.4049263 78.38589478 11.24006176
-17.3311882 80.02529144 17.19660568
-17.14073563 80.04637909 20.12558556
-17.6456356 78.20694733 2.939962387
-17.47020721 78.24903107 5.682947159
-17.30237007 78.33763123 8.442218781
-17.2459507 80.06748962 14.29383183
-17.06139946 80.02723694 17.17236328
-17.36873055 78.2148056 2.923737764
-17.12638474 79.92121887 11.39775467
-16.37675667 79.96238708 23.01571846
-6.585736752 18.45154381 0.8872153759
-17.18125916 79.79029846 5.737311363
-17.02536583 79.88885498 8.549800873
-16.10144615 80.01104736 23.00014687
-6.509609699 18.37543297 0.8848227859
-17.08401489 79.7881546 2.927473783
-6.442696571 18.35027504 0.8818221688
-6.37990427 18.34854507 0.8785339594
-6.308870792 18.29525757 0.8759105802
-6.251257896 18.30442047 0.8726561069
-6.190579891 18.31385803 0.8692293763
-6.129869461 18.32308578 0.865801692
-6.06912756 18.33209991 0.8623731732
-6.008355141 18.34090042 0.85894382
-5.95199585 18.38117409 0.8550696969
-5.896811962 18.40896606 0.8515231609
-11.09313393 78.91422272 16.46164513
-10.81701183 78.89631653 16.43713379
-8.901857376 54.02446747 2.112591267
-10.8900032 78.80400848 10.81116009
-10.55417538 79.02206421 16.44104385
-10.62709045 78.77450562 10.78977203
-10.36100101 78.86006927 10.78188324
-8.793969154 78.61623383 5.158709526
-8.506508827 78.58808136 5.140264511
-8.231646538 78.53804779 5.121566296
-7.96406889 78.60670471 5.10906744
-7.693712234 78.63054657 5.094295502
-7.213174343 79.38033295 5.10228014
-6.666325569 79.4098587 5.071839809
-6.377449036 79.37780762 5.053542137
1.090949655 79.29087067 15.78221416
1.204592228 73.91625214 17.42163277
1.4593364 73.9103775 17.40924072
1.702343822 73.91799164 17.40059853
1.146261692 74.14131165 4.384586334
1.958173037 73.9240036 17.39125061
2.13511467 73.9397049 20.09759903
1.231557608 74.09378052 1.81143856
1.401705146 74.12929535 4.370586872
2.210877657 73.88822937 17.37278748
2.390002728 73.9310379 20.08548164
1.48838532 74.10292053 1.797517896
1.656860232 74.11240387 4.356414318
2.717455149 79.23497772 15.699296
2.466105461 73.88467407 17.36170769
2.643568993 73.90604401 20.06935692
1.743184805 74.08123016 1.783315301
1.91458571 74.13049316 4.343838692
2.815724373 79.16196442 12.85873127
2.581933737 74.28897095 14.7666893
2.721200705 73.87827301 17.35019875
2.901082039 73.92645264 20.06526566
1.997887492 74.05866241 1.769121766
2.173435688 74.15961456 4.331782818
2.720592499 79.08081055 7.292742252
2.677331448 74.26150513 12.11110497
2.837640047 74.2719574 14.7528677
2.976129293 73.86903381 17.33826065
3.153178692 73.88426208 20.04514885
2.253142118 74.04316711 1.755007625
2.41398263 74.11711884 4.317275047
2.587217331 74.17586517 6.89160347
2.758713007 74.20140076 9.481422424
2.92073679 74.25056458 12.09881783
3.229825497 73.84529877 17.32329559
3.395251751 73.87303925 20.03375626
2.50147891 74.09958649 1.742236972
2.669756174 74.1046524 4.303468704
2.843158007 74.16326141 6.87806654
2.999683142 74.16400146 9.465929985
3.474229097 73.85865021 17.31725693
3.652480841 73.8850174 20.0281601
2.754847765 74.05841827 1.727916121
2.923751116 74.07138062 4.28880024
3.081688404 74.09923553 6.861178398
3.727660894 73.83123016 17.30187416
3.904774666 73.84597778 20.00957298
3.010485172 74.04426575 1.713844895
3.339276791 74.10476685 6.849220276
3.983753443 73.83011627 17.29253769
4.162333965 73.858078 20.00447655
3.263877153 74.00531769 1.699583411
3.423426628 74.05509186 4.262443066
3.60083437 74.149086 6.840369701
4.227228165 73.82929993 17.28390694
4.404421806 73.84349823 19.99309731
3.508550882 74.01050568 1.686392784
3.672576666 74.10394287 4.252104282
3.84522295 74.14608002 6.828486443
4.469493866 73.81601715 17.27269363
4.645857334 73.82235718 19.98023033
3.757678509 74.05864716 1.673542738
4.092554092 74.17001343 6.818768978
4.725314617 73.80841064 17.26249886
4.904997826 73.84337616 19.97811699
2.892652035 63.1307106 1.576024413
4.347779751 74.14421844 6.804629803
4.981610298 73.8037796 17.2531662
5.159367561 73.82115173 19.96504593
3.089217186 62.91722107 1.562589765
5.240530968 73.81959534 17.24856186
5.416710854 73.82305145 19.95845222
3.281302691 62.67529297 1.549034834
5.500605583 73.84222412 17.2456646
5.67054987 73.79519653 19.94439888
3.522666693 62.88188934 1.538751245
5.7692976 73.92983246 17.25733566
5.916296005 73.80442047 19.94049072
3.756579161 63.104702 1.529095411
6.022429466 73.99084473 17.26367569
6.172360897 73.79211426 19.93091583
6.284652233 74.01844788 17.26243973
6.429733753 73.78850555 19.9238205
3.134756327 53.54628372 3.292931795
6.552491665 74.08382416 17.26974487
6.685051918 73.76861572 19.91276169
3.200131655 53.54631805 1.433156729
6.814888477 74.10565948 17.2676239
6.943077564 73.76703644 19.90666199
4.603298187 62.84709549 1.480251431
6.144267559 73.35371399 4.092739105
7.087790489 74.10746765 17.26094437
7.20063591 73.76069641 19.89956856
4.946732044 63.6852684 1.472881675
7.351797581 74.13511658 17.26050949
7.468648434 73.73638916 19.8878212
7.620366573 74.10401154 17.24699974
7.727185249 73.73394012 19.88221169
7.855115414 74.10636139 17.24199867
7.958961964 73.72462463 19.87553406
8.104562759 74.11766815 17.2388382
8.213657379 73.69554901 19.86351013
8.473958015 73.70001221 19.86036682
8.731189728 73.68442535 19.85229301
8.989095688 73.6717453 19.84520912
9.250751495 73.67916107 19.84353256
9.492754936 73.64764404 19.83222771
9.312180519 74.03453827 11.83255577
9.755681038 73.65897369 19.83201981
10.00474548 73.66388702 19.8305397
10.26159859 73.63907623 19.82148933
9.393431664 73.88540649 1.370084047
10.50980949 73.63655853 19.81853104
10.7678051 73.61566925 19.81095695
11.03037453 73.61668396 19.80925751
11.28964806 73.59964752 19.80315018
10.26020813 72.91690063 1.311841011
11.55012894 73.58738708 19.79851151
10.50621605 72.91025543 1.298835158
11.81349754 73.58747101 19.7972908
12.06559467 73.59483337 19.79822159
12.32768059 73.58547211 19.79503441
12.58860111 73.56948853 19.79038811
12.85173607 73.56202698 19.78817177
13.1080637 73.52336121 19.77817154
13.12789536 73.28398132 16.97994041
13.36221313 73.5318985 19.78054047
8.040319443 53.45584106 1.176209092
13.38323879 73.30003357 16.98184013
13.61480427 73.53200531 19.78095627
8.236035347 53.51495361 1.166784048
13.62264633 73.24666595 16.96870041
13.862607 73.51046753 19.77602577
8.453280449 53.58089066 1.156338453
14.14488029 73.52002716 19.77941322
8.624048233 53.52544785 1.146758318
8.679644585 53.23722458 3.019397259
14.41106892 73.51635742 19.77960205
8.627797127 52.71561813 1.13616693
8.86195755 53.19483185 3.009397745
14.67367363 73.4966507 19.77591515
8.804611206 52.65747452 1.126260519
9.153288841 53.60658646 3.015941381
14.93347931 73.46471405 19.76932144
8.985860825 52.61816788 1.116377354
15.20053482 73.46003723 19.76998711
9.173645973 52.60542297 1.106507421
15.4672718 73.45251465 19.77016449
9.346047401 52.52988434 1.096640587
15.72651958 73.46592712 19.77585602
9.64707756 53.0029068 1.087154269
15.9779911 73.44844055 19.77381516
16.24065781 73.42119598 19.76963425
16.51263618 73.42669678 19.77413177
16.79437637 73.41661072 19.77503777
17.06367111 73.40883636 19.77662659
17.31623077 73.38858795 19.77505493
17.5683403 73.36560059 19.77300262
17.82818222 73.36780548 19.77766991
18.10531616 73.38040161 19.78547668
18.36987495 73.34919739 19.78224564
18.64636993 73.35601044 19.78907585
18.91801262 73.3451004 19.79158592
19.19099808 73.33688354 19.79504585
15.08351803 62.69390869 0.9317286611
19.46417236 73.32763672 19.79849815
19.7249527 73.32124329 19.80263329
19.98353004 73.30652618 19.80484962
20.25072098 73.31673431 19.81374168
20.55115318 73.29918671 19.81674194
20.82781029 73.29222107 19.82206726
21.08960724 73.28094482 19.82616425
21.34527397 73.25036621 19.82550049
21.62695885 73.25323486 19.83413124
21.89480972 73.21469116 19.83230019
22.1886692 73.24840546 19.84945679
22.45745468 73.20962524 19.84809303
22.72430038 73.20346832 19.85499573
23.01198769 73.21380615 19.86689186
15.1476965 53.25136566 2.754094601
23.28722 73.18838501 19.86977768
23.5782547 73.20379639 19.8835392
23.85871887 73.1889801 19.88971901
24.13382149 73.15856171 19.89211845
24.40136719 73.14447021 19.89849663
24.69864273 73.16814423 19.91550255
24.97929955 73.14723206 19.92118073
25.26804161 73.14510345 19.93202972
25.53220558 73.11605835 19.93554878
25.82587433 73.12257385 19.94920158
26.09776115 73.10951233 19.957407
26.39060974 73.11017609 19.97009087
26.66600227 73.102211 19.98015404
26.96101761 73.10421753 19.99374771
27.25183678 73.09429169 20.00451279
27.53832436 73.07253265 20.01246071
27.84223175 73.05506897 20.02252769
28.12995529 73.03278351 20.03092766
28.4218502 73.05210114 20.0498085
28.71012688 73.02754211 20.05818367
28.98844337 73.01267242 20.06863403
29.30853653 73.05495453 20.09517479
29.57781029 73.01663208 20.1000061
29.87116432 72.99638367 20.110672
30.16641426 72.97851562 20.12226295
20.50104713 53.76851654 0.5537033677
30.47851753 72.99464417 20.14313698
30.76019669 72.97663879 20.15444756
20.77521896 53.13902664 2.54651618
31.0647583 72.97276306 20.17064285
20.73393059 52.85529327 0.531733036
20.6854744 52.47511673 2.520759106
31.36800194 72.96414948 20.18589592
20.86717796 52.6690712 0.523117125
20.71026421 52.06367493 2.502123356
31.65621948 72.92282867 20.19279099
20.66822243 51.78525162 0.5224730968
31.95609665 72.93524933 20.21332741
21.10786629 52.27118683 0.5068730116
32.25296783 72.93950653 20.23199463
21.38048172 52.40180588 0.4952330291
21.56583977 52.5167923 2.493246317
32.55580521 72.92258453 20.2462635
21.58961868 52.37578583 0.4848559797
32.85545349 72.89746857 20.25867462
21.82727051 52.38399124 0.473513037
33.16240311 72.88504791 20.27477455
33.46961212 72.90183258 20.29799271
27.42897797 62.44864273 2.727366447
33.76837158 72.90010834 20.31657791
34.07471466 72.91099548 20.33883476
34.39736557 72.8600769 20.34799385
27.51775169 61.32295227 0.3027212918
28.28857994 62.5189476 2.702780008
34.71338654 72.85506439 20.36770248
35.02614212 72.84186554 20.38555527
35.35589218 72.8582077 20.41166496
35.65322113 72.84215546 20.42831612
35.96150589 72.81483459 20.4433651
36.28136444 72.80667877 20.46390724
36.60542297 72.80397034 20.486269
36.92123413 72.8135376 20.51111031
37.24428558 72.80474091 20.53251648
37.53593445 72.76770782 20.54542542
37.84718704 72.76330566 20.56746864
38.20066833 72.80110168 20.60253716
27.27521324 52.87328339 2.331133604
42.32706451 72.70980072 17.79916763
42.64500427 72.68623352 17.81576157
42.95474625 72.64818573 17.82927132
43.27935028 72.60417938 17.84288025
43.60852432 72.56533051 17.85801125
43.97265244 72.57745361 17.88539696
44.31624222 72.58302307 17.91035461
44.66628265 72.56909943 17.93232727
45.01017761 72.54386139 17.95198822
45.38103104 72.55603027 17.98080254
45.71115875 72.53285217 18.00032234
32.5249939 53.98187256 2.229896545
46.09212494 72.55467224 18.03213501
32.66235733 53.78688812 2.218641996
46.42440414 72.50388336 18.04714394
46.76369476 72.46128082 18.06443024
47.12937546 72.48035431 18.0953083
47.50028229 72.50418091 18.1276741
32.38131714 51.89453506 2.15230751
47.85128784 72.49762726 18.15316963
32.48942947 51.67149353 2.140916348
48.2313652 72.50299835 18.18329811
33.10077286 52.15459442 2.143974543
48.61066437 72.47863007 18.2081871
48.95396423 72.45455933 18.23058128
33.66644287 52.20628357 2.131680489
49.3326416 72.47642517 18.26432419
49.68155289 72.45560455 18.28819466
34.17107391 52.18505859 2.118276358
50.04973221 72.45838928 18.31809616
33.80095291 51.27548599 2.092845678
50.43221283 72.40050507 18.33844376
50.80620193 72.40617371 18.36981392
51.19803619 72.4070282 18.40200996
51.59291077 72.4091568 18.4349308
51.97160721 72.38766479 18.4625473
52.34560776 72.38327789 18.49305725
52.72290802 72.35521698 18.51987648
53.12262344 72.35313416 18.55344772
53.51321411 72.33685303 18.58398438
53.92144394 72.3653183 18.62416077
54.29101944 72.31782532 18.64788818
54.70562363 72.32344818 18.68510246
55.10100937 72.30278778 18.71628761
55.49194717 72.27418518 18.74595451
55.91605759 72.28298187 18.78532791
56.31335831 72.2818985 18.8208313
56.71863937 72.26265717 18.85416222
57.11462784 72.25484467 18.88886642
57.54186249 72.28104401 18.93250084
57.91863632 72.24565887 18.96118164
58.34686661 72.24250793 19.00037384
58.7628746 72.22245026 19.03581619
59.18467331 72.20626831 19.07271767
59.63314056 72.21747589 19.11702919
60.05195618 72.44432831 15.75384331
60.04125977 72.20504761 19.15377998
60.47359467 72.21705627 19.19718742
60.89803696 72.19259644 19.23397827
61.28419876 72.14810944 19.26397324
61.76280212 72.17764282 19.31554031
51.22538376 61.23999786 2.06263113
59.98041916 69.99060822 15.40500927
62.17844009 72.13537598 19.34929085
60.10483932 70.32984924 5.486944199
62.62664032 72.12564087 19.39190483
60.07302856 69.60331726 8.726583481
63.06316376 72.12511444 19.43512917
60.55155945 69.19828796 15.33822536
63.51277924 72.11096191 19.47768021
44.58819962 52.47755432 1.896175861
63.96310806 72.0945816 19.52020264
60.92446899 69.08421326 8.705640793
61.43444824 69.18556976 15.40365696
64.41410828 72.07594299 19.56269455
44.6415062 51.81880951 1.872685671
64.86577606 72.05502319 19.60515976
61.53049469 69.00108337 5.412926197
65.38645172 72.10247803 19.66601753
45.22167206 51.73619843 1.858467698
61.97511673 68.99088287 5.414336681
65.81085205 72.0717926 19.70463943
62.68992615 69.05477905 8.75368309
66.26880646 72.07277679 19.75206947
63.699646 69.20814514 15.58288574
67.19102478 72.04754639 19.84398651
63.93561935 69.17556763 5.435060978
64.1619339 68.75535583 15.55897617
67.68857574 72.0545578 19.89729118
63.84555817 68.83270264 2.070463181
68.16469574 72.03681946 19.94468689
64.07059479 68.58644104 2.058093786
68.65996552 72.05941772 20.00075722
69.1179657 72.01751709 20.04295731
69.64701843 72.04185486 20.10344315
70.08657837 71.97596741 20.14046478
70.56629181 71.94599915 20.18770981
71.09793091 71.96240234 20.24808693
71.61817932 71.98886871 20.30905342
72.59436798 71.92185211 20.40624619
74.12302399 71.90601349 20.57422066
62.65179062 60.64103699 1.829438448
63.7252655 60.78633118 1.815872669
79.41945648 72.74517059 1.921486735
77.29979706 66.68241882 1.775649309
77.47255707 66.35528564 1.763600707
82.1178894 67.24743652 1.72049582
82.19008636 66.82678986 1.707743526
60.42235565 44.0968399 1.394800782
60.65618896 43.62273407 1.38006413
64.34454346 45.41644287 1.379789114
25.72163582 17.85036087 1.16855824
25.68800545 17.70872688 1.165787101
25.67173195 17.56425285 1.162792563
25.66176987 17.42403984 1.159847379
25.66513443 17.29193878 1.156962991
25.65985489 17.16217995 1.154236674
25.6480999 17.02270889 1.151388526
26.05871201 16.85520363 1.143845558
26.17761993 16.7860775 1.141271591
64.63165283 37.27031326 3.890494823
26.34586334 16.74256897 1.138771653
63.94262314 31.54380417 1.089841366
27.74424171 10.64400578 2.173523664
27.73596764 10.52231407 2.170654058
27.6835041 10.39342403 2.166441202
27.68411827 10.281106 2.164083958
27.66900826 10.16433144 2.161226511
65.26035309 20.31331635 3.420477152
58.95785141 18.12598419 0.9374469519
59.03797531 18.09931755 3.20167017
58.29956436 14.77373791 0.9121243954
75.795784 15.03390789 0.8363580108
75.74198151 14.17084694 0.8324926496
1.038512349 0.7254901528 0.7677768469
1.043860197 0.7093579769 0.7674409747
1.01926136 0.6945459843 0.7692956924
1.014537811 0.6789265275 0.7696947455
19.86105347 -1.392098427 5.173151493
19.32448387 -1.733908772 5.090982914
19.35424232 -1.817316532 5.098683357
19.33284187 -1.89473784 5.097498417
-5.04188776 -8.9582901 0.703918457
-5.005726337 -8.826022148 1.052755475
-5.076229572 -8.952934265 0.7058130503
-5.043996811 -8.848381042 1.05449605
-5.001525879 -8.820241928 1.396532774
-5.072844028 -8.811360359 1.056510568
-5.039769173 -8.842535019 1.399250388
-5.002063274 -8.811116219 2.086621761
-5.144863129 -8.941859245 0.7095980048
-5.113863468 -8.849238396 1.058189988
-5.073078632 -8.833105087 1.4010005
-5.034667015 -8.797767639 2.087687492
-5.021734715 -8.815073967 2.436963797
-5.018740177 -8.897969246 2.802013636
-5.145469189 -8.839903831 1.059985161
-5.112210751 -8.859061241 1.40385294
-5.07260561 -8.817704201 2.092158318
-5.059989929 -8.836844444 2.442608118
-5.041946411 -8.834165573 2.793640852
-5.178042412 -8.826234818 1.061885953
-5.139198303 -8.82207489 1.404645205
-5.129614353 -8.857422829 1.751509309
-5.108424664 -8.82375145 2.095230818
-5.093520164 -8.839199066 2.445466042
-5.08029747 -8.855643272 2.800258875
-5.21748209 -8.851848602 1.063635588
-5.179184437 -8.85170269 1.407630682
-5.141620636 -8.824073792 2.097609043
-5.119627476 -8.786418915 2.440843582
-5.248625755 -8.830062866 1.065562487
-5.212471485 -8.841794968 1.409377456
-5.173146725 -8.804373741 2.098064184
-5.162739277 -8.835144997 2.450289726
-5.170004368 -8.971987724 2.826435566
-5.008466721 -8.206400871 3.363630772
-5.314369678 -8.912392616 0.7189368606
-5.282528877 -8.823915482 1.067429304
-5.246415615 -8.835707664 1.411246777
-5.206280231 -8.794369698 2.099522829
-5.198041916 -8.836835861 2.453243971
-5.170870781 -8.771562576 2.794308424
-5.031477928 -8.148938179 3.352508307
-5.011051655 -8.119778633 3.685797691
-5.348553658 -8.906082153 0.7208186388
-5.324489594 -8.860900879 1.069157481
-5.288258553 -8.872759819 1.414506912
-5.283321857 -8.931423187 1.765641332
-5.246405125 -8.823419571 2.10502696
-5.222260952 -8.775972366 2.447505474
-5.221709251 -8.862392426 2.813194752
-5.061382771 -8.1335392 3.351860046
-5.044465065 -8.12533474 3.690796614
-5.382715225 -8.899652481 0.7226986885
-5.352505684 -8.823055267 1.071122289
-5.320110321 -8.854617119 1.415999174
-5.283163548 -8.832736015 2.108514547
-5.263071537 -8.80864048 2.454802752
-5.25155592 -8.832723618 2.810976267
-5.088837147 -8.104652405 3.347864389
-5.07859993 -8.134557724 3.696888447
-5.389432907 -8.832251549 1.072942495
-5.363813877 -8.899209023 1.419534564
-5.315993786 -8.820398331 2.109771729
-5.304135799 -8.841137886 2.462113619
-5.294744015 -8.8766222 2.821718454
-5.120933533 -8.102444649 3.350548029
-5.110788345 -8.132284164 3.699712515
-5.450962067 -8.88643837 0.7264530659
-5.426441193 -8.841308594 1.074766636
-5.397956848 -8.892591476 1.421412826
-5.350988865 -8.819676399 2.112246037
-5.333312988 -8.809216499 2.46043539
-5.155135632 -8.111584663 3.356100559
-5.140914917 -8.118536949 3.699263096
-5.457223892 -8.818855286 1.076670647
-5.422789574 -8.838788033 1.421734571
-5.38221693 -8.799297333 2.112681627
-5.366413116 -8.798609734 2.461750269
-5.353288174 -8.812877655 2.816572189
-5.188354492 -8.114863396 3.360221386
-5.17307806 -8.116041183 3.70208478
-5.519120216 -8.872746468 0.7302004695
-5.514378548 -8.925615311 1.078280687
-5.452781677 -8.812368393 1.422948599
-5.424895763 -8.83737278 2.119239092
-5.397933483 -8.780117035 2.461967707
-5.410471916 -8.925949097 2.839666128
-5.219792843 -8.108485222 3.361949682
-5.207386971 -8.124772072 3.708184242
-5.524098396 -8.801070213 1.080399156
-5.500250816 -8.872024536 1.427037001
-5.45490694 -8.810902596 2.119057655
-5.439435959 -8.812033653 2.469300508
-5.44473362 -8.918891907 2.841549158
-5.249359608 -8.092467308 3.361280441
-5.241782665 -8.133370399 3.714287758
-5.566204548 -8.833087921 1.082184553
-5.534303188 -8.864928246 1.42890811
-5.487558842 -8.797985077 2.120302439
-5.477241993 -8.824362755 2.473903894
-5.463383198 -8.834458351 2.829702377
-5.2844944 -8.104921341 3.367799759
-5.274774551 -8.13428688 3.718207359
-5.600960732 -8.829739571 1.084040761
-5.568326473 -8.857715607 1.430777192
-5.525420189 -8.810275078 2.124213457
-5.504719257 -8.786105156 2.471371412
-5.498905182 -8.834939003 2.832940578
-5.317818642 -8.107723236 3.371924877
-5.30327034 -8.112447739 3.715559006
-5.651155472 -8.896593094 1.08579433
-5.602328777 -8.850382805 1.432644606
-5.56009388 -8.806851387 2.126483917
-5.546648026 -8.817562103 2.478726149
-5.547357082 -8.897004128 2.847186327
-5.523230076 -8.867586136 3.202005625
-5.351579666 -8.112298965 3.376532316
-5.337008953 -8.116908073 3.720571756
-5.722279549 -8.914141655 0.3845562041
-5.685283184 -8.88903904 1.087667823
-5.636300564 -8.842931747 1.434509754
-5.596862793 -8.813024521 2.129784346
-5.576370716 -8.790733337 2.477831841
-5.581512451 -8.8894701 2.849061251
-5.557287693 -8.860067368 3.203875303
-5.384602547 -8.112948418 3.380180836
-5.370020866 -8.117474556 3.724490643
-5.710086823 -8.772311211 0.7434802055
-5.69903183 -8.791646004 1.089635491
-5.670246601 -8.835363388 1.436372995
-5.629860878 -8.801569939 2.131229162
-5.614372253 -8.802522659 2.48244381
-5.615645885 -8.881814957 2.850934744
-5.415225983 -8.102085114 3.380943537
-5.404257298 -8.123563766 3.730056524
-5.756099701 -8.751049995 0.3990294039
-5.704170227 -8.827673912 1.438234448
-5.662810326 -8.79000473 2.132670879
-5.647335052 -8.790959358 2.483747244
-5.649746895 -8.874041557 2.852805614
-5.449082375 -8.106295586 3.38555479
-5.434922695 -8.112600327 3.730685472
-5.775149345 -8.747081757 0.7475306988
-5.762427807 -8.758560181 1.09335053
-5.713967323 -8.782442093 1.786016822
-5.698786736 -8.791906357 2.135560036
-5.690695286 -8.825658798 2.491683722
-5.673503399 -8.820008278 2.846385002
-5.482997417 -8.110377312 3.390168667
-5.464310169 -8.095894814 3.72966361
-5.713103294 -8.767493248 2.486343861
-5.699535847 -8.777458191 2.84201932
-5.51738596 -8.116225243 3.39526701
-5.497354031 -8.095993042 3.733582497
-5.773631573 -8.733494759 1.787360311
-5.726185322 -8.738685608 2.838330984
-5.707959175 -8.73677063 3.194952488
-5.548401356 -8.106799126 3.396508217
-5.531270504 -8.099720001 3.738602161
-5.889492512 -8.841213226 1.09886694
-5.772276878 -8.716596603 2.485039711
-5.57937336 -8.097268105 3.39774704
-5.563523293 -8.09581852 3.74142313
-5.792903423 -8.720341682 2.84166503
-5.773780823 -8.714618683 3.197387218
-5.611192703 -8.09140873 3.399949074
-5.595776081 -8.091802597 3.744243622
-5.878774166 -8.797470093 2.149820805
-5.646603584 -8.1005373 3.406019449
-5.626251221 -8.080187798 3.744859457
-5.918337345 -8.812076569 2.154185295
-5.896532536 -8.787629128 2.504479408
-5.887690067 -8.816293716 2.865846395
-5.679821968 -8.100096703 3.409674406
-5.659369946 -8.079686165 3.748780012
-5.955112457 -8.81495285 2.15729785
-5.927410126 -8.767419815 2.504653931
-5.921557426 -8.807570457 2.867700577
-6.042114258 -9.366974831 3.351549625
-5.712592125 -8.097648621 3.412845373
-5.694797516 -8.088397026 3.755459785
-5.989957809 -8.809987068 2.159571409
-5.993384361 -8.88528347 2.524942398
-6.084590912 -9.384173393 3.359344006
-5.742092609 -8.08190155 3.412623882
-5.731234074 -8.100701332 3.763248444
-6.030812263 -8.827990532 2.164371729
-6.014598846 -8.82640934 2.519532919
-6.125276566 -9.393618584 3.365476847
-5.775324345 -8.081105232 3.416277885
-5.760753632 -8.084895134 3.762756109
-6.074858665 -8.857364655 2.170445204
-6.051518917 -8.828803062 2.523068428
-6.161661625 -9.385858536 3.367857456
-5.810024261 -8.085824013 3.421388865
-5.791143417 -8.072717667 3.763364792
-13.41965008 -35.16255188 1.151011348
-6.108866692 -8.848121643 2.172304869
-6.077283859 -8.788955688 2.520433903
-6.056748867 -8.771489143 2.875096083
-6.199013233 -9.381753922 3.371072292
-5.844300747 -8.08853054 3.426017284
-5.825325489 -8.075324059 3.76839447
-6.142843246 -8.83876133 2.174162149
-6.108996391 -8.771989822 2.521156549
-6.234363079 -9.369952202 3.372613907
-5.878125668 -8.089230537 3.430161476
-5.859563828 -8.07779789 3.77342701
-6.176782131 -8.829283714 2.176017046
-6.163607121 -8.838959694 2.534250498
-6.275781631 -9.380685806 3.379174948
-5.906958103 -8.071066856 3.429441929
-5.892854214 -8.07642746 3.777353287
-13.50437069 -34.03778839 1.169558167
-6.210691452 -8.819684029 2.177869797
-6.197551727 -8.829339027 2.536105156
-6.308010578 -9.357302666 3.378200769
-5.942318439 -8.077143669 3.435045958
-5.928177357 -8.082352638 3.783497334
-6.24456358 -8.809968948 2.179719925
-6.231462002 -8.819599152 2.537957191
-6.34115839 -9.337589264 3.37805748
-5.976201534 -8.077472687 3.439191818
-5.957984447 -8.067751884 3.783545017
-6.395127773 -8.84380722 0.4130924642
-6.278406143 -8.800133705 2.181567907
-6.265338898 -8.809741974 2.539807081
-6.366261005 -9.289534569 3.371613264
-6.011688232 -8.083275795 3.444801807
-5.994404316 -8.077123642 3.790802002
-6.429057121 -8.833791733 0.4149445593
-13.78237343 -33.63986969 1.18872416
-6.312209606 -8.79018116 2.183413267
-6.299185276 -8.79976368 2.541654587
-6.398574352 -9.267756462 3.371032715
-6.043013096 -8.074011803 3.446511745
-6.028321743 -8.077097893 3.795286894
-6.462956429 -8.823656082 0.4167944193
-13.89692593 -33.58465576 1.195237041
-6.332997322 -8.78966713 2.543499947
-6.431858063 -9.24963665 3.371285915
-6.075915813 -8.070230484 3.44968462
-6.064898968 -8.086184502 3.802551508
-6.496819973 -8.813402176 0.4186418355
-14.01353836 -33.53671646 1.201755643
-6.366768837 -8.779454231 2.545342207
-6.461751938 -9.22014904 3.36900878
-6.108824253 -8.066325188 3.452857018
-6.098377705 -8.08404541 3.806485176
-14.15476799 -33.56863403 1.208514571
-6.484814167 -9.168084145 3.36166954
-6.145020962 -8.073466301 3.458962917
-6.12539196 -8.059658051 3.803743362
-6.56442976 -8.792543411 0.4223286211
-14.25330734 -33.46255875 1.214829564
-6.515412331 -9.142201424 3.360211611
-6.181862354 -8.082313538 3.465562582
-6.163198948 -8.072027206 3.812127113
-6.628590107 -8.876969337 0.4175346792
-6.539621353 -9.09565258 3.354105949
-6.214867592 -8.078021049 3.468739271
-6.197811604 -8.073200226 3.817174911
-6.656490326 -8.84715271 0.4207130671
-6.507737637 -8.867827415 3.307034731
-6.243338585 -8.058773041 3.46799469
-6.235818863 -8.08526516 3.825568676
-6.502296448 -8.736091614 3.281335115
-6.278754234 -8.067723274 3.4745152
-6.266719818 -8.079324722 3.828305483
-6.641482353 -8.893749237 2.219511747
-6.532863617 -8.709682465 3.279873133
-6.317977428 -8.077356339 3.481701851
-6.296895504 -8.065429688 3.828895092
-6.675614834 -8.882522583 2.22137022
-6.561607361 -8.683734894 3.278311491
-6.351629257 -8.074409485 3.485370398
-6.333195686 -8.065564156 3.834032774
-6.709708214 -8.871175766 2.223225832
-6.59803009 -8.681879997 3.282247782
-6.383514881 -8.065797806 3.487564802
-6.367977142 -8.066077232 3.839087248
-6.845245838 -8.847956657 0.4260157645
-6.727453709 -8.810658455 2.219423771
-6.700770855 -8.778079987 2.576431513
-6.635081768 -8.681746483 3.286608934
-6.416581631 -8.060758591 3.490741491
-7.275170326 -10.76114273 4.668839455
-6.751157761 -8.76898098 2.217778921
-6.765902996 -8.86042881 2.592618227
-6.67094326 -8.677758217 3.290122986
-6.449649334 -8.055597305 3.493917465
-7.315842628 -10.74721909 4.671051502
-6.779724121 -8.742319107 2.217865229
-6.799924374 -8.848695755 2.594468355
-6.70309639 -8.66251564 3.291089535
-6.485166073 -8.05766964 3.499063015
-7.357674599 -10.73679829 4.674379826
-6.813327789 -8.730610847 2.219691992
-6.737060547 -8.652718544 3.293326616
-6.520738125 -8.059601784 3.504211426
-7.404356003 -10.74079323 4.68218708
-6.848851204 -8.724419594 2.222172976
-6.867838383 -8.824875832 2.598159552
-6.770367622 -8.640950203 3.29513669
-6.553225517 -8.052222252 3.506894827
-7.449892521 -10.74096107 4.688877583
-6.883707047 -8.716220856 2.224433422
-6.901734829 -8.812786102 2.600001097
-6.808754921 -8.643837929 3.300349236
-6.585708141 -8.044722557 3.509578228
-7.495473385 -10.74095249 4.695569515
-6.9355793 -8.800580978 2.601839304
-6.851074219 -8.657639503 3.308120489
-6.620091915 -8.042592049 3.513741493
-7.547406673 -10.75889874 4.707875729
-7.10279417 -8.82050705 0.4350402355
-6.947993279 -8.684481621 2.227190733
-6.969391346 -8.788254738 2.603675127
-6.885704041 -8.649155617 3.310782671
-6.656431198 -8.045815468 3.519388437
-7.601423264 -10.78205299 4.721875191
-7.115638256 -8.751947403 0.440707624
-7.111168385 -8.782140732 0.8002420664
-6.98614645 -8.685264587 2.230545998
-7.003154755 -8.775813103 2.605507851
-6.91899395 -8.636868477 3.312589407
-6.690882683 -8.043414116 3.523554564
-7.630596638 -10.7344265 4.713972092
-7.020922184 -8.676567078 2.232800007
-7.036880016 -8.763251305 2.607337952
-6.95757103 -8.639156342 3.317810297
-6.726010799 -8.042704582 3.528216124
-7.707491398 -10.82041931 4.747658253
-7.177100182 -8.711854935 0.4453672767
-7.15507555 -8.695198059 0.805788517
-7.144297123 -8.707870483 1.164054871
-7.1185112 -8.74702549 1.522652149
-7.061908245 -8.684513092 2.237041712
-7.070560932 -8.750570297 2.609164953
-6.995535851 -8.639458656 3.322606325
-6.757195473 -8.03093338 3.529907703
-7.735921383 -10.77069569 4.739186287
-7.170601845 -8.67642498 1.165741086
-7.099502563 -8.682983398 2.240181446
-7.12221384 -8.785964012 2.618543625
-7.038291454 -8.652434349 3.330398321
-6.792356014 -8.029963493 3.534569979
-7.770014286 -10.73713493 4.735764503
-7.170667171 -8.682216644 1.524557948
-7.152394295 -8.675209999 1.882743001
-7.131483078 -8.666442871 2.241548061
-7.135685444 -8.719306946 2.611937046
-7.118177414 -8.715443611 2.9786098
-7.073651791 -8.645098686 3.333488226
-6.833640575 -8.045193672 3.543697357
-7.813271046 -10.72867107 4.740217686
-7.169092178 -8.664640427 2.244687557
-7.106921673 -8.632154465 3.335291386
-6.872345448 -8.052989006 3.55084753
-7.878073692 -10.77754593 4.762703896
-7.209606647 -8.670102119 2.248717785
-7.185586452 -8.648842812 2.608568668
-7.17457962 -8.6617136 2.976832867
-7.147830486 -8.639159203 3.341808558
-6.906318188 -8.047947884 3.554525375
-7.937839031 -10.81174564 4.78069973
-7.251645565 -8.679102898 2.253197432
-7.183905602 -8.633239746 3.345326424
-6.937520504 -8.035543442 3.556215048
-7.957402706 -10.73994637 4.765419483
-7.287951946 -8.673135757 2.255897284
-7.218559265 -8.623544693 3.347984552
-6.974294186 -8.037473679 3.561880827
-8.004922867 -10.74151897 4.773263454
-7.468061924 -8.760507584 0.4485448897
-7.324995995 -8.668878555 2.258820534
-7.252479076 -8.611905098 3.35021162
-7.011824131 -8.041060448 3.568046331
-8.048318863 -10.73217869 4.777720451
-7.473041058 -8.715666771 0.8164950013
-7.467819214 -8.741139412 1.179632068
-7.36355114 -8.668165207 2.262191772
-7.279129028 -8.58200264 3.348134279
-7.05014658 -8.046290398 3.574713707
-8.124126434 -10.80475521 4.808178425
-7.510604858 -8.673951149 0.4561439157
-7.483180046 -8.783267975 1.546097279
-7.406650543 -8.678336143 2.266909838
-7.307806492 -8.557467461 3.347338915
-7.084220886 -8.04057312 3.578394175
-8.147169113 -10.74330235 4.796246052
-7.551717281 -8.678422928 0.4567118287
-7.531422138 -8.667582512 0.8207058311
-7.52009964 -8.682567596 1.182899475
-7.468922615 -8.696264267 1.907734275
-7.444561005 -8.675463676 2.270061731
-7.340778828 -8.543700218 3.349121809
-7.11311245 -8.026402473 3.579497099
-8.192194939 -10.74318218 4.803424835
-7.592019081 -8.685269356 0.4570698142
-7.574025154 -8.679991722 0.8216682673
-7.548685074 -8.661824226 1.18454814
-7.519542694 -8.685783386 1.546390295
-7.483129025 -8.678647995 2.273799181
-7.481005669 -8.711910248 2.646318197
-7.37131691 -8.528708458 3.350381613
-7.147074699 -8.024688721 3.584089279
-8.235110283 -10.73755741 4.808907986
-7.626969814 -8.674742699 0.4586276412
-7.613698006 -8.680484772 0.8230463266
-7.589060307 -8.664189339 1.186497211
-7.548147678 -8.664980888 1.547760129
-7.534840584 -8.670600891 1.911411285
-7.508687496 -8.650530815 2.273711443
-7.485738277 -8.672047615 3.014614344
-7.398947239 -8.502093315 3.349137068
-7.184844971 -8.027551651 3.590265274
-8.307043076 -10.79654884 4.835463524
-7.625622272 -8.652814865 1.188420653
-7.584702969 -8.653683662 1.549823403
-7.575320721 -8.668445587 1.914395809
-7.561469078 -8.677635193 2.280786753
-7.537175179 -8.657814026 2.645809412
-7.420530319 -8.45668602 3.343653917
-7.223488808 -8.027797699 3.596028328
-8.346924782 -10.77103138 4.8355093
-7.626775742 -8.655087471 1.552492499
-7.611804008 -8.661353111 1.916822076
-7.607466221 -8.68803978 2.28584218
-7.570998192 -8.682382584 3.026310921
-7.44858551 -8.4317379 3.342822313
-7.259129524 -8.024988174 3.600709915
-8.37650013 -10.72681141 4.82919836
-7.63630867 -8.631073952 1.917119622
-7.645512104 -8.688761711 2.289365768
-7.481789589 -8.423585892 3.345788479
-7.289448738 -8.013813019 3.602806091
-8.426980019 -10.73816872 4.840358734
-7.680429935 -8.682049751 2.291985273
-7.508108616 -8.394868851 3.344079494
-7.326636314 -8.014300346 3.608488798
-8.485658646 -10.76251698 4.856179237
-7.719493389 -8.675534248 2.29501152
-7.539008617 -8.3725214 3.344182014
-7.366971493 -8.017490387 3.615260124
-8.539761543 -10.76983452 4.867006779
-7.762601376 -8.677939415 2.299173832
-7.562685013 -8.338293076 3.341155767
-7.412827969 -8.032910347 3.625544786
-8.574820518 -10.73297024 4.86362505
-7.592515945 -8.318287849 3.341590643
-7.444749832 -8.020500183 3.627725124
-8.619253159 -10.7232523 4.868657112
-7.61986208 -8.292840958 3.340717316
-7.477433205 -8.009741783 3.630405903
-8.676919937 -10.74314976 4.883365154
-7.908040047 -8.731514931 2.317119122
-7.651096821 -8.2762146 3.342009306
-7.518043041 -8.01651001 3.638108492
-8.752851486 -10.80300617 4.911184788
-7.976589203 -8.791615486 2.328529835
-7.680654526 -8.255926132 3.342427492
-7.555541039 -8.016057014 3.643804789
-8.764390945 -10.71927452 4.892295837
-7.988528728 -8.728895187 2.324394464
-7.703582287 -8.221364021 3.33935833
-7.594705105 -8.018961906 3.650508881
-8.816067696 -10.72452641 4.902460575
-8.044068336 -8.75969696 2.332163095
-7.73291111 -8.200911522 3.339763165
-7.631495953 -8.016436577 3.655706644
-8.86501503 -10.72878647 4.911950588
-8.077722549 -8.743561745 2.333974123
-7.76471138 -8.189965248 3.342256784
-7.661027908 -8.002236366 3.657295704
-8.947641373 -10.79963207 4.943819046
-8.109645844 -8.728123665 2.33569169
-7.793055534 -8.167555809 3.342216492
-7.697021484 -7.997684479 3.66198945
-8.963582993 -10.7322464 4.92991066
-8.143194199 -8.71175766 2.337495804
-7.818036079 -8.142310143 3.341211796
-7.733147144 -7.997245312 3.667608976
-9.007426262 -10.71931744 4.934377193
-18.43467903 -29.14535522 0.3002876043
-8.17500782 -8.696103096 2.339206219
-7.842657566 -8.108407021 3.338622093
-7.772536755 -7.999387741 3.674322844
-9.05290699 -10.7096777 4.939986229
-18.5445385 -29.09065437 0.3061911762
-8.303629875 -8.711821556 1.220572829
-8.227642059 -8.714334488 2.345712423
-7.852569103 -8.044616699 3.328588486
-7.810183525 -7.993612289 3.67910409
-9.147073746 -10.79549408 4.977746487
-8.331483841 -8.648256302 0.8486174941
-8.348682404 -8.713794708 1.222711563
-8.270758629 -8.712731361 2.349683762
-7.876009941 -8.013192177 3.326325417
-7.847839832 -7.98768425 3.683884859
-9.163022995 -10.71883678 4.961725235
-8.385881424 -8.641628265 0.4753638804
-8.332284927 -8.598779678 1.223237157
-8.29713726 -8.681589127 2.349629164
-7.910542011 -8.004448891 3.329745293
-7.887391567 -7.989323616 3.69060564
-9.215378761 -10.72234917 4.971920967
-8.42825222 -8.642406464 0.4759865999
-8.413472176 -8.644665718 0.8513970375
-8.364451408 -8.580075264 1.224989414
-8.342792511 -8.653042793 1.973632812
-8.348427773 -8.700034142 2.35606122
-7.949433804 -8.004299164 3.33535552
-7.930451393 -7.997727394 3.69935298
-9.261018753 -10.71190357 4.977535725
-8.470696449 -8.643000603 0.4766125977
-8.453156471 -8.63995266 0.8528587222
-8.385940552 -8.624196053 1.599950671
-8.412535667 -8.743013382 2.365755796
-7.982226849 -7.99178791 3.337898254
-7.971896172 -8.002472878 3.707093477
-9.346099854 -10.78009701 5.009530067
-8.511343956 -8.639882088 0.4774718881
-8.487300873 -8.624448776 0.8545950055
-8.485936165 -8.652263641 1.22997582
-8.43288517 -8.633625031 1.603135109
-8.416592598 -8.632888794 1.978506684
-8.46973896 -8.771522522 2.373607635
-8.021179199 -7.991332054 3.343510866
-8.008177757 -7.996681213 3.711798429
-9.371287346 -10.72810364 5.001386166
-8.559509277 -8.650708199 0.4774126709
-8.527929306 -8.621203423 0.8560106754
-8.508022308 -8.613566399 1.231466174
-8.471632957 -8.626905441 1.605479717
-8.446123123 -8.60845089 1.979633451
-8.503432274 -8.753896713 2.375414848
-8.061079025 -7.992443562 3.349564791
-8.037436485 -7.976960659 3.712447882
-9.418787003 -10.72046852 5.008152962
-8.547712326 -8.608394623 1.233415365
-8.513184547 -8.62533474 1.608107328
-8.489429474 -8.610401154 1.983212352
-8.537063599 -8.736151695 2.37721777
-8.104624748 -8.000318527 3.357379675
-8.078138351 -7.97949791 3.719687223
-9.471560478 -10.72286701 5.01836729
-8.550103188 -8.614765167 1.610263705
-8.531881332 -8.610398293 1.98663044
-8.570632935 -8.718291283 2.379016876
-8.140163422 -7.992423534 3.361241579
-8.120695114 -7.985290527 3.727944851
-9.552636147 -10.77945709 5.046978951
-8.573451042 -8.608458519 1.989886403
-8.60414505 -8.700309753 2.380812407
-8.175701141 -7.984391212 3.365102768
-8.16065979 -7.985751152 3.73468399
-9.566738129 -10.70659637 5.031908035
-8.656364441 -8.717222214 2.387289762
-8.21398735 -7.981384277 3.370285034
-8.197058678 -7.979203701 3.739392042
-9.617930412 -10.70494843 5.040980339
-19.97216797 -29.01911926 0.3541345298
-8.670974731 -8.663999557 2.384390831
-8.254153252 -7.981657028 3.376350641
-8.229836464 -7.965677738 3.742066383
-9.678174019 -10.71999454 5.055811882
-8.294372559 -7.981761456 3.382418394
-8.26807785 -7.962249279 3.747791529
-9.763947487 -10.78201675 5.086781979
-8.798780441 -8.738614082 2.403011084
-8.33652401 -7.985111713 3.389371872
-8.31188488 -7.968864918 3.756573439
-9.775533676 -10.70542908 5.070518017
-20.28404999 -28.8456955 0.3708182275
-8.867025375 -8.782367706 2.41328907
-8.368430138 -7.969466686 3.391469717
-8.352087975 -7.968488216 3.763321877
-9.824242592 -10.69785023 5.077871323
-8.900758743 -8.763346672 2.415092468
-8.411626816 -7.974184036 3.398869514
-8.394208908 -7.971329212 3.771092415
-9.887751579 -10.71691322 5.09445715
-8.934421539 -8.744210243 2.416891575
-8.455866814 -7.980407238 3.406716347
-8.428897858 -7.960455894 3.774785757
-9.972824097 -10.77418804 5.124331474
-8.968021393 -8.724953651 2.418686628
-8.501163483 -7.988129139 3.415010452
-8.469248772 -7.959568501 3.781540394
-9.988304138 -10.70564747 5.110910892
-9.001549721 -8.705581665 2.420476913
-8.53791523 -7.980374336 3.419322729
-8.513458252 -7.965238571 3.790340662
-10.03911495 -10.7005291 5.119428635
-9.035011292 -8.686094284 2.422263145
-8.572739601 -7.969084263 3.422748327
-8.555858612 -7.967344284 3.798123598
-10.11361694 -10.73681164 5.142403603
-9.068408012 -8.666485786 2.424045324
-8.610473633 -7.962722778 3.427503824
-8.594477654 -7.962555408 3.803864241
-10.17798424 -10.75443363 5.159031868
-9.422802925 -9.253748894 3.34829402
-8.656066895 -7.96969223 3.435811281
-8.628283501 -7.949237823 3.807047606
-10.2042532 -10.7054348 5.152516365
-9.161276817 -8.671362877 2.433789253
-9.4721241 -9.256314278 3.355444908
-8.695854187 -7.966357708 3.441458225
-8.66693306 -7.944139957 3.812788486
-10.25435448 -10.69775009 5.16046524
-9.265324593 -8.608467102 0.8786695004
-9.219022751 -8.692248344 2.44129014
-9.517531395 -9.251898766 3.361094952
-8.735684395 -7.962847233 3.447106838
-10.33126068 -10.6991539 4.667494774
-10.33549976 -10.74267864 5.186957836
-9.31621933 -8.590995789 0.4912959337
-9.266759872 -8.695823669 2.446414232
-9.568022728 -9.25571537 3.368629932
-8.773552895 -7.95582056 3.451866865
-10.39044857 -10.7061615 4.679389477
-10.37706566 -10.71963882 5.189700127
-9.3639431 -8.594573975 0.491530776
-9.341946602 -8.585157394 0.8818007708
-9.338001251 -8.604996681 1.270699978
-9.268472672 -8.592495918 2.046124935
-9.308421135 -8.688991547 2.450107813
-9.594290733 -9.218922615 3.367121935
-8.814455986 -7.953646183 3.457963228
-10.44083214 -10.69796944 4.686673641
-10.42052364 -10.69973278 5.19359827
-9.417042732 -8.606410027 0.4912274182
-9.376012802 -8.566484451 0.8835194111
-9.382675171 -8.603260994 1.272801995
-9.323880196 -8.582270622 1.659579515
-9.333539963 -8.654871941 2.449970484
-9.622421265 -9.185425758 3.366358519
-8.863483429 -7.964635849 3.467626095
-10.5202055 -10.73756123 4.708844185
-10.47378349 -10.69607449 5.203295708
-9.434421539 -8.586675644 0.8843483925
-9.41152668 -8.575881958 1.274437785
-9.374774933 -8.590678215 1.663050175
-9.353366852 -8.582210541 2.052707911
-9.360583305 -8.624073029 2.450303793
-9.635016441 -9.126726151 3.359921694
-8.906559944 -7.965404987 3.474620342
-10.57584 -10.73709202 4.718707085
-10.57473564 -10.77073193 5.240869522
-9.413109779 -8.578512192 1.665313959
-9.377973557 -8.5480299 2.053099632
-9.365833282 -8.611710548 3.25029707
-8.947669983 -7.962653637 3.480726004
-10.61134815 -10.70342159 4.718295097
-10.58948612 -10.70273781 5.227928162
-9.436282158 -8.567820549 2.058953524
-9.417393684 -8.567310333 2.451665878
-9.40527153 -8.57418251 2.848609686
-8.982663155 -7.949779987 3.484154224
-10.66906738 -10.70581532 4.729187489
-10.63395119 -10.68367386 5.232404232
-9.4361763 -8.549859047 2.849744797
-9.423710823 -8.5564394 3.250789642
-9.021765709 -7.943384171 3.489367962
-10.75957394 -10.76044941 4.756548405
-10.69250679 -10.68719959 5.245019913
-9.065049171 -7.943418503 3.496370792
-10.77659893 -10.69671154 4.746867657
-10.77857208 -10.73425484 5.273351669
