# .PCD v0.7 - Point Cloud Data file format
VERSION 0.7
FIELDS x y z
SIZE 4 4 4
TYPE F F F
COUNT 1 1 1
WIDTH 1269
HEIGHT 1
VIEWPOINT 0 0 0 1 0 0 0
POINTS 1269
DATA ascii
-7.934855461 -11.29688358 4.250440121
-32.99619293 -44.04220581 1.574540854
-32.93096161 -44.0811348 3.472969532
-7.12566328 -10.23488712 1.779976368
-6.922356606 -9.955285072 2.152709961
-30.68008995 -40.96717834 8.626881599
-7.415838718 -10.57548237 3.119383097
-7.922163486 -11.22048187 3.750238657
-30.71204376 -40.85804749 14.13041592
-33.2320137 -44.03769684 1.574614048
-33.17150116 -44.09840012 3.47902298
-7.152213573 -10.20203209 1.77871418
-6.952465534 -9.93224144 2.152321577
-7.452198982 -10.55256844 3.119695187
-7.960824966 -11.19574928 3.750657082
-8.200247765 -11.49310875 4.333460808
-33.4708252 -44.01990128 1.574441195
-33.41294861 -44.08391953 3.483664274
-7.188788414 -10.17888069 1.778604746
-7.389774323 -10.4275732 2.230811357
-7.425503731 -10.45939064 2.666875124
-8.013206482 -11.18485451 3.755485773
-31.18079376 -40.86798859 14.20444202
-33.71967316 -44.02886581 1.574738145
-33.66210175 -44.07769775 3.48886323
-7.234707832 -10.17098618 1.780025363
-7.440683842 -10.42071819 2.233436346
-7.539867878 -10.53320026 2.68634963
-8.013235092 -11.1106987 3.741688013
-8.261053085 -11.41413975 4.325798988
-33.96146011 -44.04255676 1.575104594
-33.88424301 -44.06635284 3.493246078
-7.157124519 -10.00903034 1.764816046
-7.496906757 -10.42716217 2.23776269
-7.510773659 -10.43048096 2.670581818
-8.01589489 -11.04419422 3.729688883
-31.64919853 -40.89953232 14.28364944
-34.21248627 -44.05070496 1.575365543
-34.12896347 -44.08222198 3.499372244
-7.21122551 -10.0120945 1.76740849
-7.496517181 -10.36174202 2.231156349
-7.497050762 -10.34818649 2.658803225
-8.065558434 -11.03730011 3.734995127
-31.8478756 -40.86091995 14.30627823
-34.43902206 -44.02637863 1.575022101
-34.38669586 -44.09719086 3.505756617
-7.241828918 -9.985284805 1.766801834
-7.275672913 -10.01729965 2.182026863
-7.491909981 -10.27404499 2.648842335
-8.063383102 -10.96181107 3.720748425
-8.287640572 -11.22562027 4.289531708
-34.68334961 -44.02280807 1.575046659
-34.62495041 -44.08594894 3.510534286
-7.296041489 -9.987896919 1.769381166
-7.283942223 -9.962400436 2.177071571
-7.549554348 -10.27856541 2.654512882
-8.115903854 -10.95474625 3.726463556
-8.33128643 -11.20552635 4.292089939
-34.9368782 -44.02893829 1.575236917
-34.87107468 -44.082901 3.515869141
-7.306498528 -9.936006546 1.766079068
-7.318159103 -9.939965248 2.177097559
-7.582426071 -10.25209713 2.654047489
-8.193080902 -10.97770119 3.741041899
-35.19593048 -44.04001617 1.57550621
-35.1176033 -44.07865143 3.521170378
-7.304093838 -9.868702888 1.76109755
-7.353561878 -9.918942451 2.177356005
-7.610204697 -10.21939087 2.652352095
-8.332306862 -11.07567692 3.77778244
-32.79092026 -40.87686539 14.45787048
-33.33395004 -41.46798325 1.528580785
-33.28091049 -41.52963257 3.36507082
-7.331645966 -9.838505745 1.760139942
-7.395211697 -9.905453682 2.178794861
-7.636590958 -10.18507957 2.650346041
-9.225342751 -12.09907722 3.557335377
-8.427645683 -11.1186409 3.798543692
-33.01543045 -40.86304855 14.49057674
-9.72201252 -12.65061474 5.393836975
-33.33509445 -41.1819458 1.52339685
-33.30195618 -41.26679611 3.353685141
-7.385735989 -9.840488434 1.762698054
-7.440655231 -9.89637661 2.180939198
-7.679223537 -10.17048264 2.652316809
-9.257128716 -12.05764484 3.55450654
-8.252943993 -10.83554363 3.723097324
-33.25757217 -40.86895752 14.53040886
-9.749964714 -12.60026646 5.386864185
-33.33209991 -40.89332581 1.518154621
-33.30625916 -40.98587418 3.341119766
-7.41825676 -9.816162109 1.762400985
-33.26421738 -40.76515198 8.828902245
-9.244642258 -11.96336746 3.538551807
-8.311653137 -10.83499432 3.730997086
-33.49768066 -40.87070084 14.56918526
-9.778914452 -12.55133343 5.380465508
-33.34806442 -40.6297226 1.513357997
-33.30387497 -40.6992836 3.328160524
-7.477580547 -9.823792458 1.765615463
-33.37401962 -40.67455673 6.980667114
-7.744116783 -10.11652851 2.651344061
-9.287274361 -11.9354496 3.53908968
-8.350837708 -10.80733967 3.731328964
-33.75068283 -40.88603973 14.61303806
-9.687732697 -12.36052132 5.317988873
-33.52186203 -40.54086685 1.511742592
-33.4497261 -40.57691574 3.325939417
-7.516755104 -9.80391407 1.765953064
-33.62149429 -40.6715889 6.997143745
-33.72013855 -40.72619247 8.865250587
-9.330488205 -11.90423679 3.539217234
-8.417709351 -10.81223679 3.741402388
-8.693856239 -11.12466717 4.332789421
-9.76120472 -12.36120796 5.331787586
-33.7611618 -40.54239655 1.511766911
-33.69599915 -40.57277298 3.331311226
-7.542708397 -9.771525383 1.764803529
-33.85393906 -40.64920044 7.010744095
-33.95652008 -40.70732498 8.884392738
-9.343599319 -11.8416338 3.531125784
-8.44748497 -10.77676296 3.739089966
-9.78146553 -12.32188988 4.7592206
-33.98615646 -40.53956604 1.511701345
-33.93012619 -40.58071899 3.336962938
-7.561796665 -9.73432827 1.763005614
-8.896637917 -11.27723598 2.416106939
-7.355582237 -9.466605186 2.534238577
-9.394182205 -11.82688808 3.534674168
-8.479202271 -10.74712372 3.738129377
-9.887867928 -12.36833858 4.786197186
-9.658432007 -12.08407784 5.246771336
-34.2167244 -40.5417366 1.511716962
-34.16988373 -40.59360504 3.342973709
-7.611948967 -9.733336449 1.765215755
-8.883128166 -11.19201088 2.406808138
-7.397037029 -9.457063675 2.536843538
-8.501873016 -10.7070694 3.734064817
-9.460982323 -11.79946136 4.598197937
-9.222229958 -11.50713348 5.02835989
-34.45030212 -40.54582977 1.511757493
-34.39440155 -40.58722687 3.347784758
-7.715731144 -9.793826103 1.774267673
-7.918139935 -10.01274204 2.224885225
-7.438511372 -9.44734478 2.539443254
-8.627923965 -10.80147648 3.29014802
-8.482043266 -10.61848545 3.715386868
-9.368912697 -11.62084866 4.546049595
-9.636154175 -11.90854454 5.20109272
-37.77751923 -44.03902054 1.575508952
-37.71376801 -44.0807724 3.579794884
-7.740733147 -9.753605843 1.772545815
-7.925740242 -9.950853348 2.219352722
-7.523600101 -9.478092194 2.551129818
-8.714125633 -10.82279968 3.303376913
-8.441035271 -10.49641037 3.687774897
-8.222032547 -10.23228168 4.070138454
-9.032753944 -11.13904953 4.905826092
-38.04691696 -44.04191208 1.575496674
-37.95720673 -44.06944656 3.584837914
-7.667614937 -9.6083498 1.758857131
-7.992889404 -9.963303566 2.225212812
-7.556090832 -9.45748806 2.551576853
-8.725529671 -10.76575184 3.29606843
-8.447227478 -10.43907261 3.678396463
-8.234004021 -10.18315983 4.06196928
-7.814742565 -9.696029663 4.3358078
-38.30617142 -44.03149796 1.575228691
-38.22707748 -44.07125092 3.59108305
-7.612088203 -9.484588623 1.74751246
-7.976872921 -9.884734154 2.216445208
-7.566381931 -9.408851624 2.54649806
-8.515821457 -10.44873047 3.689785004
-8.230618477 -10.11387062 4.04713726
-7.836827755 -9.658584595 4.331248283
-38.56847763 -44.02277374 1.574978828
-38.50805664 -44.08362198 3.598066568
-7.765563488 -9.59618187 1.7625103
-7.745055676 -9.55936718 2.168666601
-7.613352299 -9.401473045 2.549965143
-9.487456322 -11.47657394 3.492413521
-8.579752922 -10.44926643 3.698923588
-8.262095451 -10.08064747 4.04554224
-7.856180668 -9.618250847 4.325530529
-38.83654404 -44.0186882 1.574800849
-38.78377914 -44.07292938 3.60391283
-7.717315674 -9.481573105 1.752165318
-7.716872692 -9.467316628 2.157765865
-7.631397724 -9.358780861 2.546380997
-9.44950676 -11.36021137 3.470464706
-8.854150772 -10.6852541 3.779733658
-8.31780529 -10.07742977 4.054171562
-7.920393944 -9.627512932 4.340013981
-39.11177063 -44.0206604 1.574720383
-39.04619598 -44.07591248 3.610075951
-7.753995895 -9.461943626 1.752482533
-7.778886795 -9.475588799 2.162912846
-9.421438217 -11.25586891 3.45151186
-8.878957748 -10.64709187 3.776516438
-8.30679512 -10.00397968 4.037321568
-7.991230011 -9.643502235 4.357374191
-39.39017868 -44.02418518 1.574655056
-39.32333374 -44.07814789 3.616556406
-7.829587936 -9.484867096 1.757620573
-7.839547634 -9.484903336 2.16807723
-8.722411156 -10.42034149 3.243796587
-8.868393898 -10.56707478 3.760886669
-8.329694748 -9.964847565 4.033192635
-7.924795151 -9.509768486 4.313554287
-39.66231537 -44.01893616 1.57441628
-39.60095978 -44.07897568 3.622997522
-7.971504211 -9.579282761 1.770897746
-8.060520172 -9.665009499 2.201027632
-36.89336777 -40.9452095 9.186966896
-8.886500359 -10.51876831 3.754982471
-8.347168922 -9.919993401 4.027020454
-7.90568924 -9.42856884 4.291091919
-39.94032669 -44.01818466 1.574246287
-39.89126968 -44.09159851 3.630269051
-8.014017105 -9.564548492 1.77185452
-7.925189972 -9.457568169 2.17149353
-7.785976887 -9.279647827 2.962402821
-8.938925743 -10.50758076 3.760565996
-8.400034904 -9.913323402 4.034608841
-7.914862633 -9.37840271 4.281322956
-40.21609116 -44.0130806 1.573983312
-40.15765762 -44.0763855 3.635762453
-8.05652523 -9.549623489 1.772804976
-8.017461777 -9.496617317 2.181791306
-37.44361496 -40.9750061 9.242891312
-7.800626755 -9.236568451 2.957763433
-8.983381271 -10.48760605 3.763491154
-8.377509117 -9.826025009 4.013139725
-7.939524174 -9.345020294 4.278474808
-40.50873566 -44.02407455 1.574000239
-40.43399429 -44.07004547 3.64189291
-8.105845451 -9.541773796 1.774579644
-8.01083374 -9.429456711 2.174885273
-37.70874405 -40.97624207 9.268358231
-7.816418648 -9.194919586 2.953495264
-9.390632629 -10.85187149 3.886127472
-8.395661354 -9.782562256 4.007469177
-7.987749577 -9.336598396 4.286004066
-40.79369354 -44.02483368 1.573816657
-40.72173309 -44.07393265 3.648754597
-8.168896675 -9.548172951 1.778006792
-8.053099632 -9.411538124 2.17619133
-9.764830589 -11.20676994 2.974905252
-7.859067917 -9.181764603 2.956691027
-9.501299858 -10.89502716 3.909740448
-8.495199203 -9.821639061 4.032335281
-8.020155907 -9.311313629 4.286606312
-41.06536484 -44.00964355 1.573328376
-41.00928116 -44.06048203 3.654856682
-8.32963562 -9.656759262 1.79320085
-38.23378372 -40.95362854 9.316001892
-7.897648335 -9.164154053 2.958761215
-7.76244545 -9.008958817 3.328414679
-9.937685966 -11.26298714 4.568618298
-8.040543556 -9.273475647 4.282015324
-41.35679626 -44.01328659 1.573169231
-41.30153275 -44.08013153 3.662546635
-8.285777092 -9.549893379 1.783673763
-9.049126625 -10.3308773 2.335251808
-8.459085464 -9.704402924 2.667361259
-9.546880722 -10.81959724 3.401889086
-7.757046223 -8.949385643 3.317307234
-8.599369049 -9.807911873 4.047481537
-7.72123909 -8.884581566 4.130426407
-41.64320374 -44.00966644 1.572863579
-41.57003021 -44.05796051 3.667844057
-8.385203362 -9.592612267 1.791381955
-9.11084938 -10.3321991 2.339826822
-9.546152115 -10.74944687 3.39152503
-7.767689705 -8.903979301 3.311028719
-8.441976547 -9.583600998 3.975596189
-7.756089687 -8.864322662 4.132769108
-39.43678284 -41.44155884 1.525843024
-39.39225388 -41.5121727 3.504366159
-8.303076744 -9.447476387 1.77738595
-9.131397247 -10.28748417 2.337076187
-8.25167942 -9.368967056 2.606866121
-9.594459534 -10.73004055 3.394587278
-7.783563614 -8.86417675 3.306513548
-7.858198166 -8.926595688 3.743878603
-7.773458958 -8.826147079 4.127615452
-39.4394722 -41.17629623 1.520774364
-39.41114807 -41.24863815 3.493178606
-8.328669548 -9.417023659 1.776503086
-8.413658142 -9.4894104 2.209578991
-8.224598885 -9.282212257 2.593820333
-9.60521698 -10.67566681 3.387981653
-7.84715271 -8.873018265 3.317438126
-7.864740849 -8.876981735 3.735182285
-7.82559824 -8.826104164 4.138042927
-39.43097687 -40.8874855 1.515254498
-39.41747284 -40.98807144 3.481838226
-8.240945816 -9.268598557 1.762025833
-8.435352325 -9.451465607 2.207578182
-8.271967888 -9.27452755 2.597526073
-9.721092224 -10.7243948 3.409298658
-7.980901718 -8.954946518 3.351318836
-7.896888256 -8.856250763 3.736690283
-7.898133755 -8.843436241 4.15650034
-39.42939758 -40.60774994 1.509889841
-39.42243576 -40.71393204 3.469878912
-8.285632133 -9.255324364 1.76326263
-8.46518898 -9.424817085 2.207247257
-7.912331104 -8.85457325 2.512156963
-9.763912201 -10.69866753 3.410847187
-7.927924156 -8.845488548 3.324734211
-7.870213032 -8.773822784 3.715778589
-8.965724945 -9.853629112 4.597718239
-39.61867142 -40.52082825 1.508021355
-39.56278992 -40.57746506 3.467185259
-8.43737793 -9.349015236 1.7770468
-7.903838634 -8.790545464 2.503697395
-7.635145187 -8.509187698 2.831172466
-8.029161453 -8.890605927 3.347539186
-7.678372383 -8.528120041 3.633825302
-8.930673599 -9.756072044 4.568861485
-39.90146637 -40.52608109 1.50781548
-39.82582855 -40.5631485 3.47277379
-8.40046978 -9.253441811 1.768687963
-9.40430069 -10.23864365 2.352390051
-7.913247585 -8.744766235 2.499186516
-9.892672539 -10.68952179 3.425471544
-8.094734192 -8.899463654 3.358868599
-7.727278709 -8.522904396 3.641414642
-40.17908096 -40.5242157 1.507466197
-40.10913086 -40.56714249 3.479658604
-8.507674217 -9.301063538 1.777162433
-9.400424957 -10.1664238 2.345355272
-7.981608868 -8.757254601 2.507424831
-7.796420097 -8.561605453 2.858752728
-8.113130569 -8.85872364 3.354733944
-7.819054127 -8.55667305 3.664224625
-8.183609009 -8.901950836 4.227347851
-40.47552109 -40.52503204 1.507134557
-40.39845657 -40.56118393 3.486262083
-8.740644455 -9.467905045 1.799934745
-9.606043816 -10.30299759 2.373268604
-8.024669647 -8.741707802 2.509858131
-8.153859138 -8.8539505 2.945276022
-8.120157242 -8.809853554 3.347541809
-7.800259113 -8.484741211 3.646884441
-8.203634262 -8.862439156 4.222699642
-44.34469986 -44.01067734 1.570056915
-44.29330444 -44.08190918 3.73316741
-8.939141273 -9.601353645 1.818749309
-9.556544304 -10.18602371 2.358723879
-8.062091827 -8.723232269 2.511403799
-8.26507473 -8.906025887 2.966645956
-8.031544685 -8.666050911 3.309923887
-7.836665154 -8.464056969 3.649342299
-8.933803558 -9.510109901 4.515028954
-44.64167023 -43.99735641 1.569424033
-44.58609772 -44.06457138 3.73938036
-9.067013741 -9.664261818 1.829301476
-9.633162498 -10.19837856 2.365559816
-8.122264862 -8.726535797 2.517796278
-8.313016891 -8.896126747 2.971256733
-7.936479092 -8.523086548 3.271496296
-7.748872757 -8.32951355 3.607637882
-8.661093712 -9.188746452 4.388370991
-44.97084427 -44.01292801 1.56929934
-44.88075256 -44.04709244 3.745645046
-8.778375626 -9.326151848 1.792110801
-9.462070465 -9.969504356 2.331631184
-8.131131172 -8.680318832 2.513265371
-8.7774086 -9.283628464 3.084845304
-7.973176956 -8.504678726 3.27400136
-7.693780899 -8.224972725 3.577603817
-7.6821661 -8.200508118 3.970082521
-45.28038406 -44.00742722 1.56877625
-45.21773529 -44.06808853 3.754615545
-8.744332314 -9.234932899 1.784236193
-9.512522697 -9.95417881 2.333983421
-8.248707771 -8.737612724 2.531766415
-8.287792206 -8.76068306 2.948848486
-8.011257172 -8.487448692 3.276941299
-7.729429722 -8.207278252 3.580598116
-7.737194061 -8.201140404 3.981600046
-45.58752823 -43.99753189 1.568156958
-45.5322113 -44.06526566 3.762020826
-8.730027199 -9.163234711 1.778667331
-9.516784668 -9.894955635 2.328846455
-8.30638504 -8.737204552 2.537525892
-8.34687233 -8.761273384 2.95642066
-8.094801903 -8.512810707 3.293958664
-7.734018326 -8.160301208 3.572413206
-7.785329342 -8.194929123 3.99023366
-45.90513229 -44.0104599 1.567957878
-45.86176682 -44.07446671 3.770325661
-8.80103302 -9.175175667 1.782987714
-9.640971184 -9.948624611 2.343105555
-8.596460342 -8.954077721 2.592036724
-8.398934364 -8.757648468 2.962528229
-8.101615906 -8.46578598 3.287203789
-7.787904263 -8.159542084 3.582000256
-7.808390617 -8.167662621 3.989114285
-46.2279129 -44.01095581 1.567494154
-46.15957642 -44.06675339 3.777143717
-8.197574615 -8.554086685 1.711100459
-9.813607216 -10.04622173 2.365055084
-8.537894249 -8.846021652 2.573572874
-8.370371819 -8.676055908 2.947419167
-8.19413662 -8.501152992 3.307311296
-7.93287611 -8.245286942 3.624608517
-7.832636833 -8.138950348 3.987962723
-46.54832077 -44.0070076 1.566933274
-46.47124863 -44.05487061 3.784126282
-8.17023468 -8.475268364 1.704426289
-9.951896667 -10.11343288 2.381645203
-8.570110321 -8.820141792 2.573850393
-8.386123657 -8.636063576 2.943828821
-8.103187561 -8.364045143 3.270642757
-8.034244537 -8.286838531 3.650923491
-7.873715401 -8.125699043 3.993704557
-46.87956619 -44.01082993 1.566495419
-46.80395889 -44.06030273 3.792382479
-8.201107025 -8.450732231 1.704313517
-10.00184727 -10.0916338 2.383438587
-8.543976784 -8.740673065 2.562020779
-8.432132721 -8.623929024 2.948034048
-8.145155907 -8.347373009 3.274407625
-8.2202034 -8.401971817 3.706626892
-7.875148296 -8.07612896 3.983349562
-47.19959259 -44.00206375 1.565812826
-47.15366364 -44.06378937 3.800978422
-8.240733147 -8.434142113 1.705178976
-10.02815151 -10.05126572 2.381762028
-8.588918686 -8.723892212 2.564680338
-8.437448502 -8.574546814 2.941838026
-8.266706467 -8.405360222 3.302812338
-8.361336708 -8.477042198 3.746603727
-7.904743195 -8.052339554 3.984485388
-47.52456284 -43.99562073 1.565154552
-47.48005676 -44.07381821 3.80930829
-8.270012856 -8.407989502 1.704892278
-8.080239296 -8.222403526 2.067414284
-8.625243187 -8.704601288 2.56618762
-9.001176834 -9.029663086 3.077780008
-8.354104996 -8.434005737 3.321122408
-8.386705399 -8.449178696 3.746009588
-7.947094917 -8.039954185 3.990787268
-47.86790085 -44.00349045 1.564736724
-9.510721207 -9.489235878 1.390255213
-8.279963493 -8.364377022 1.702474475
-8.079489708 -8.172945976 2.062878132
-9.577008247 -9.475788116 3.682086706
-10.08385372 -9.912479401 4.332675457
-8.151021004 -8.171448708 4.061984062
-9.679944038 -9.557089806 0.9435386062
-9.564486504 -9.477316856 1.391044021
-8.239207268 -8.275590897 1.694496274
-8.10918045 -8.145895958 2.062707186
-9.143146515 -9.057314873 2.659753323
-8.120206833 -8.131410599 2.839420795
-8.805046082 -8.726391792 3.439307451
-9.517987251 -9.343865395 4.121959686
-8.335894585 -8.283819199 4.125111103
-9.694403648 -9.522121429 0.4898676872
-9.692152023 -9.507328987 0.9425230622
-9.666046143 -9.504622459 1.39469409
-8.235180855 -8.220285416 1.690608621
-8.204387665 -8.179463387 2.073039293
-8.099959373 -8.062603951 2.8273139
-8.790151596 -8.658084869 3.42590785
-8.604006767 -8.479347229 3.791728973
-8.379229546 -8.269742012 4.131370068
-9.701907158 -9.471424103 0.489816606
-9.69962883 -9.45361805 0.9414340854
-9.681096077 -9.460607529 1.393158793
-8.224890709 -8.15982151 1.686068416
-8.247755051 -8.166500092 2.075211763
-8.560362816 -8.430434227 2.528258801
-8.131023407 -8.03940773 2.828183413
-8.79554081 -8.610803604 3.419128895
-8.670161247 -8.486343384 3.805300951
-8.405251503 -8.24033165 4.130734444
-9.721190453 -9.428307533 0.4894048274
-9.732430458 -9.422356606 0.9407464862
-9.71396637 -9.429394722 1.392613173
-8.3387146 -8.208553314 1.695071578
-8.234545708 -8.106377602 2.068802834
-8.491457939 -8.317225456 2.508296013
-8.147208214 -8.003168106 2.825342655
-8.813839912 -8.572282791 3.415827274
-8.578583717 -8.353165627 3.763596535
-8.454331398 -8.230911255 4.139276981
-9.782507896 -9.421929359 0.4876957834
-9.8058815 -9.426393509 0.9406899214
-9.748241425 -9.399367332 1.392155766
-8.388316154 -8.200315475 1.697046518
-8.780130386 -8.529610634 2.14885211
-8.345683098 -8.1385355 2.47295928
-8.227144241 -8.022211075 2.838428974
-8.867411613 -8.564348221 3.42305398
-8.644412994 -8.357191086 3.776620626
-8.459887505 -8.18374157 4.130598545
-45.87378311 -40.51447678 1.498415947
-9.7960186 -9.380971909 1.392532706
-8.46684742 -8.219364166 1.70230484
-8.74215889 -8.44308567 2.138190031
-8.293151855 -8.042227745 2.456641912
-8.250912666 -7.994827271 2.837831736
-8.897340775 -8.535802841 3.423253298
-8.566356659 -8.237520218 3.739997864
-8.535294533 -8.199112892 4.150062561
-46.21369553 -40.52730179 1.498011231
-9.755960464 -9.289826393 1.387629032
-8.492424011 -8.189745903 1.701657534
-8.528678894 -8.207022667 2.100590944
-8.348499298 -8.041625977 2.462368727
-10.60042095 -9.950093269 3.412909269
-9.528814316 -9.022567749 3.601546764
-8.567350388 -8.188920975 3.73127079
-8.539160728 -8.150560379 4.14080286
-46.52228546 -40.51100922 1.497066498
-9.788268089 -9.258310318 1.387067556
-8.646864891 -8.269928932 1.714835763
-9.108250618 -8.651077271 2.185169697
-8.277086258 -7.930485725 2.442442894
-9.830034256 -9.233096123 3.214081764
-8.579740524 -8.14763546 3.726054668
-8.466607094 -8.037862778 4.10172224
-50.96707535 -43.98941422 1.558640599
-50.9463768 -44.08848953 3.894561291
-8.696966171 -8.260280609 1.716771841
-8.508653641 -8.089762688 2.088636875
-8.248831749 -7.856894493 2.431263208
-9.778097153 -9.130318642 3.193343878
-9.003180504 -8.466114998 3.429118395
-8.562292099 -8.081489563 3.710713148
-8.474181175 -7.993394375 4.09418726
-51.34846115 -44.00546646 1.558177233
-51.26979828 -44.0557518 3.901122332
-8.736423492 -8.241399765 1.717563033
-8.549039841 -8.072750092 2.090298891
-8.308096886 -7.857200146 2.437550783
-9.772317886 -9.067074776 3.184080124
-9.116717339 -8.507055283 3.453839302
-8.66344738 -8.114598274 3.73585844
-51.72597122 -44.01553345 1.557585716
-51.6395874 -44.05970764 3.910413504
-8.777385712 -8.223608017 1.718510151
-8.60009861 -8.064441681 2.093577623
-8.93614006 -8.329873085 2.556391239
-9.807059288 -9.037858009 3.184801102
-10.16694355 -9.322776794 3.751492262
-8.726166725 -8.115032196 3.747833729
-52.0517807 -43.98013687 1.556161761
-52.00542831 -44.05778503 3.919369698
-8.764596939 -8.1611166 1.713773012
-8.672636986 -8.073588371 2.100091696
-9.931227684 -9.082228661 3.207325935
-10.24632549 -9.328043938 3.765154839
-8.759083748 -8.090567589 3.749682903
-8.522343636 -7.882065773 4.081889629
-52.44442749 -43.99759674 1.555660367
-52.38421631 -44.06398773 3.929008245
-8.876192093 -8.201363564 1.722168803
-8.749949455 -8.086096764 2.107289076
-9.77729702 -8.913864136 2.710174561
-9.908239365 -9.005127907 3.193986654
-10.41203308 -9.403206825 3.803764343
-8.964443207 -8.206525803 3.809682369
-8.55295372 -7.856996536 4.08351469
-48.87718201 -40.78133011 1.497567058
-52.76830673 -44.07187271 3.93886447
-8.910969734 -8.177880287 1.722447515
-8.869029999 -8.132041931 2.120723486
-9.668895721 -8.768568993 2.682655573
-9.044057846 -8.245597839 2.977104902
-9.063947678 -8.249633789 3.405017138
-8.902950287 -8.10449791 3.779655695
-49.31755447 -40.8547554 1.498080254
-8.906980515 -8.122859955 1.718673944
-9.014525414 -8.195666313 2.137804985
-9.109649658 -8.245988846 2.985996485
-9.129117966 -8.246856689 3.415210485
-8.956780434 -8.093520164 3.788018942
-9.684536934 -8.664593697 4.496781826
-49.61722565 -40.8115387 1.496498466
-9.980421066 -8.93542099 1.82715416
-8.623450279 -7.829442978 2.074904203
-9.511434555 -8.515011787 3.075726509
-9.129055023 -8.194153786 3.407053471
-8.983658791 -8.063316345 3.787817955
-9.711967468 -8.630612373 4.496017456
-49.964077 -40.80414581 1.495533109
-9.971126556 -8.870643616 1.822488904
-8.675663948 -7.821561813 2.078383684
-10.37006092 -9.159403801 2.800466776
-9.721317291 -8.627220154 3.11889267
-9.168736458 -8.175888062 3.410742283
-8.990966797 -8.020177841 3.781585693
-9.75431633 -8.608417511 4.500973225
-50.25976181 -40.75382614 1.493786573
-10.00835037 -8.843202591 1.822670102
-8.720486641 -7.809992313 2.080965519
-9.685489655 -8.558999062 2.661587954
-9.756183624 -8.599253654 3.119967461
-9.31546402 -8.239151955 3.444561481
-8.98108387 -7.961144924 3.769255161
-9.843373299 -8.622684479 4.523663998
-50.77097321 -40.87139893 1.494992375
-51.45751572 -41.52017212 3.797623873
-10.78462601 -9.397862434 1.89901638
-8.716566086 -7.757369995 2.076119184
-9.35459137 -8.244288445 2.59181881
-9.818825722 -8.592956543 3.127675295
-9.419706345 -8.267814636 3.466116905
-9.022767067 -7.942747593 3.774095774
-10.27740192 -8.904873848 4.676800728
-51.44670868 -41.2207489 3.784653187
-10.92895031 -9.449796677 1.909931064
-8.740571022 -7.726868153 2.075426102
-9.119869232 -8.008561134 2.540994644
-8.868251801 -7.798336983 2.894623041
-9.309976578 -8.129483223 3.426906347
-9.944103241 -8.605619431 4.069227695
-10.49066544 -9.011813164 4.745773315
-51.50064468 -40.86677551 1.493090272
-51.46281433 -40.94397736 3.773329973
-10.91159153 -9.374892235 1.904226422
-9.296744347 -8.108905792 2.152897835
-9.077547073 -7.924606323 2.527377605
-8.901824951 -7.774480343 2.89612627
-9.486917496 -8.213612556 3.468980789
-9.383741379 -8.118884087 3.875115633
-51.51626205 -40.59163666 1.487296581
-51.46497345 -40.65782547 3.761273861
-10.93015575 -9.328208923 1.902227521
-9.336150169 -8.08727932 2.154228687
-9.061408043 -7.861508369 2.518860817
-8.913497925 -7.733733177 2.892466068
-9.574666023 -8.227804184 3.485692501
-9.409201622 -8.085981369 3.874363184
-10.28565502 -8.738334656 4.645734787
-51.75933075 -40.49183273 1.484580159
-51.72099686 -40.56789017 3.76390481
-9.356575012 -8.050992966 2.152789354
-9.096831322 -7.838178635 2.520230532
-8.899963379 -7.67394352 2.882910967
-8.767396927 -7.561475754 3.25086689
-9.38056469 -8.012073517 3.855949163
-9.886881828 -8.379696846 4.485401154
-52.13611603 -40.49240875 1.483610749
-52.09147263 -40.56378937 3.773054123
-11.02384758 -9.278186798 1.904008031
-9.36578083 -8.006245613 2.149735212
-9.105397224 -7.794396877 2.516505003
-8.906511307 -7.6297369 2.878144741
-8.753444672 -7.502547741 3.23968339
-9.421115875 -7.990819931 3.860236883
-10.5095253 -8.79265213 4.706949234
-52.51353455 -40.4908371 1.482580662
-52.44022751 -40.54072952 3.780870199
-9.84675312 -8.329636574 1.781368613
-9.373200417 -7.960328579 2.146449327
-9.214945793 -7.8266716 2.531930208
-8.881402016 -7.561980247 2.866015911
-8.79543972 -7.485909462 3.244213581
-9.70972538 -8.154682159 3.945197344
-10.01032066 -8.362923622 4.510088444
-52.89797592 -40.49191284 1.481573582
-52.81824112 -40.53730774 3.790265799
-9.788141251 -8.231866837 1.772067189
-9.52521801 -8.022695541 2.164088011
-9.296300888 -7.836978912 2.541953087
-8.988388062 -7.593088627 2.884797335
-8.791993141 -7.435297012 3.236084461
-9.777293205 -8.151762962 3.958021641
-10.03207493 -8.324388504 4.507562637
-58.11982727 -44.08444214 1.543402314
-57.92019653 -44.0504303 4.067034245
-9.712967873 -8.12270546 1.761171699
-9.487932205 -7.943192482 2.154353142
-9.735412598 -8.111602783 2.619236708
-9.55010891 -7.946747303 3.439496756
-9.835607529 -8.141578674 3.967810869
-10.01660824 -8.258563995 4.491323948
-58.39788055 -43.99128723 1.540662169
-58.32775116 -44.03804779 4.076828957
-9.852424622 -8.175689697 1.771959901
-9.504591942 -7.904102802 2.152433872
-9.544499397 -7.906140327 3.001764059
-9.53869915 -7.886759281 3.428689957
-9.737998962 -8.019735336 3.927747488
-9.663455963 -7.949606419 4.351202011
-47.71380615 -35.94420624 3.468027592
-9.8010149 -8.087557793 1.763672709
-9.531095505 -7.874858379 2.152157784
-9.655249596 -7.950616837 2.593491554
-9.493216515 -7.819967747 2.98374939
-9.371052742 -7.716107845 3.375204563
-9.755598068 -7.982757092 3.924976826
-9.635903358 -7.880306244 4.331609726
-47.8235054 -35.78106689 3.463970661
-9.84224987 -8.065015793 1.764472961
-9.404809952 -7.734578609 2.130080223
-9.632224083 -7.869681835 3.009428024
-9.463486671 -7.735194206 3.393651247
-9.9376297 -8.06169796 3.974540472
-9.531399727 -7.753644466 4.283439636
-48.45982361 -35.98650742 3.488747358
-9.891526222 -8.048109055 1.766065598
-9.407365799 -7.683760166 2.12606144
-10.91207314 -8.754426956 2.81670928
-9.728581429 -7.887548447 3.025166512
-9.363402367 -7.610562801 3.358418941
-9.225663185 -7.497184753 3.737547159
-9.404275894 -7.612217903 4.227297783
-48.18591309 -35.51953888 3.462240219
-9.910023689 -8.008870125 1.764615536
-9.481204033 -7.686689854 2.132393837
-11.03595638 -8.782120705 2.833370686
-9.770749092 -7.866029739 3.028405905
-9.369534492 -7.565310001 3.352857828
-9.323134422 -7.51748848 3.760445595
-9.467114449 -7.606929302 4.240787983
-48.43728638 -35.45701599 3.466034174
-9.918624878 -7.962654114 1.762204885
-9.503344536 -7.652367115 2.131384611
-10.9751091 -8.683657646 2.816403627
-11.14502525 -8.786746979 3.336275339
-9.694797516 -7.748064041 3.434850931
-9.948192596 -7.911209583 3.951447964
-9.49710083 -7.578132629 4.242288113
-61.00193024 -43.98573685 1.533056259
-48.50892639 -35.25307846 3.459350586
-9.967726707 -7.945226669 1.763779044
-9.593998909 -7.668880939 2.140254498
-11.33042526 -8.858442307 3.371310949
-9.773262978 -7.752189159 3.448848724
-9.957072258 -7.865242004 3.945594311
-9.517570496 -7.542630672 4.240361214
-57.58039093 -41.2687912 1.484771252
-47.28840637 -34.14138794 3.381814003
-9.979287148 -7.901213169 1.761680961
-9.746279716 -7.725335598 2.157534838
-57.41459656 -40.91976547 13.84303665
-9.778164864 -7.704567909 3.442817211
-9.911683083 -7.78177166 3.922637701
-9.558395386 -7.521254063 4.24584341
-57.60767746 -40.98881912 1.478641987
-47.20445633 -33.83662796 3.366976261
-9.884308815 -7.783164501 1.749233723
-9.74896431 -7.676499844 2.153754711
-9.467118263 -7.466039658 2.522404194
-57.70080566 -40.81937408 13.87126732
-9.808555603 -7.67474556 3.443745136
-10.10175419 -7.86123848 3.974109411
-9.55337429 -7.468185902 4.234787464
-57.61725235 -40.69778061 1.472312689
-47.51974869 -33.8104248 3.373966217
-9.94444561 -7.773534775 1.751911998
-9.793951988 -7.657058239 2.15591526
-9.483634949 -7.428420067 2.520426273
-58.14101791 -40.82320404 13.93426895
-9.879115105 -7.672383308 3.455539703
-10.30849171 -7.950384617 4.030576706
-9.563934326 -7.426038265 4.229431152
-57.74591827 -40.48972321 1.467399359
-48.41830826 -34.18306351 3.412503004
-9.905985832 -7.695911407 1.745045543
-9.824167252 -7.627283573 2.156012774
-9.531033516 -7.411958218 2.524099112
-58.54784012 -40.80118942 13.98950195
-9.898125648 -7.634478569 3.453411102
-9.864040375 -7.595759869 3.882461071
-9.61717701 -7.412917614 4.239458084
-49.11884308 -34.32406998 1.360373139
-48.46508026 -33.96655273 3.404722452
-9.942917824 -7.670248508 1.74548912
-9.867442131 -7.606316566 2.157931566
-11.19257545 -8.48947525 2.821013212
-11.14968777 -8.44317627 3.294793129
-9.897575378 -7.583415985 3.446063519
-9.898913383 -7.568753242 3.885152102
-9.59883976 -7.351390839 4.223840714
-58.60095215 -40.47753906 1.464437723
-48.20322418 -33.54174805 3.380381823
-49.1423378 -34.10288239 5.506577492
-9.937049866 -7.602900982 2.163492203
-9.721011162 -7.442315578 2.548662663
-11.29701138 -8.485225677 3.320949554
-9.91138649 -7.542220592 3.442626715
-9.840369225 -7.47919178 3.858703613
-9.870495796 -7.483652115 4.311882019
-59.05105209 -40.4821701 1.46309638
-48.88755035 -33.75665665 3.406907558
-59.18390656 -40.58637619 6.452497005
-9.903886795 -7.527729034 2.154638529
-11.20585728 -8.367179871 3.293651819
-65.63808441 -44.52723694 18.32124519
-9.814734459 -7.409809113 3.842267036
-9.97692585 -7.50405407 4.340659618
-59.52854156 -40.50185776 1.461981297
-48.67539215 -33.35556793 3.38485527
-48.37961578 -33.09719086 5.403459549
-9.938679695 -7.500776768 2.155400276
-9.782773972 -7.382313251 2.549658298
-11.20422649 -8.309506416 3.28648901
-66.14382935 -44.52947235 18.40949821
-9.91257 -7.427158833 3.865076303
-10.03234005 -7.490116119 4.351202965
-59.92485809 -40.47956848 1.460195303
-48.78295517 -33.19397354 3.38096261
-9.965615273 -7.471031666 2.155287504
-9.797771454 -7.345441818 2.547687054
-9.928709984 -7.418796062 2.996334314
-66.62636566 -44.52967072 18.49360657
-9.811295509 -7.313665867 3.826135874
-10.03200817 -7.442037582 4.342429161
-65.72284698 -43.98023224 1.518042564
-48.64954376 -32.87400436 3.364317417
-10.03569126 -7.46946764 2.161086559
-9.830849648 -7.320436954 2.548977375
-9.907142639 -7.355056286 2.985624552
-67.16530609 -44.56332016 18.59239006
-9.833938599 -7.279277325 3.825304747
-10.03261662 -7.392277718 4.333612442
-66.22821808 -43.98184204 1.516391277
-49.76856232 -33.36106491 3.413357735
-10.0165081 -7.404474735 2.154281616
-9.918114662 -7.32797575 2.559711218
-9.852220535 -7.270197868 2.967610359
-67.65502167 -44.52787018 18.67316246
-9.963616371 -7.298056602 4.30033493
-66.73776245 -43.9826088 1.514690518
-50.71278763 -33.71243286 3.452296495
-67.44694519 -44.35219574 9.963669777
-9.928480148 -7.282972813 2.556455135
-9.879582405 -7.238886356 2.967868805
-68.233078 -44.5623703 18.77928734
-67.2346344 -43.97172165 1.512758017
-50.46176147 -33.31299973 3.429368973
-60.57418823 -39.62542343 9.004946709
-9.949760437 -7.249965191 2.555652142
-9.878645897 -7.18951416 2.961915493
-68.72208405 -44.55305099 18.86392975
-10.12547588 -7.301864624 4.33957243
-52.28063583 -34.13563919 1.345772147
-9.982065201 -7.221493244 2.556580067
-9.937338829 -7.178025723 2.969101667
-69.2624588 -44.55593872 18.95946693
-68.24241638 -43.94855881 1.508762836
-68.24272919 -44.06312561 4.332746029
-61.00613403 -39.3176918 9.017536163
-10.00257301 -7.185506821 2.555430651
-69.79046631 -44.54727936 19.0514431
-68.81436157 -43.97441101 1.507336497
-68.78252411 -44.06892776 4.347052097
-60.57862473 -38.82946014 6.423817635
-61.056427 -39.05164719 9.000976562
-69.91052246 -44.478302 13.11025715
-70.05994415 -44.46491241 16.0877552
-70.33586121 -44.54578018 19.14766312
-69.37203217 -43.98728561 1.505653262
-69.28926849 -44.05037689 4.359517097
-61.283638 -38.9732933 6.471715927
-61.10560608 -38.78572845 8.984409332
-70.34610748 -44.40844727 13.15393448
-70.60814667 -44.46330643 16.16776848
-69.90679169 -43.98210144 1.503629804
-69.84092712 -44.05611038 4.374164581
-60.57994461 -38.24324799 6.389075756
-70.40822601 -43.95284271 1.501168132
-70.36961365 -44.04389572 4.387496471
-70.79203033 -44.19716644 7.313168526
-70.97528076 -43.96002197 1.499271154
-48.4081192 -30.33613205 3.254089117
-60.54578018 -37.54998779 8.84032917
-60.0090065 -37.1349144 11.25203228
-63.10455322 -38.92363358 14.42861176
-71.55284119 -43.98656082 1.497755289
-71.49427795 -44.04919434 4.417186737
-60.68101883 -37.44743347 6.347788811
-62.15818024 -38.07184601 14.19192314
-63.99926758 -39.07534409 17.28739738
-72.11484528 -43.98281097 1.495595574
-48.52382278 -29.96719742 3.242130041
-64.04477692 -38.99246597 11.9005928
-63.49659729 -38.57066727 14.44629955
-64.21117401 -38.91213608 17.30372047
-72.67081451 -43.97157669 1.493271112
-47.80756378 -29.31175804 3.196713686
-48.11638641 -29.42380714 5.169734955
-61.22731018 -37.1187706 8.866134644
-64.3079834 -38.84476471 11.91742992
-64.87660217 -39.08251953 14.70844364
-73.26895142 -43.98130798 1.491246462
-47.99271393 -29.19544029 3.196873426
-49.40889359 -29.95703888 5.273850441
-63.65585709 -38.16008759 11.77625465
-64.93960571 -38.81376266 14.68751431
-64.11736298 -38.25152206 17.20007706
-73.83348083 -43.96724319 1.488789558
-48.17763519 -29.07818222 3.197000742
-47.60560608 -28.67309761 5.097101688
-63.60532761 -37.83205795 11.73946762
-64.96408081 -38.52335358 14.65857887
-64.24907684 -38.02696991 17.19446564
-74.4230423 -43.96377945 1.486460805
-47.96826172 -28.73135376 3.177462578
-47.95119095 -28.65049553 5.115367889
-63.59441376 -37.52855301 11.7097578
-62.41559601 -36.75593567 14.08187103
-64.06487274 -37.62132263 17.10854912
-75.10018921 -44.00649261 1.48483336
-48.12766266 -28.59962273 3.176355839
-48.62576294 -28.81441307 5.163137913
-64.27610779 -37.62200165 11.79892921
-60.64152527 -35.45471954 13.67263317
-75.63950348 -43.96585083 1.481810808
-47.21382141 -27.84370995 3.121728659
-76.26998901 -43.97311401 1.47951436
-47.69779587 -27.91048813 3.137227058
-48.37756348 -28.22407341 5.11497736
-77.22595978 -44.30552673 13.95115185
-61.04182053 -35.11821365 13.69531631
-63.06356812 -36.17090225 16.74060822
-47.83729172 -27.76926804 3.135246515
-49.70993805 -28.74780655 5.221022606
-62.93601608 -35.98466873 11.4886837
-60.02766037 -34.27378845 13.45058155
-49.07907104 -28.16790581 1.22246325
-48.16140747 -27.73047638 3.142287731
-49.32619095 -28.30676651 5.173851013
-59.84541702 -33.89841461 13.38219357
-61.54224014 -34.75544357 16.28390312
-48.24097443 -27.55446815 3.137344122
-49.39625168 -28.13141632 5.167843819
-63.58754349 -35.76640701 11.54620457
-61.77455139 -34.69433594 13.75905895
-48.31526947 -27.38666344 3.132600784
-48.30169296 -27.30833244 5.058269024
-61.77444077 -34.33478546 16.27323151
-79.48176575 -43.99352264 1.467152119
-49.00452042 -27.54234314 3.157170773
-48.36769867 -27.12522697 5.0516572
-64.11808014 -35.48997879 11.58442688
-64.06424713 -35.2840538 16.81093407
-80.09320831 -43.964077 1.463970184
-48.95319366 -27.2933712 3.145860434
-49.49029541 -27.51044846 5.137972355
-61.52765274 -33.9058075 8.65184021
-64.26047516 -35.27685928 11.5822258
-60.75458908 -33.31118011 13.45591259
-62.10961914 -33.95495605 16.28715706
-80.73316956 -43.96379852 1.461332917
-49.52588272 -27.31796265 5.129149437
-61.20461273 -33.45730972 8.590421677
-64.42314911 -35.0742836 11.58351231
-60.67521667 -33.0098114 13.4116869
-62.12606812 -33.68458176 16.25665283
-81.43412018 -43.99153519 1.45908165
-48.75786591 -26.76106644 3.119432449
-49.86036301 -27.28407669 5.146514893
-61.03193283 -33.01579285 10.99196625
-66.17832184 -35.64038467 14.52671146
-62.01103973 -33.36016464 16.19546509
-82.10823822 -43.98218918 1.45605433
-48.77457047 -26.56295967 3.111999035
-50.04087067 -27.15611839 5.149744511
-66.60424042 -35.56677246 14.58365917
-64.00317383 -34.19861221 1.301974893
-48.74180984 -26.32877922 3.101819754
-60.57701492 -32.41440964 6.053103447
-64.99041748 -34.53409195 11.60357094
-64.27197266 -34.06718445 14.07044601
-64.2203064 -34.02736664 1.297022939
-48.73194122 -26.09673691 3.092350483
-63.98178101 -33.90194321 6.33321619
-63.98384094 -33.80949783 8.863126755
-64.09685516 -33.77348328 11.42849541
-62.20666504 -32.72592545 13.61470699
-50.48325729 -26.79028702 3.166784048
-60.36158752 -31.76813507 6.004592419
-62.00978088 -32.520401 8.594317436
-64.41465759 -33.66632462 11.45747185
-66.98548889 -34.87504578 14.56923485
-50.52721405 -26.59037209 3.160054922
-60.4765892 -31.56076241 5.999756336
-62.32846069 -32.33098602 11.08787155
-65.19992065 -33.68272018 14.17207146
-62.09919739 -32.04500198 16.0518074
-6.441228867 -4.112822533 2.904483557
-59.48176956 -30.8819828 3.570197821
-59.03896713 -30.57302284 5.861523151
-63.78037643 -32.78352356 11.30340958
-61.84685898 -31.72586632 13.4557085
-6.43804121 -4.09282732 2.630688667
-59.48263168 -30.62236404 3.559978247
-59.1517868 -30.38411331 5.857664585
-62.44921875 -31.84532738 11.0602293
-6.431851387 -4.080885887 2.10229063
-6.423884869 -4.067408085 2.359898567
-6.432361126 -4.053569317 2.893188477
-59.30132294 -30.20033646 5.856267929
-6.456986904 -4.074704647 1.847436309
-6.422218323 -4.040038586 2.356342077
-6.444319725 -4.041177273 2.625076056
-6.434917927 -4.026835918 2.889782906
-6.454551697 -4.062910557 1.337753415
-6.440098763 -4.047868729 1.588586092
-6.429388523 -4.023796558 2.09607625
-6.437368393 -4.018129826 2.356584311
-6.457178593 -4.019446373 2.624984503
-6.454658031 -4.008444309 2.892014265
-6.444898129 -4.037397385 0.5839284062
-6.431992054 -4.014699459 1.585528016
-6.451237679 -4.014600277 1.841570258
-6.448023319 -4.003581524 2.096899986
-6.436591148 -3.988549232 2.352968216
-6.460028172 -3.991515636 2.621883392
-6.459747314 -4.026162148 0.3321985304
-6.465513706 -4.010264874 0.8334896564
-6.458511353 -4.015625477 1.084162951
-6.448905468 -4.001669884 1.334078908
-6.455989361 -3.997099161 1.586463451
-6.45200634 -3.985784531 1.839205027
-6.484358311 -3.991734266 2.101318121
-6.454358101 -3.995859623 0.3327498734
-6.473787308 -3.995817661 0.5825215578
-6.449240685 -3.974784851 0.832708776
-6.469367027 -3.993062735 1.083572507
-6.447137833 -3.973127842 1.332423925
-6.47401762 -3.977937698 1.58675909
-6.489665508 -3.975921392 1.842976451
-6.450638771 -3.966489792 0.3331751525
-6.473678112 -3.968087196 0.58227247
-6.478011131 -3.960804224 0.8322423697
-6.483756542 -3.972173929 1.083144665
-6.492136478 -3.966771126 1.334720612
-63.76996994 -30.66067123 16.20102882
-6.47026968 -3.948236704 0.3319478333
-6.493360996 -3.949738741 0.5813910961
-63.69516373 -30.43466568 13.61044025
-47.53707123 -22.95821381 4.772996902
-21.42743683 -10.78632832 4.249904633
-63.68874741 -30.18804169 13.58504391
-48.60166931 -23.3160553 2.979580164
-48.71763611 -23.29939461 4.860877991
-21.41357613 -10.68916798 4.240093708
-48.34560394 -22.98336411 2.959682703
-21.09765816 -10.51223469 2.546799183
-48.71784592 -23.02324486 6.730839252
-21.49295044 -10.63010406 4.244975567
-63.30255127 -29.47480965 13.45484447
-48.68817902 -22.94490242 2.967501163
-21.10958099 -10.4331665 2.543282986
-21.59790993 -10.62249947 3.416521549
-21.57779503 -10.58217621 4.251490593
-63.28687668 -29.21455956 13.42703629
-47.56518173 -22.24664116 2.909856319
-21.18112755 -10.37649536 2.54449892
-21.62301826 -10.54752827 3.413738251
-21.11285973 -10.28938103 4.169927597
-21.03774261 -10.22531033 4.980622292
-21.38294411 -10.40792274 1.738191128
-21.26894569 -10.32671165 2.547058582
-21.57304573 -10.43040085 3.401275873
-21.21286392 -10.24504662 4.178678036
-21.05979347 -10.14694786 4.976516724
-21.41590118 -10.32868481 1.736024261
-21.38023186 -10.28231907 2.551310062
-21.59916115 -10.35178852 3.398388863
-20.94984245 -10.03741455 4.129154205
-75.05884552 -33.52297592 15.68570614
-22.63301849 -10.73778248 2.64969182
-21.38422394 -10.16878033 3.366461515
-21.02010727 -9.980614662 4.133273602
-21.13354683 -9.998867989 4.973921776
-49.04185104 -22.02956009 1.076030135
-47.12176895 -21.25203896 2.859315872
-22.68034172 -10.66895866 2.648889065
-21.42766762 -10.09872341 3.365784168
-20.77544975 -9.78879261 4.087382793
-21.10609818 -9.903912544 4.960594177
-21.54332352 -10.12104225 1.731494308
-22.53286934 -10.51224232 2.63190484
-21.41234016 -10.00359154 3.358070612
-21.16045189 -9.87035656 4.141859531
-21.10883141 -9.81781292 4.952895641
-21.56809616 -10.04266834 1.729157567
-22.5078392 -10.41337681 2.625251532
-20.57974625 -9.569067001 3.252799749
-21.24489784 -9.818558693 4.148247719
-21.164114 -9.758280754 4.956020832
-21.62048149 -9.98038578 1.728199601
-20.89631653 -9.646439552 2.489206314
-20.7055378 -9.536911964 3.26227212
-20.2531662 -9.323223114 3.985080004
-21.82798576 -9.946362495 5.078393936
-21.61706734 -9.890288353 1.724650502
-20.89187431 -9.558911324 2.484400511
-20.68469238 -9.447651863 3.254507303
-20.32303429 -9.268965721 3.989519358
-21.68145943 -9.796787262 5.041335583
-21.73040009 -9.789535522 5.900944233
-21.45251465 -9.734138489 1.71415782
-20.92213821 -9.485905647 2.482434988
-20.61493683 -9.330343246 3.240421057
-20.42942619 -9.229263306 3.999707937
-20.1685524 -9.093701363 4.736900806
-52.24921036 -22.12589836 1.062944055
-21.42931175 -9.632836342 1.709647298
-20.97211647 -9.416640282 2.4818573
-20.434412 -9.173246384 3.213537455
-21.25860214 -9.476272583 4.122954369
-20.93292236 -9.314600945 4.878349304
-21.71292496 -9.600773811 5.877600193
-21.0575676 -9.395763397 1.690383315
-21.7013855 -9.624512672 2.536242008
-20.46341133 -9.101807594 3.211607218
-20.47264099 -9.076079369 3.993160009
-21.01927757 -9.26390934 4.8874259
-21.73279953 -9.520449638 5.8729949
-21.20409393 -9.36890316 1.693387985
-21.85265732 -9.601160049 2.544123173
-20.43486977 -9.00755024 3.202900171
-20.33940887 -8.940460205 3.965910435
-20.59321785 -9.015151024 4.797123432
-21.79968262 -9.458655357 5.879434109
-21.31762123 -9.332352638 1.695120454
-21.2094841 -9.259381294 2.488049507
-20.33930397 -8.887434959 3.186341047
-20.37548447 -8.876494408 3.965515614
-20.66584396 -8.960258484 4.803721428
-22.4878788 -9.642472267 6.031229973
-20.98039246 -9.114396095 1.677548409
-21.15136528 -9.151211739 2.479053497
-20.36035156 -8.817732811 3.183852673
-20.35739136 -8.787364006 3.956398249
-21.68758392 -9.271272659 4.99443388
-22.46591187 -9.543409348 6.016778946
-20.98665428 -9.032452583 1.674610615
-20.99599457 -9.006201744 2.462349892
-20.95217514 -8.963586807 3.24815917
-20.87303734 -8.903202057 4.030259609
-20.73164177 -8.819061279 4.801567554
-21.95034218 -9.256891251 5.887740135
-21.16986656 -9.018531799 1.679136515
-20.87759399 -8.880969048 2.448887825
-20.92841911 -8.870538712 3.240067482
-21.01777077 -8.874429703 4.046347618
-20.8447113 -8.782870293 4.816412449
-21.84456825 -9.129084587 5.854252815
-21.43776512 -9.039782524 1.687335849
-20.85559654 -8.793318748 2.443146944
-20.40244675 -8.592764854 3.173556566
-21.26307487 -8.886713028 4.078280449
-20.90616035 -8.726696968 4.821278572
-21.85759163 -9.050990105 5.848876953
-21.84959793 -9.02023983 6.703309059
-20.80522919 -8.695406914 2.435190916
-20.44111061 -8.529880524 3.173226357
-21.30831909 -8.82297039 4.079215527
-20.81612778 -8.614136696 4.796984196
-21.38074875 -8.792222977 5.730316639
-89.35403442 -34.05801773 1.179124117
-20.84794998 -8.63258934 2.434630632
-20.54299355 -8.490246773 3.180274248
-21.37380791 -8.766537666 4.083292484
-20.86971092 -8.555119514 4.800419331
-21.40179062 -8.719120026 5.727098465
-85.65305328 -32.39346313 4.343851089
-20.91886139 -8.567554474 2.435679436
-21.65549278 -8.806653976 3.303981304
-21.66280746 -8.778327942 4.120824337
-20.96788025 -8.499608994 4.811355591
-22.08860207 -8.873598099 5.87604332
-21.79607964 -8.808534622 0.8784689307
-21.74920273 -8.816584587 1.687533617
-20.80502129 -8.443481445 2.42261982
-21.20448303 -8.55810833 3.246390581
-21.43211174 -8.613877296 4.079370499
-21.52276611 -8.615504265 4.910495758
-21.14716721 -8.454356194 5.651329994
-21.83106995 -8.735144615 0.8764049411
-21.7861824 -8.744009018 1.685832262
-21.49040222 -8.607071877 2.47228241
-20.57469559 -8.253546715 3.168617725
-21.50732994 -8.525083542 4.90026474
-22.37933159 -8.80607605 5.926064491
-21.65723801 -8.612285614 1.677316427
-21.75044632 -8.61464119 2.488442183
-20.5398922 -8.156182289 3.159393072
-21.73633194 -8.55194664 4.113524914
-21.48780823 -8.433568001 4.889326572
-21.42320251 -8.379829407 5.697909355
-21.62511253 -8.511637688 1.672656059
-20.73465157 -8.172986984 2.405004978
-20.48462296 -8.05619812 3.14811039
-20.47453499 -8.023429871 3.914314032
-21.51626396 -8.359036446 4.88760519
-21.52730751 -8.331638336 5.713598251
-21.58047485 -8.415575027 1.667824745
-20.73053741 -8.094359398 2.400902987
-20.44269371 -7.965450764 3.138665438
-20.49835205 -7.955414295 3.912433624
-21.53011894 -8.28370285 4.88350296
-21.54863167 -8.25880146 5.710773468
-21.60157013 -8.342674255 1.665689349
-20.80662537 -8.039405823 2.402852774
-20.48693657 -7.90464592 3.139162064
-20.5650444 -7.901994705 3.917107344
-22.24036407 -8.440281868 5.011351585
-21.59007835 -8.192789078 5.712591648
-21.93586159 -8.372250557 1.676088095
-21.1035881 -8.058956146 2.42190218
-20.5604744 -7.849588394 3.142786503
-11.65885735 -4.825007915 2.558546305
-22.27446175 -8.364982605 5.01060915
-21.40082359 -8.045426369 5.66150713
-22.00166321 -8.309035301 1.675566435
-20.90166283 -7.909144402 2.402322531
-11.66327477 -4.781116962 2.555989981
-22.42042351 -8.326663017 5.031079769
-22.45837784 -8.31106472 5.89413166
-22.46551514 -8.377965927 1.691045403
-20.92047691 -7.834238052 2.399853468
-20.89785004 -7.8011446 3.171746969
-11.66376591 -4.73600769 2.552862883
-22.4054966 -8.234765053 5.021120548
-22.46978569 -8.227617264 5.888568878
-22.49155998 -8.299511909 1.688860178
-20.83546257 -7.729398727 2.389611959
-20.855896 -7.70651865 3.162178993
-11.66596889 -4.691552162 2.550019741
-22.09299088 -8.051213264 4.95544672
-22.43621635 -8.129798889 5.872880459
-22.48753929 -8.215621948 1.685640216
-20.84035301 -7.650459766 2.386125326
-20.1927948 -7.412142754 3.082085133
-11.65414619 -4.64493084 2.545242786
-22.10888481 -7.97093153 4.951523781
-22.52633476 -8.141372681 1.683976173
-20.74805641 -7.540569305 2.37522316
-20.23344612 -7.351134777 3.082360029
-11.65223026 -4.599391937 2.541831255
-22.0775528 -7.875805855 4.938773155
-22.13371658 -7.925777912 1.665050626
-20.85991478 -7.492097855 2.379771233
-20.23633766 -7.270312786 3.077920198
-11.65267467 -4.552467823 2.538646221
-22.01826668 -7.800395966 1.657201767
-20.93626785 -7.435861588 2.381788015
-20.15725327 -7.164190769 3.064256668
-11.66049671 -4.507930279 2.536595583
-48.97233963 -16.0236702 0.9229408503
-22.29692459 -7.806573391 1.665220737
-20.9846611 -7.37460804 2.381864786
-20.20854759 -7.106603622 3.06580615
-11.6612072 -4.465726852 2.533806801
-11.63942909 -4.444617271 2.965480804
-22.39048958 -7.754243851 1.665915012
-22.13503075 -7.644834518 2.465278387
-21.56504059 -7.444786549 3.214232206
-11.6617651 -4.423559189 2.531017303
-11.65572834 -4.405037403 2.965040207
-22.39713669 -7.670852661 1.663040638
-22.09938812 -7.549688816 2.458622932
-11.6489563 -4.389620304 2.095746756
-11.64571285 -4.374300003 2.525621653
