# .PCD v0.7 - Point Cloud Data file format
VERSION 0.7
FIELDS x y z
SIZE 4 4 4
TYPE F F F
COUNT 1 1 1
WIDTH 1296
HEIGHT 1
VIEWPOINT 0 0 0 1 0 0 0
POINTS 1296
DATA ascii
7.762669086 -9.144152641 3.169363737
7.739012718 -9.106804848 3.574500084
7.83625555 -9.197219849 4.033664703
11.73167419 -13.61915302 0.7549547553
13.48289585 -15.43104267 1.440892696
23.01690483 -25.67042732 3.085232258
23.17857552 -25.80088425 4.295095921
7.197426319 -8.622722626 2.249732494
7.455491543 -8.888131142 2.69167161
7.714891434 -9.151076317 3.164775848
7.822847843 -9.254094124 3.616471529
7.801644325 -9.218769073 4.032664776
11.71560669 -13.690979 0.7566722035
12.62878895 -14.6062851 1.403757572
23.23051071 -26.07604027 3.118889332
22.93047523 -25.70762062 4.274193287
7.186433315 -8.665174484 2.254124403
7.467564583 -8.95735836 2.703114033
7.466054916 -8.941232681 3.09795022
7.74311161 -9.22719574 3.599415541
8.645417213 -10.18322182 4.398561478
11.71667671 -13.78207779 0.758351326
13.35405922 -15.49521828 1.443675756
23.05601501 -26.06267929 3.113733053
23.68509674 -26.71329117 4.407160759
7.129652023 -8.658053398 2.249174833
7.312437057 -8.845580101 2.671593189
7.37925148 -8.906558037 3.081414938
7.651650906 -9.189774513 3.57855773
11.66674232 -13.82194042 0.7602441907
13.45903492 -15.71859741 1.453670979
22.95938873 -26.14244652 3.117029428
23.43372154 -26.61915588 4.38609314
7.098351479 -8.681132317 2.249769449
7.168776035 -8.747151375 2.643181801
7.321956635 -8.900406837 3.073466539
7.736528397 -9.340802193 3.621535778
8.451817513 -10.10708809 4.348100662
11.62561035 -13.8670311 0.7620282173
14.00698662 -16.43039131 1.485626817
22.83750534 -26.18527603 3.117139816
22.409132 -25.66802406 4.245512009
7.065689087 -8.699917793 2.249755859
7.100116253 -8.726813316 2.633609295
7.276645184 -8.906985283 3.069221973
7.706726074 -9.367630959 3.622719765
8.463322639 -10.18470097 4.368032932
11.60424709 -13.9343996 0.7637693882
13.97265053 -16.50147247 1.488784075
23.55494499 -27.16334724 3.203313351
22.26370621 -25.68081093 4.239882946
7.03563261 -8.721515656 2.250289917
7.075210094 -8.754388809 2.635387897
7.256288052 -8.940950394 3.072815895
7.622158527 -9.333868027 3.603700638
8.342711449 -10.11707497 4.332037926
11.50969982 -13.91936588 0.7656532526
13.93534088 -16.56950951 1.491809011
24.31357765 -28.20037079 3.294655561
22.89058876 -26.55827713 4.354543209
6.944795609 -8.675050735 2.238140345
7.02392149 -8.752524376 2.630272627
7.244927883 -8.985067368 3.079301834
7.482161045 -9.237504005 3.563971996
8.335840225 -10.17458725 4.34429121
11.62520409 -14.14279366 0.7671493888
13.9334507 -16.67792702 1.49665308
22.8031826 -26.64082336 4.358486652
6.88329792 -8.660647392 2.23203826
7.043389797 -8.829930305 2.643768787
7.278878689 -9.080364227 3.100258112
7.463059902 -9.275042534 3.568974733
7.89961195 -9.751527786 4.172697067
11.61573982 -14.22548485 0.7688912749
14.01532269 -16.88269997 1.505832076
25.83621025 -30.32113075 3.480849743
22.67345428 -26.67525291 4.355805874
6.903165817 -8.738067627 2.243040085
7.005060673 -8.842560768 2.642096043
7.413317204 -9.290364265 3.153487921
7.367886066 -9.226781845 3.545565844
7.824947357 -9.729966164 4.155248642
11.5112896 -14.19436741 0.7706929445
12.83440685 -15.63964844 1.449946404
25.70155144 -30.36439896 3.480803728
8.413660049 -10.53360176 2.118300438
6.865194321 -8.750116348 2.241898298
7.152487755 -9.064198494 2.689383984
7.372133255 -9.302845001 3.150910616
7.329523563 -9.24212265 3.543332338
7.838502884 -9.804797173 4.175069809
11.44008064 -14.20562649 0.7725156546
12.75141811 -15.6427784 1.4500736
24.73873901 -29.46141434 3.394220352
8.390285492 -10.57486725 2.121263504
6.851985931 -8.787721634 2.245674372
7.090136051 -9.050388336 2.681511879
7.179433346 -9.138342857 3.099011898
7.304107666 -9.269187927 3.545374393
7.689308643 -9.697313309 4.125188828
11.38450623 -14.23481274 0.7743093967
12.63603401 -15.61284161 1.44871819
24.53197098 -29.42341232 3.386764526
8.361933708 -10.60709476 2.123125076
6.813919544 -8.799525261 2.244525909
6.863125801 -8.845445633 2.629388332
7.124788761 -9.13366127 3.091843843
7.347036362 -9.378110886 3.573990822
7.701067448 -9.773329735 4.145068169
11.33274651 -14.26834965 0.7760928273
13.77660084 -17.05443001 1.513497949
24.32448959 -29.3827858 3.379128933
24.16529655 -29.15792084 4.667701721
7.010396957 -9.084921837 2.293761492
6.868514061 -8.908140182 2.639447689
7.06882143 -9.129924774 3.084720612
7.338400364 -9.431336403 3.583873034
7.66468668 -9.794178009 4.144065857
11.26697159 -14.28987885 0.7779691815
12.42444611 -15.57768917 1.447130799
24.21839905 -29.4700737 3.382979393
8.204463005 -10.56342793 2.111661911
7.095680237 -9.246289253 2.319847345
7.311460018 -9.48807621 2.768602371
7.089340687 -9.212500572 3.101989746
7.300728798 -9.447919846 3.582121134
7.820426941 -10.04268837 4.228368759
11.21635246 -14.32449818 0.7797390223
11.97694874 -15.14966965 1.42789793
24.17741013 -29.62449837 3.393139124
8.184663773 -10.60866928 2.115233421
7.063803673 -9.267904282 2.320402145
7.268521786 -9.498413086 2.766282797
7.228238106 -9.435649872 3.158257723
7.280603409 -9.485069275 3.587123156
7.829199791 -10.11813354 4.247745514
11.15157604 -14.34200191 0.7815119028
13.99051571 -17.6634407 1.540875673
24.20471954 -29.86166573 3.410798311
8.153155327 -10.64016438 2.116932869
7.044583321 -9.304579735 2.323729038
7.144546986 -9.412002563 2.741785765
7.185566902 -9.445749283 3.155240059
7.773061275 -10.11733246 4.238512516
11.08935642 -14.36230469 0.7832745314
13.84004307 -17.60130692 1.538095474
24.4447155 -30.3572998 3.451819658
8.118988037 -10.66849518 2.118213654
6.958032131 -9.260544777 2.312339544
7.129736423 -9.454953194 2.747066498
7.144166946 -9.457159996 3.152631283
7.747893333 -10.15309906 4.243034363
11.17276382 -14.56035519 0.7849944234
11.90316677 -15.36676979 1.437685966
23.86065102 -29.85872269 3.402961969
7.079349995 -9.47869873 1.953865767
6.860524178 -9.202270508 2.298429012
7.084565163 -9.461490631 2.744026423
7.1152668 -9.483442307 3.154169559
7.720105648 -10.1858511 4.246454239
10.85142994 -14.26236725 0.7867823243
12.75048447 -16.50713348 1.48895669
24.04093933 -30.28602982 3.437785387
7.046491146 -9.502985001 1.954829454
6.821310043 -9.213844299 2.297286272
6.974410534 -9.388684273 2.722933531
7.724982262 -10.28881359 3.369765043
7.699528217 -10.2274189 4.25317955
10.78860569 -14.28490162 0.7885873914
12.86689091 -16.76794624 1.500704288
23.80202484 -30.21271896 3.42727232
7.016312122 -9.527471542 1.955943704
6.796893597 -9.24639225 2.299809694
7.77483511 -10.41710377 3.398838997
7.656386852 -10.24500656 4.250596523
10.76434612 -14.35057068 0.7903075218
13.03326702 -17.08826447 1.51513052
23.59665298 -30.16810989 3.419591665
6.973553181 -9.536375046 1.954963446
6.775048733 -9.279232025 2.302556753
6.87219429 -9.3876791 2.713724613
7.727745056 -10.42735863 3.395494461
10.7347908 -14.40995407 0.7920284867
12.53230572 -16.57783127 1.492220283
23.43552208 -30.17694283 3.416766405
6.745616913 -9.302757263 2.303632259
6.839865208 -9.408457756 2.714119911
7.701549053 -10.46329308 3.399216652
10.74086666 -14.51483917 0.7937723994
12.87512112 -17.12238312 1.516735673
23.34660721 -30.27560616 3.42203927
23.29320145 -30.158741 4.728525162
6.746963501 -9.364893913 2.311677456
7.807711601 -10.68201351 2.997635603
10.72529507 -14.58814526 0.7954263091
13.02745342 -17.43248177 1.530717969
23.2970562 -30.4138031 3.431049824
23.1535511 -30.19286537 4.725946903
6.655774593 -9.310676575 2.298799276
7.764013767 -10.69386292 2.995685577
10.68977261 -14.64125633 0.7971560955
12.85917377 -17.33074379 1.526188731
23.52843094 -30.92188263 3.472980738
22.90587997 -30.08868599 4.704868793
6.688910961 -9.410476685 2.313772678
10.66133308 -14.70379448 0.7988942862
12.69499493 -17.23817444 1.522077441
23.52617264 -31.13594246 3.488567829
22.74869347 -30.08743858 4.698056698
6.61393261 -9.375939369 2.304504156
23.91943359 -31.50644302 7.658984184
10.62041569 -14.75042915 0.8006199598
12.60733128 -17.24276161 1.52233839
23.39951134 -31.19089699 3.489952803
23.18515587 -30.8735981 4.795935154
6.584159851 -9.398902893 2.305565596
10.59990501 -14.82399082 0.8023725748
11.91665363 -16.46518135 1.487434506
23.33104897 -31.32130623 3.498092651
23.05700111 -30.92416954 4.795665264
6.555231094 -9.426040649 2.307237148
52.91678238 -69.59366608 16.14452171
10.55970764 -14.87205791 0.8041005135
12.01011848 -16.69547844 1.497848034
23.19425964 -31.36273193 3.49832654
22.9420414 -30.99161148 4.797698498
10.54937077 -14.95495892 0.8057889938
11.22868443 -15.77536869 1.456530571
23.10734177 -31.45842743 3.503587961
22.85496902 -31.08477783 4.803543091
10.52776814 -15.02855682 0.8075550199
12.5832653 -17.68508148 1.542488933
26.5360508 -36.24840546 3.925427198
23.95010948 -32.76185608 5.019462585
10.4889307 -15.08976364 0.8094732761
11.60258293 -16.50154495 1.489333034
26.75491524 -36.8266449 3.972439289
23.02886391 -31.77159309 4.880664349
52.03087234 -70.46123505 16.20760155
10.46658039 -15.16335678 0.8112475872
12.44198704 -17.75263596 1.545693636
27.0417881 -37.4778862 4.026227474
23.29737854 -32.37185669 4.952936649
7.49221611 -11.00528049 2.571421385
10.43664074 -15.23231506 0.8131008744
12.33755779 -17.74003029 1.545216203
26.33137321 -36.79162598 3.961448908
23.40603256 -32.75085449 4.996127129
7.436173916 -11.00706482 2.568207979
10.39243603 -15.27674389 0.8148288727
12.29276752 -17.80233192 1.548109412
26.43231583 -37.1943779 3.993249655
22.5875473 -31.86334991 4.872148514
7.425205708 -11.06645584 2.575329781
10.4611721 -15.47863865 0.8168706894
10.95716286 -16.07721329 1.470563889
26.17781448 -37.11001205 3.982039452
22.46610451 -31.92408752 4.873518944
10.42881584 -15.54111099 0.8186510205
13.44350719 -19.65832901 1.631841302
25.98816299 -37.11347961 3.978633165
10.37396526 -15.57757664 0.8204570413
13.34334183 -19.66343689 1.63218987
25.84687996 -37.1969223 3.982130766
25.86094475 -37.15591431 5.546962261
10.31580353 -15.60385895 0.8221532702
20.12809181 -29.4133625 2.071284056
25.92815971 -37.58159637 4.012325287
25.84871101 -37.40802002 5.572507381
10.25644779 -15.62826538 0.8238385916
20.01230812 -29.46044159 2.073589087
25.8271904 -37.71089172 4.0200634
25.74583054 -37.53357315 5.581472397
10.21182537 -15.67382908 0.8255723119
12.22271156 -18.47457504 1.579012632
25.69825363 -37.80064774 4.024354458
25.52404213 -37.48924637 5.568272591
10.20887852 -15.78027725 0.8274674416
11.58100605 -17.67661858 1.543191671
26.12255669 -38.69072342 4.098801613
8.393357277 -13.24215126 0.3009170592
10.14114952 -15.79265785 0.8291117549
10.84673595 -16.73098183 1.500710249
25.92362022 -38.68444061 4.094668388
25.39097977 -37.84633636 5.600242615
8.354779243 -13.2780056 0.3020663559
10.06224823 -15.7881794 0.8306986094
11.41181087 -17.68093681 1.5436306
25.96870041 -39.03502274 4.121785164
8.316059113 -13.31373787 0.3032134175
9.972376823 -15.76671696 0.832221806
11.4559927 -17.87301826 1.552414656
25.09565926 -38.03116989 4.030582428
24.5607357 -37.17913818 5.499228954
8.280506134 -13.35434818 0.3041646481
9.88941288 -15.75480366 0.8337592483
12.39890766 -19.40888023 1.621774793
25.17897415 -38.43643951 4.06255722
25.23866844 -38.46269608 5.658761024
8.239276886 -13.38651085 0.3054366708
9.83201313 -15.78087234 0.8354052305
10.96089363 -17.38661766 1.530756593
26.21818542 -40.28232193 4.220069885
8.191340446 -13.40851116 0.3070915639
9.778945923 -15.81340504 0.8370668888
12.41680527 -19.71839714 1.636033058
24.04592514 -37.29450989 3.9564147
24.74884605 -38.29589462 5.623087883
8.147709846 -13.44180393 0.30842641
9.717037201 -15.83234501 0.8386781216
10.65163898 -17.16670227 1.521115065
23.84298325 -37.26296234 3.950480938
24.62206268 -38.40271378 5.629637718
8.116961479 -13.49033356 0.3090500236
9.673126221 -15.88463783 0.8404766917
12.16086674 -19.62061882 1.631954312
23.79520035 -37.4820137 3.966215849
24.56435776 -38.60149002 5.648430347
8.079514503 -13.52869511 0.3100562692
9.631575584 -15.93513203 0.8421918154
11.99901867 -19.51339912 1.62728405
24.13009644 -38.2819519 4.032539368
23.87072182 -37.81848907 5.540821075
8.044036865 -13.57032585 0.310934186
9.600530624 -16.00239563 0.8439689875
11.5235548 -18.91370392 1.60039258
23.85071182 -38.13398743 4.016562939
24.71199417 -39.41420364 5.739418507
8.008366585 -13.61186218 0.3118113279
9.578736305 -16.08484459 0.8458074331
11.53983021 -19.078619 1.608004451
23.546978 -37.94413376 3.997024298
24.03013611 -38.64125443 5.633389473
7.964031219 -13.63974094 0.3131924868
9.552229881 -16.16055107 0.8476255536
28.77851295 -46.58334732 2.849871635
23.43641472 -38.05628967 4.003700733
23.51120567 -38.1128006 5.559060097
7.920653343 -13.66916275 0.3145068288
9.526373863 -16.23795128 0.849454999
23.24702454 -38.04302597 3.999553442
7.890790462 -13.7205677 0.3150018454
9.497988701 -16.3119545 0.851275444
11.29812813 -19.11677551 1.610260725
23.23480797 -38.31355667 4.01996994
7.85961628 -13.77021599 0.3155609071
9.482772827 -16.4081192 0.8531936407
22.95520973 -38.15312195 4.003182888
7.812652111 -13.79415989 0.3170568347
9.462842941 -16.49752998 0.8550912738
23.46567726 -39.28112793 4.097581387
7.770580292 -13.83127689 0.3181806505
9.464068413 -16.6229763 0.8571555018
11.27850437 -19.51766968 1.628947377
23.63648415 -39.86568451 4.145021439
24.20565033 -40.75317764 5.863832474
7.73059988 -13.86690903 0.3192339838
9.460748672 -16.7485466 0.8593097925
23.39549446 -39.78952026 4.135384083
23.86478424 -40.50340652 5.825601578
7.691476822 -13.90414333 0.3202236295
9.428853035 -16.82102585 0.8611566424
23.3973484 -40.10196686 4.159374714
23.65756035 -40.4718895 5.815258503
7.652188778 -13.9412632 0.3212114573
9.411748886 -16.91934776 0.8631293774
23.28242683 -40.22098541 4.166736126
23.26625061 -40.12819672 5.765384674
7.611741543 -13.97653103 0.322258532
9.404145241 -17.03502274 0.8651939631
22.94773293 -39.96648788 4.142047882
23.42718887 -40.71612167 5.833771706
7.559131622 -13.99090862 0.3240395486
9.39885807 -17.15602493 0.8672959805
18.28877258 -32.32555389 2.209587574
18.27687645 -32.26558685 3.478547335
18.33840561 -32.31867218 4.764601707
7.522419453 -14.03282928 0.3248358071
9.385867119 -17.26504707 0.8693509102
22.85853195 -40.44483948 4.177545071
18.22826004 -32.38229752 4.767854691
7.47957468 -14.06422615 0.3259970844
9.380149841 -17.3880825 0.8714870214
22.64764786 -40.39789963 4.170795918
5.177325249 -10.09097195 0.4669885039
5.162600994 -10.04964161 0.8349851966
5.236596107 -10.12023735 1.205078483
5.130640984 -10.08281612 0.4688284099
5.156652927 -10.05749989 1.202356577
5.169928551 -10.06955528 1.571619511
5.160861492 -10.03818417 1.938599825
5.165351868 -10.03445625 2.310683489
5.168243885 -10.02772427 2.685869217
5.149788857 -9.979416847 3.05532074
5.180809975 -10.02175522 3.453112364
5.109274387 -10.11990738 0.4690894485
5.111593246 -10.11255646 0.8370248675
5.131459713 -10.08762932 1.203837395
5.12494421 -10.04914856 1.938653708
5.126511574 -10.04027939 2.309598446
5.130384922 -10.03532696 2.684658289
5.126463413 -10.01256943 3.06006813
5.126786232 -10.00082779 3.442706823
5.134475231 -10.00184441 3.835787058
7.313289642 -14.20545387 0.3301364481
9.46159935 -18.09188843 0.8813872933
5.09933424 -10.10546017 1.204763293
5.084383011 -10.06696987 1.570198894
5.097700596 -10.07561684 1.940669537
5.100212574 -10.06842136 2.312247753
5.096363068 -10.04965687 2.684868813
5.095355988 -10.03201199 3.061415434
5.091879845 -10.01347828 3.442149878
5.095801353 -10.00785255 3.832787991
7.270707607 -14.23792744 0.3312241137
9.515598297 -18.33368492 0.8842625022
5.105643749 -10.1932354 1.208862662
5.072777748 -10.08280754 2.688999891
5.066060066 -10.05477333 3.063610554
5.059771061 -10.03108025 3.443068504
5.068322659 -10.03384876 3.836508751
7.226099491 -14.26674271 0.3324284554
9.657516479 -18.74139786 0.8881056905
26.40433121 -49.35251617 2.984975338
25.94612122 -48.45222855 4.841886997
5.036932945 -10.06555843 3.44891715
7.175697327 -14.28484249 0.3339879215
12.2298069 -23.68242264 0.9179501534
25.71414375 -48.42126083 4.836299419
7.121052742 -14.30046272 0.33572644
12.13144112 -23.68964005 0.9199864864
26.34457207 -50.0567627 3.01824069
25.8768692 -49.12384415 4.893215179
7.087807178 -14.35655117 0.3360934556
12.0245409 -23.68969917 0.922067523
33.50691605 -63.97492599 3.650758266
25.76046562 -49.33258438 4.907931805
7.050139904 -14.3989296 0.3368102014
11.92084122 -23.68543243 0.9240107536
25.26817131 -48.89025879 2.9667027
13.72910595 -26.93221855 3.000635624
14.13542652 -27.66889572 4.129656315
7.020127773 -14.45063972 0.3371070921
11.82009125 -23.68604279 0.9259700179
14.03606415 -27.77458763 2.008221149
13.62410927 -26.9533577 3.000917196
13.83594322 -27.32519722 4.08328104
6.976517677 -14.4821806 0.3381768763
11.72803211 -23.69307518 0.9278594255
13.74818039 -27.44892311 1.993809581
13.56593609 -27.05316353 3.007973909
13.695714 -27.27023315 4.073184967
14.50557899 -28.79398155 5.379508495
6.935151577 -14.5123682 0.3391785622
11.62116051 -23.68040276 0.929712534
13.68010044 -27.53339386 1.998015046
13.46980858 -27.09138107 3.009742498
13.66517067 -27.43789291 4.090687275
14.4434166 -28.90153313 5.391900539
3.927514315 -8.47203064 3.283652782
6.888901234 -14.54483891 0.3403074443
11.52138805 -23.69068718 0.931791842
13.52972698 -27.4799881 1.995998502
13.42968082 -27.25061226 3.021720171
13.16991615 -26.69742584 3.995265007
13.33677197 -26.99111938 5.072341442
13.80757332 -27.87732315 6.305413246
3.89946723 -8.486264229 3.28441906
6.851166248 -14.5884676 0.3409597576
11.42028713 -23.68782616 0.9336802959
13.44129658 -27.53589821 1.998937488
13.32932854 -27.28120041 3.022876263
13.0301218 -26.64553452 3.98560977
13.32749462 -27.19972038 5.101473808
13.74214935 -27.98301697 6.319821358
3.869227886 -8.492879868 3.282897472
6.811419964 -14.62842274 0.3417281806
11.31846619 -23.68274689 0.9355416298
12.94223118 -26.77121162 1.964549303
13.22894001 -27.31140327 3.024020672
12.9184761 -26.6480751 3.982764006
13.27428818 -27.32368469 5.116722107
13.21282196 -27.1675396 6.146320343
13.80468941 -28.29612923 7.492247105
3.840713978 -8.502808571 3.282497168
6.763536453 -14.65212154 0.3430172503
11.21945953 -23.68261719 0.9374229312
12.89882278 -26.91104698 1.971308589
12.84466648 -26.76964951 2.976780891
12.80431652 -26.64480972 3.979239464
12.81367779 -26.63101006 4.998334885
13.04678249 -27.06535149 6.118669033
13.61835575 -28.1638298 7.450840473
3.830228567 -8.548668861 3.293905258
6.715577602 -14.67564964 0.3443018198
11.12234783 -23.68567467 0.9393136501
12.74969673 -26.83747673 1.968361378
12.72946262 -26.76410866 2.974973202
12.75803471 -26.77833557 3.99270153
12.70847607 -26.64522552 4.995825291
12.9373951 -27.07522392 6.113954067
13.21724319 -27.59459305 7.30297327
13.09146309 -27.30506897 8.320615768
3.769966602 -8.494843483 3.272684813
6.677967548 -14.72061348 0.3448901176
11.01753235 -23.67211533 0.9410805702
12.64236927 -26.84762383 1.96922946
12.67126751 -26.87459564 2.982996225
12.63764858 -26.76184273 3.987608671
12.64075565 -26.73544502 5.005780697
12.73635197 -26.89736366 6.071157932
13.11645412 -27.62624168 7.302055836
13.00612545 -27.36593628 8.327552795
3.770297527 -8.562953949 3.291407347
6.6384058 -14.7618742 0.3455930054
10.92243862 -23.67795181 0.9429665208
12.54036522 -26.8681221 1.970573902
12.51434994 -26.78211212 2.973884583
12.52275753 -26.75554848 3.983822584
12.52676964 -26.73115158 5.000346661
12.63983822 -26.93081284 6.071425915
12.91387558 -27.44846153 7.250231266
12.85689354 -27.29588127 8.297312737
3.765990734 -8.622533798 3.307322502
6.595208168 -14.79580021 0.3465240002
10.82658958 -23.68158913 0.9448264241
12.49184036 -26.99999237 1.97699964
12.30739975 -26.5827446 2.955780983
12.47857857 -26.89572144 3.998168468
12.35725594 -26.61045074 4.976008415
12.66952419 -27.22628403 6.124880314
12.81369114 -27.47901535 7.249272346
12.89194489 -27.60550308 8.375124931
3.6919806 -8.538766861 3.276506424
6.539933681 -14.8042717 0.3482531607
10.72828007 -23.67941284 0.9466351867
12.37745285 -26.99462128 1.977177501
12.07118416 -26.3174057 2.93215251
12.4002676 -26.96589661 4.003885746
12.21256161 -26.53890991 4.95977211
12.5219717 -27.15468597 6.103934288
12.7446003 -27.57442665 7.264139652
12.66491222 -27.37211418 8.298736572
3.690744638 -8.605154037 3.294674158
6.494822979 -14.83426666 0.3492910266
10.63096428 -23.67863846 0.9484420419
12.32532978 -27.12078285 1.983358622
11.98985767 -26.3755188 2.93584919
12.06139851 -26.48389244 3.941550732
12.18593407 -26.7154026 4.983940125
12.35826397 -27.04681015 6.075763702
12.81044197 -27.95571709 7.34837532
4.035052776 -9.411988258 3.19918561
3.615011454 -8.515605927 3.262140989
6.451252937 -14.86774826 0.3502121866
10.53463554 -23.67927551 0.9502475262
12.16445351 -27.01504135 1.97896862
11.9031992 -26.42253113 2.938626528
11.9372263 -26.45185852 3.934788465
12.16996956 -26.91710091 5.012198925
12.22217178 -26.99513245 6.059074879
12.35676098 -27.23596001 7.165798187
3.975410938 -9.362792015 3.182098389
3.575898647 -8.502029419 3.254384518
6.410862923 -14.9083643 0.3509039879
10.43509769 -23.67224503 0.9519866109
11.83028221 -26.53111649 1.95731926
11.89501381 -26.63940239 2.955730677
11.81845093 -26.43009186 3.929336548
12.06702709 -26.9340992 5.010482788
12.20087814 -27.18908501 6.092052937
12.38025284 -27.52842712 7.228613853
3.94315362 -9.371243477 3.18137908
3.555579185 -8.528273582 3.259586334
6.364512444 -14.94270039 0.351883471
10.33656502 -23.66661835 0.9537237287
11.81131077 -26.72665596 1.966680765
11.94025517 -26.97619247 2.982933521
11.81432533 -26.65712738 3.954521179
11.87327099 -26.75290871 4.976703167
12.07809258 -27.1651516 6.081098557
12.43467999 -27.90515137 7.311306
3.919810057 -9.398929596 3.186118603
3.533506155 -8.550987244 3.263660669
6.314727306 -14.96958351 0.3530852199
10.24076843 -23.67697144 0.9556555748
11.66538525 -26.65684319 1.96395576
11.88640499 -27.11229134 2.993183136
11.69323349 -26.64218903 3.949834347
11.76981163 -26.77804375 4.976225853
11.98120022 -27.20899582 6.083577156
12.3341217 -27.94846916 7.313427448
3.87228179 -9.377887726 3.176986694
3.503582239 -8.560285568 3.263256311
6.398880959 -15.29113007 0.3451204002
10.14008904 -23.66504669 0.9573225975
11.57328606 -26.70482063 1.966615677
11.72927475 -27.00798988 2.983281374
11.59767723 -26.68290901 3.95202446
11.98892689 -27.51898575 5.091546535
11.82969475 -27.11952782 6.059607506
11.54324722 -26.45121765 6.944753647
3.847216368 -9.401842117 3.180727243
3.485280991 -8.59158802 3.270148993
6.214934826 -15.00310516 0.3557940423
10.04760361 -23.66010284 0.9589433074
11.42346096 -26.59873772 1.96219492
11.63677311 -27.03388977 2.984410286
11.64378548 -27.0169735 3.990489006
11.56385803 -26.80500412 4.972084999
11.65145493 -26.95545959 6.02105999
11.48820496 -26.55684662 6.963222504
3.816392422 -9.409153938 3.179955721
3.47052598 -8.627505302 3.278701544
6.051386356 -14.75615597 0.3651266396
9.956100464 -23.66752815 0.960734129
11.36388302 -26.69493294 1.967024326
11.5090704 -26.99214363 2.979819298
11.47488594 -26.86987114 3.969956636
11.46469212 -26.81408501 4.969589233
11.50333595 -26.86804771 5.997742653
3.763842583 -9.382863998 2.826825857
3.776205778 -9.399305344 3.174245834
3.460442305 -8.678032875 3.291806459
5.905416012 -14.55151272 0.3731889427
9.86389637 -23.67274857 0.962498188
11.27129555 -26.72887993 1.969036818
11.25567245 -26.66110611 2.950957298
11.39900684 -26.94421577 3.976475954
11.32056904 -26.73233604 4.952291965
11.28957367 -26.62861443 5.944067001
3.735585928 -9.399436951 2.828432083
3.749394894 -9.419426918 3.176984787
3.444623232 -8.716293335 3.300962925
5.789309502 -14.41869926 0.3790995181
9.770964622 -23.67577171 0.9642359018
11.16037273 -26.72031403 1.969109535
11.20667839 -26.79529572 2.961196423
11.03813839 -26.36188507 3.902672768
11.21416283 -26.73521042 4.948705673
11.18350697 -26.63155556 5.939095497
3.668334484 -9.330594063 2.809451103
3.679136276 -9.340025902 3.151860237
3.421667814 -8.738714218 3.305037975
5.695318222 -14.33491707 0.383482188
9.66947937 -23.66906357 0.9659721851
11.0679512 -26.7664814 1.971716046
11.04946804 -26.69128036 2.951409578
10.9381752 -26.3874054 3.903211355
11.14085388 -26.82683945 4.959257126
11.09090996 -26.67755699 5.942532539
3.601649761 -9.261372566 2.790452003
3.643319845 -9.342676163 3.149647236
3.398738146 -8.765179634 3.310276031
5.601255417 -14.24227619 0.3880046308
9.568151474 -23.66192627 0.96769315
10.9784565 -26.81967926 1.974651098
10.97802353 -26.78656387 2.958368301
10.94386578 -26.6613121 3.934126854
11.09179115 -26.97653961 4.979173183
11.26253319 -27.34396362 6.069968224
3.564575911 -9.255843163 2.786877155
3.632654428 -9.403961182 3.163858414
3.366602898 -8.770415306 3.308732748
5.511738777 -14.15837479 0.3922283649
9.474071503 -23.66007614 0.9693596959
10.89401627 -26.87251854 1.977552891
10.93915558 -26.94779778 2.970918655
11.01004028 -27.07109451 3.981734276
10.95344925 -26.90369034 4.963555813
11.14899921 -27.33394623 6.062479973
3.503261089 -9.192583084 2.769532919
3.626110792 -9.47178936 3.180030346
3.360557079 -8.833239555 3.325805902
5.426687717 -14.08325195 0.3961554766
9.384695053 -23.66894531 0.9711023569
10.79862118 -26.89924431 1.97926414
10.86482143 -27.02622604 2.976539612
10.9030447 -27.07252502 3.979498148
10.86068058 -26.93793297 4.965196609
11.07508183 -27.4178524 6.073791981
3.489178181 -9.240711212 2.778849363
3.601164818 -9.496798515 3.184253216
3.334815741 -8.850122452 3.328183413
5.339957714 -14.00214958 0.4002266526
9.302927971 -23.69598007 0.9729839563
10.95323372 -27.53361702 2.008845806
10.76730633 -27.04912949 2.977525711
10.7847929 -27.04597855 3.973889112
10.90376472 -27.30097771 5.019592285
11.0698719 -27.668787 6.118405819
3.466576576 -9.268992424 2.783434391
3.528584719 -9.40723896 3.156583071
3.327392817 -8.911211967 3.344699621
5.265088558 -13.94840813 0.4034577012
9.286261559 -23.88405418 0.9761812091
10.62575912 -26.99606514 1.984692931
10.66448021 -27.05875397 2.977419138
10.72097683 -27.15139008 3.984393358
10.85905361 -27.45588875 5.040599823
11.03845024 -27.85993195 6.151095867
3.452709436 -9.318903923 2.793186426
3.469930172 -9.349529266 3.137865305
3.288934469 -8.897831917 3.337460041
5.19362545 -13.90173054 0.4064546227
9.262452126 -24.05743027 0.9792740941
10.52705097 -27.01440048 1.986036777
10.55576134 -27.05318451 2.976060867
10.66623878 -27.2806263 3.997814894
10.90546227 -27.83819008 5.098005295
10.91196251 -27.81968689 6.13779068
3.434859514 -9.359772682 2.800788641
3.442366362 -9.366873741 3.140074968
3.245546579 -8.871846199 3.326251507
5.135046005 -13.88632202 0.4085138142
6.156161308 -16.44902992 0.9174084663
10.4253788 -27.02494049 1.987027884
11.84780216 -30.55233574 3.267899275
10.38841152 -26.85444832 3.943706274
10.72998238 -27.67390633 5.067967415
10.83499813 -27.90118217 6.148746967
3.414582968 -9.395180702 2.807100058
3.409667253 -9.371548653 3.138790846
3.206682682 -8.85633564 3.318430901
5.063525677 -13.83715153 0.4115372598
9.232713699 -24.45850563 0.9859617949
10.30615616 -26.99048424 1.985957146
10.40774536 -27.21503258 2.987872124
10.41166973 -27.17862892 3.980895519
10.67908287 -27.81950378 5.08753109
10.7466774 -27.95505905 6.154263496
3.422258854 -9.501320839 2.830222845
3.379837513 -9.383300781 3.139498711
3.167260647 -8.838868141 3.310037136
4.976513386 -13.74662685 0.4157328606
5.899235725 -16.10935783 0.9167334437
10.25132275 -27.11928177 1.992391825
10.33819389 -27.30864525 2.994861603
10.35295486 -27.29977608 3.99340868
10.59839535 -27.89140701 5.095347404
3.581252337 -10.01015663 2.592714071
3.383429527 -9.49132061 2.825762749
3.345703363 -9.384139061 3.137209415
3.141386032 -8.855122566 3.312396288
4.910236359 -13.70792389 0.418399632
6.005971909 -16.5461998 0.9215447307
10.21953773 -27.30950165 2.00165987
10.31059265 -27.51180077 3.011018038
10.1676712 -27.09661674 3.966580629
10.50225735 -27.92436028 5.09698534
3.535705328 -9.987697601 2.586570501
3.470263481 -9.803215981 2.897640944
3.317947149 -9.401077271 3.13940835
3.137783527 -8.928459167 3.332881689
4.833662987 -13.64087105 0.421857655
5.493215084 -15.36118603 0.9124110937
10.11577415 -27.31509399 2.002448559
10.15106392 -27.3743763 2.998735666
10.05950165 -27.08912849 3.96355319
10.26257801 -27.58399963 5.039183617
3.498838425 -9.987060547 2.584774971
3.446686506 -9.835227966 2.903118849
3.311744928 -9.473931313 3.157085657
3.143399477 -9.026907921 3.361307859
4.769551277 -13.60526466 0.4243883193
5.404725552 -15.27916718 0.9127036929
10.22240543 -27.87521935 2.028758526
10.11781883 -27.56613731 3.013967514
9.983259201 -27.16480827 3.970641613
10.1788063 -27.64535904 5.045482159
3.463423967 -9.98995018 2.583700657
3.377654791 -9.748596191 2.880541086
3.29400897 -9.517897606 3.166777611
3.147665739 -9.123702049 3.389178991
4.707841396 -13.57498646 0.4267461002
5.35730648 -15.3054285 0.9139288068
10.04813004 -27.69737816 2.021123886
9.968412399 -27.45185471 3.00366354
9.883535385 -27.17888832 3.970293283
10.04941177 -27.58612633 5.032632351
3.427338362 -9.9908638 2.582258224
3.332735062 -9.723707199 2.872624636
3.256133556 -9.509319305 3.161982298
3.103051901 -9.093278885 3.376808643
4.63867712 -13.53023243 0.4295683503
5.309776306 -15.33153248 0.9151502252
5.497116566 -15.71838379 1.469977379
9.993525505 -27.80412674 3.032315731
9.775753975 -27.18498421 3.968911409
9.961322784 -27.63568497 5.037143707
3.381659508 -9.965842247 2.575722218
3.301525593 -9.73942852 2.874237537
3.220233679 -9.51020813 3.15971446
3.027049541 -8.978237152 3.337775946
4.579613209 -13.50501156 0.4317418337
5.019595146 -14.69872761 0.9105470181
5.382170677 -15.57331371 1.463616848
9.836212158 -27.68137741 3.021309614
9.685028076 -27.22253036 3.971470118
9.842311859 -27.61613464 5.030552387
3.330532789 -9.930122375 2.567031145
3.275857449 -9.765462875 2.878404379
3.159677505 -9.439570427 3.137908697
3.041139603 -9.10785675 3.375895977
4.520099163 -13.47765446 0.4339576364
5.221990108 -15.41240788 0.9178929329
5.253853798 -15.37972927 1.455000997
9.773808479 -27.80164146 3.030631781
9.614538193 -27.31579208 3.980793238
9.745882988 -27.6427021 5.031504154
3.260388851 -9.836312294 2.547014713
3.311069489 -9.958320618 2.921902418
3.106311321 -9.386803627 3.121088028
2.882818937 -8.765389442 3.265346289
4.464186192 -13.45945168 0.4358984232
5.078769207 -15.17052364 0.916685164
5.135063648 -15.20800018 1.447387457
9.663478851 -27.79045296 3.029009342
9.736725807 -27.94548416 4.054948807
9.654084206 -27.68195534 5.034511566
3.220327854 -9.823513985 2.542992592
3.082370043 -9.413882256 3.126265049
2.851824284 -8.766285896 3.263134956
4.404469967 -13.42969608 0.4381455183
4.975830555 -15.03723145 0.916428566
5.123817921 -15.3350153 1.453553438
9.564029694 -27.80887985 3.029875755
9.668617249 -28.05404091 4.066123962
9.633210182 -27.92025375 5.069103241
3.197583675 -9.85870266 2.548430681
2.9632411 -9.186754227 2.736494541
3.072636843 -9.481004715 3.142450809
2.81503582 -8.750816345 3.255810022
4.346985817 -13.40534401 0.4402239025
5.077335358 -15.36408615 1.455206037
9.631183624 -28.30096817 3.070221901
9.585345268 -28.12121582 4.072325706
9.781134605 -28.64189911 5.180228233
3.165469885 -9.867878914 2.548769951
2.923033953 -9.165670395 2.729790926
3.074109316 -9.581015587 3.167651892
2.802107334 -8.802063942 3.269487619
4.287137032 -13.37317562 0.4425009489
4.755982399 -14.71986198 0.9153764844
5.026124954 -15.37979698 1.456245303
9.694354057 -28.79195976 3.110473394
9.518738747 -28.23692703 4.08440733
9.651246071 -28.58229446 5.167616367
3.130085945 -9.867658615 2.547283888
2.877853155 -9.129664421 2.71961689
3.03650713 -9.571493149 3.162823677
2.760932684 -8.773690224 3.258179426
4.235273838 -13.36346245 0.4441406429
4.663281441 -14.60572624 0.9152255654
4.937234879 -15.28571606 1.452214837
9.626554489 -28.91224861 3.119857073
9.457232475 -28.3694191 4.098531723
9.550274849 -28.60440063 5.167990685
3.105009079 -9.897045135 2.551625729
2.57768631 -8.355309486 2.536255836
3.0142169 -9.605725288 3.170008898
2.723754883 -8.755999565 3.250270605
4.178184032 -13.34479046 0.4460798502
4.57652998 -14.50627995 0.9151923656
4.88888073 -15.3085022 1.453585148
9.626010895 -29.23252487 3.145902634
9.573137283 -29.04148102 4.177585602
9.460101128 -28.65797424 5.173383713
3.074691057 -9.911472321 2.553049803
2.556479931 -8.383105278 2.541191816
2.953203678 -9.532339096 3.147670984
2.736490011 -8.883261681 3.287813663
4.120927811 -13.31756115 0.4481695294
4.479807854 -14.37413406 0.9148320556
4.849332809 -15.3660717 1.456583858
9.489095688 -29.11789513 4.184959412
9.403309822 -28.82722282 5.196931362
3.131048441 -10.18293381 2.604818344
2.543917418 -8.432605743 2.551298141
3.366422176 -10.85388374 3.506629467
2.708355427 -8.892661095 3.288428307
4.067941666 -13.29507065 0.4500465393
4.439013481 -14.40867329 0.9160344601
4.806953907 -15.39910889 1.458420277
2.254029274 -7.691347599 1.352478743
9.372055054 -29.09600639 4.180530548
9.61336422 -29.76822853 5.342576027
3.101562977 -10.20305443 2.607352018
2.504531622 -8.398336411 2.541877508
2.796248674 -9.260099411 3.069264889
2.63571763 -8.769236565 3.247538805
4.012999535 -13.27306652 0.4519610107
4.457333565 -14.62569618 0.9189834595
2.208897114 -7.642430305 1.099649906
2.212860823 -7.646104336 1.348581195
10.77990341 -33.69500351 4.732040882
9.589388847 -30.03626251 5.381800652
3.564371824 -11.71714783 2.901975155
2.469598293 -8.38100338 2.536378384
2.834287643 -9.473758698 3.125554323
2.762283325 -9.244274139 3.393711329
3.964363813 -13.26986885 0.453351289
4.356858253 -14.47739029 0.9184342623
2.18656373 -7.653885841 1.100333691
2.179419756 -7.623415947 1.346565843
11.07815552 -35.00411606 4.887419701
9.537970543 -30.2254734 5.408601284
3.545869589 -11.78926468 2.914480209
2.443905592 -8.391360283 2.537377119
2.878673792 -9.711706161 3.188391447
2.722143888 -9.220953941 3.38410449
3.915195227 -13.26457596 0.4547860622
4.335446835 -14.5744772 0.9202418923
2.159308434 -7.650042057 1.100310206
2.158935785 -7.640450001 1.347858906
10.96960354 -35.07644653 4.894069195
9.42783165 -30.23579025 5.407243252
3.51606679 -11.82768822 2.920413256
2.406184196 -8.364466667 2.529698133
2.847659349 -9.721598625 3.189054012
2.668041706 -9.153674126 3.360836029
3.862523079 -13.24764252 0.4565209746
4.272763252 -14.54180241 0.9207897186
2.129091978 -7.636565685 1.099841118
2.136557341 -7.651720047 1.34867692
10.65403461 -34.49688721 4.822458744
9.320745468 -30.25512314 5.407355309
3.422882557 -11.66740799 2.887599707
2.376389027 -8.36158371 2.527652264
2.72776413 -9.45287323 3.113941908
2.676297426 -9.279720306 3.397873402
3.808246613 -13.22476292 0.4584002495
2.095422268 -7.611518383 1.098835826
2.093297243 -7.596316338 1.343958259
10.54581738 -34.56403351 4.828591824
10.82322598 -35.4053154 6.214535236
3.384486198 -11.67732334 2.888033152
2.350742817 -8.371623039 2.528640509
2.684860229 -9.42162323 3.103535175
2.66349721 -9.341926575 3.4150033
3.753205299 -13.20613384 0.4602129757
2.052533388 -7.55576992 1.096405625
2.017505407 -7.434016705 1.33036375
10.44135189 -34.66490936 4.838713646
10.51136971 -34.82675934 6.120268345
3.33556962 -11.65330219 2.881878138
2.336487055 -8.422992706 2.539206982
2.705694914 -9.599524498 3.149885654
2.30852437 -8.307742119 3.091109276
2.010120153 -7.583480835 0.366486609
3.704523325 -13.20002174 0.4616163969
1.98657155 -7.484447956 0.8531141281
2.023456097 -7.547939301 1.096206784
1.978940725 -7.38950491 1.32656467
10.33060646 -34.72566986 4.844150543
10.1480999 -34.08558655 6.000469685
3.30760026 -11.69675064 2.888888359
2.307175875 -8.421697617 2.537587404
2.646080017 -9.514438629 3.124911785
2.292008162 -8.346810341 3.101335287
1.977746964 -7.559850216 0.3688956797
1.974475265 -7.536193371 0.612377882
1.958446145 -7.474086761 0.8534183502
1.994480371 -7.531637192 1.095599532
1.953359485 -7.386803627 1.326244235
2.041958332 -7.672348499 1.599220634
10.02379417 -34.07339478 5.995633602
3.248052835 -11.63662624 2.875764847
2.283192158 -8.432972908 2.538977861
2.608839273 -9.495287895 3.11797452
2.27468729 -8.384018898 3.110992908
1.952339411 -7.554891109 0.3700720966
1.939499617 -7.502765179 0.613915503
1.933807135 -7.475121021 0.8538337946
1.969596982 -7.532797337 1.095812201
1.930666089 -7.393557549 1.326713681
2.001835108 -7.620017052 1.592612982
9.956072807 -34.2709465 6.023613453
2.257488728 -8.45835495 2.256525755
2.261192322 -8.455784798 2.543001652
2.367362261 -8.799599648 2.927656889
2.262651205 -8.439557076 3.126349926
1.928057194 -7.557841778 0.3707880676
1.911464572 -7.492217064 0.6148410439
1.910854578 -7.481824875 0.8543045521
1.939669728 -7.516608715 1.095219135
1.910754561 -7.409797192 1.327975154
1.978295088 -7.626928329 1.593096972
9.831748009 -34.28061295 6.022151947
2.23484993 -8.479325294 2.259634972
2.243482828 -8.493513107 2.550503016
2.28298521 -8.616532326 2.876458168
2.230634212 -8.42893219 3.12119627
1.910288095 -7.58791399 0.369845897
1.888482094 -7.498851776 0.6153100133
1.887878895 -7.488449097 0.8547731042
1.919882178 -7.534838676 1.096228004
1.887423158 -7.414488316 1.328281879
1.949748039 -7.616583824 1.591522455
9.696433067 -34.25183105 6.014720917
2.221976995 -8.534212112 2.269340992
2.212961435 -8.488105774 2.548003674
2.25745368 -8.62994194 2.878520489
2.198723555 -8.418175697 3.116036892
1.924384475 -7.727135658 0.3620518446
1.865952253 -7.511505127 0.6156498194
1.864886403 -7.494991302 0.8552392721
1.899987817 -7.553011894 1.097236276
1.865184665 -7.42292738 1.328904152
1.931064606 -7.644658566 1.594538927
9.580019951 -34.28714752 6.017394066
2.195171595 -8.541859627 2.269885063
2.156888247 -8.398534775 2.52595067
2.249790907 -8.710615158 2.898712158
2.180206537 -8.453336716 3.125126123
1.906492949 -7.754982471 0.3612151146
1.850950122 -7.546871662 0.615365684
1.847157717 -7.524893761 0.8559650779
1.872868419 -7.550297737 1.097281814
1.845550537 -7.445044041 1.33066237
1.910140753 -7.66088295 1.596159697
9.508205414 -34.50258255 6.048180103
2.177185297 -8.585728645 2.277421951
2.122534752 -8.3777771 2.519954681
2.188421011 -8.599171638 2.867073059
2.143337727 -8.429831505 3.115994453
1.882621646 -7.761608124 0.3616937995
1.875455379 -7.726808071 0.6113491654
1.838890314 -7.58528471 0.856988728
1.844276905 -7.537528992 1.096851707
1.855793476 -7.570501328 1.341004491
1.876319408 -7.631111622 1.592286825
9.44034481 -34.71439362 6.078562737
2.157084703 -8.617833138 2.282732725
2.090459585 -8.364391327 2.515693665
2.147210836 -8.556354523 2.854030848
2.114729881 -8.429789543 3.114243984
1.861854434 -7.779713631 0.3614537418
1.852701306 -7.737175465 0.6117240787
1.824985862 -7.626398087 0.8578161001
1.825838327 -7.56125164 1.09812367
1.83826077 -7.598061085 1.343225241
1.823762774 -7.532220364 1.580162287
9.421509743 -35.10917282 6.137586117
2.132077456 -8.632833481 2.284740925
2.080339193 -8.429897308 2.529714584
2.109422922 -8.524541855 2.843998432
2.101510525 -8.485057831 3.12960577
1.844588399 -7.811260223 0.3603780568
1.823181987 -7.722357273 0.6127409339
1.807713985 -7.655903339 0.8585242033
1.806213379 -7.581068993 1.099215746
1.821081877 -7.627503395 1.345606089
1.802095652 -7.544263363 1.581310511
9.343007088 -35.29429626 6.163831711
2.233937025 -9.114434242 2.377071142
2.059006929 -8.455872536 2.534594059
2.115209103 -8.651281357 2.876748085
2.076299191 -8.497797966 3.131846905
1.783620834 -7.660233021 0.8589677811
1.789561033 -7.612413406 1.100848079
1.805773377 -7.664611816 1.34862709
1.775231361 -7.537043571 1.580164671
3.028063774 -12.20490265 2.553608179
2.188799381 -9.061351776 2.365885735
2.030419827 -8.455400467 2.533374548
1.91033268 -7.998757362 2.699535847
1.98417294 -8.262453079 3.057600737
3.174038887 -13.11650848 0.4766924679
1.761030078 -7.670282841 0.8594703674
1.772200346 -7.641791821 1.102391362
1.789215326 -7.697838306 1.351330042
1.777830124 -7.641140461 1.592319489
2.990946054 -12.22488689 2.555877924
2.176231146 -9.129695892 2.378204346
2.004865408 -8.466142654 2.534765959
1.890812039 -8.025882721 2.705564737
3.125484228 -13.10427761 0.478110522
1.741871953 -7.693817139 0.8601158261
1.74864006 -7.647921085 1.102850914
1.777952909 -7.752258301 1.355795026
1.75571835 -7.653038502 1.593468189
10.43644333 -40.979599 7.043505669
2.155281067 -9.167610168 2.384647608
1.989619255 -8.516457558 2.54531002
2.321928263 -9.762964249 3.51658392
3.079336643 -13.10984135 0.4791211784
3.378486633 -14.26890755 0.9310920238
1.731985688 -7.681068897 1.104575157
1.780165315 -7.860760689 1.364749312
10.25112343 -40.84121704 7.019031048
1.980914831 -8.609519958 2.276005507
2.000430346 -8.674843788 2.58073926
2.011341095 -8.706292152 2.88596034
1.876564026 -8.167484283 3.023702145
3.029042959 -13.08947659 0.480720818
3.303406 -14.17638874 0.9309015274
1.735863447 -7.801671505 1.110402822
1.762389064 -7.898141384 1.367806792
10.14552021 -41.094944 5.582240105
10.19707966 -41.24634552 7.079266548
1.951532722 -8.612849236 2.275815964
1.95678699 -8.617378235 2.566433668
1.825699806 -8.090384483 2.719141483
1.860070586 -8.215083122 3.036786795
2.98321414 -13.08638668 0.4818733633
3.24610424 -14.14315319 0.9313011169
1.734340668 -7.898817539 1.11513114
1.747036099 -7.940985203 1.371323705
10.01526737 -41.17232132 5.58999157
10.10621643 -41.48482513 7.113677502
2.499031544 -10.92375565 2.720819235
1.942909837 -8.677109718 2.579169035
1.807913184 -8.126673698 2.727691412
1.808208823 -8.117325783 3.005279064
2.941187382 -13.09867668 0.4826311469
3.195612907 -14.12661743 0.9318372011
1.704669237 -7.883462429 1.114596605
9.891235352 -41.32875061 4.139906406
9.861884117 -41.15665436 5.586692333
10.04588318 -41.85375977 7.168451786
10.13645077 -42.1364975 8.737970352
1.920246363 -8.702720642 2.584052324
1.77692318 -8.110311508 2.722121954
1.739924431 -7.944572449 2.950869322
2.898009062 -13.09669685 0.4836840928
3.138796091 -14.09293175 0.9322170615
1.68289113 -7.894888401 1.115308046
9.760499954 -41.40745926 4.146277428
9.707354546 -41.13461685 5.582681656
10.15108204 -42.88607025 7.326699734
2.417891026 -10.88878727 2.712177515
1.893731713 -8.70707798 2.584107399
1.748252869 -8.09728241 2.717532396
1.705135345 -7.909545422 2.938760519
2.854117632 -13.10090446 0.484626472
3.10323 -14.14858055 0.9335734844
3.16119051 -14.24230671 1.413123846
9.676277161 -41.68358994 4.169044495
9.857011795 -42.35893631 5.72729063
9.976340294 -42.80555725 7.311493874
2.386928558 -10.9142952 2.716150284
1.857220054 -8.675600052 2.575887918
1.726531506 -8.118318558 2.722043276
1.671511173 -7.878091812 2.927787542
2.807085037 -13.09131432 0.4859013259
3.063724995 -14.18855286 0.9347584248
3.177648783 -14.52367973 1.426683784
3.865577459 -17.451231 2.159753561
9.519785881 -41.57269669 5.632301807
9.817648888 -42.78978729 7.306446075
2.019844294 -9.50821209 2.44452095
1.802635312 -8.566069603 2.549751043
1.700242996 -8.120453835 2.721507072
1.66232574 -7.949080944 2.948261738
2.761479855 -13.08739662 0.4870252609
3.008931637 -14.16209698 0.9352042079
3.037046194 -14.12962818 1.408554196
9.430071831 -41.92080688 4.18853426
6.137514114 -27.54268265 3.960218668
9.662745476 -42.78884125 7.303773403
1.986087561 -9.499817848 2.442132235
1.768211007 -8.539916992 2.542821884
1.688824177 -8.186592102 2.738130569
1.626221538 -7.906216145 2.933848381
2.718552351 -13.09501553 0.4878550768
2.985291958 -14.27400398 0.9371910095
3.094714403 -14.60003376 1.431010008
9.316016197 -42.08359146 4.201982021
5.996742725 -27.35456085 3.937026262
9.377524376 -42.21268463 7.211720943
2.276141882 -10.91549778 2.713681698
1.742662668 -8.551678658 2.54462719
1.669639945 -8.220664024 2.746176004
1.601114154 -7.909893036 2.933729887
2.676462173 -13.10639095 0.4885846376
2.931746483 -14.25307751 0.9376926422
2.903795242 -13.96712017 1.401639581
6.040550232 -28.0450592 3.038027287
5.933918476 -27.50898743 3.954648972
9.256761551 -42.35296249 7.231173038
2.450325012 -11.8594389 2.894309998
1.717476487 -8.565260887 2.546867847
1.656596661 -8.283013344 2.761798143
1.59869194 -8.014447212 2.964511395
2.62545228 -13.08680725 0.4901122749
2.882175922 -14.24953461 0.9383844137
2.929809809 -14.30504894 1.417891622
3.628120422 -17.47802544 2.161917925
5.804993629 -27.38875389 3.939572573
9.102466583 -42.34419632 7.227515221
2.326554775 -11.48004055 2.820482731
1.703463912 -8.636227608 2.562250614
1.640988469 -8.341862679 2.776438236
1.584803462 -8.070415497 2.980420589
2.580884933 -13.08612537 0.491117239
2.83615303 -14.27369118 0.9394224882
2.839087248 -14.12228298 1.409682512
5.717526913 -27.49101639 2.992116928
5.685845852 -27.28636742 3.926693678
9.086250305 -43.0090332 7.328454018
2.266384602 -11.39041996 2.802364349
1.646532178 -8.504725456 2.531245947
1.609473467 -8.322878838 2.770341873
1.560715556 -8.08731842 2.98433423
2.536679983 -13.09746647 0.4918695688
2.797219753 -14.32069492 0.9406834841
2.828784704 -14.30215168 1.418520808
5.432792187 -26.60379601 2.918594599
5.593313694 -27.32826996 3.930980206
5.704117298 -27.79231453 4.963308334
2.218119383 -11.34434795 2.792687893
1.614410877 -8.49154377 2.527373314
1.5735811 -8.288896561 2.760219574
1.544605255 -8.135734558 2.997958183
2.493758917 -13.10429287 0.4926742911
2.770484447 -14.44056511 0.9428170919
2.758523703 -14.21066856 1.41460669
5.349696159 -26.67808914 2.924812078
5.728119373 -28.44055748 4.062624454
5.597829819 -27.77801323 4.959666252
2.171998024 -11.31575966 2.786356926
1.60609901 -8.584932327 2.547982454
1.54362011 -8.275323868 2.755627155
1.515083313 -8.128125191 2.994425297
2.45238328 -13.11881065 0.4932856262
2.717704535 -14.42269325 0.9433367848
3.170848846 -16.47349358 1.521655321
5.264288425 -26.71994972 2.928355217
5.377087116 -27.21458626 3.916223526
5.507146835 -27.81464577 4.96404171
2.138193369 -11.33667469 2.789590597
1.590086579 -8.643942833 2.560719013
1.525465488 -8.318493843 2.76619935
1.489626169 -8.133278847 2.994875431
2.405910254 -13.10768795 0.4945058525
2.636818171 -14.24915695 0.9420138001
5.195711136 -26.82317543 2.936998844
5.264578342 -27.13178253 3.905807257
5.402236938 -27.78119087 4.957583904
1.569044471 -8.679980278 2.568204403
1.515846133 -8.405248642 2.788405895
1.469602346 -8.158751488 3.001603365
2.363950968 -13.10775566 0.4954002202
2.612300873 -14.37214184 0.9441509843
2.801909685 -15.15768623 1.460421324
5.115398407 -26.8938694 2.942966461
5.166554928 -27.11867905 3.90370822
5.309626579 -27.7832737 4.95674324
2.258188248 -12.31877041 2.976418495
1.545349956 -8.696555138 2.57128644
1.49377346 -8.425339699 2.792891026
1.447768092 -8.182540894 3.00778079
2.322135687 -13.11986732 0.496045351
2.5791049 -14.45385742 0.945815444
3.021165609 -16.56210136 1.52715683
4.986270428 -26.71379089 2.928155422
4.989066601 -26.66941833 3.849830866
5.189016342 -27.66559219 4.937314034
2.172397375 -12.09109497 2.932000637
1.518694758 -8.705659866 2.57263875
1.647930503 -9.357235909 3.040274382
1.422850847 -8.191220284 3.009371996
2.279165268 -13.12593937 0.4968267381
2.52665782 -14.4352417 0.9463078976
3.064157248 -17.08878326 1.552499413
4.904486179 -26.77599144 2.933452368
4.895089626 -26.66703033 3.849071503
5.053022861 -27.46193886 4.904611111
1.579513073 -9.192715645 2.375971556
1.494560242 -8.728090286 2.57705617
2.0819664 -11.7878294 3.686579466
1.397529602 -8.197933197 3.010387659
2.238698483 -13.14562988 0.497277081
2.486251354 -14.48134518 0.9475569725
2.854763985 -16.27631569 1.514555454
4.767669201 -26.54396629 2.914363384
4.802658081 -26.67211342 3.849228621
4.760374546 -26.4102459 4.740549088
1.555096269 -9.223229408 2.381280899
1.468127012 -8.738940239 2.57884264
2.092176676 -12.05354309 3.75608182
1.372178435 -8.20456028 3.011401176
2.195646286 -13.1514082 0.4980501235
2.422241926 -14.39741421 0.947268486
2.880831003 -16.72446632 1.536210537
4.665082932 -26.48975945 2.910037756
4.738806248 -26.83319473 3.867945433
4.683737755 -26.49655533 4.752920628
2.109735727 -12.41454983 2.991763353
1.451158762 -8.801520348 2.592466593
2.045933008 -12.02259922 3.746622562
1.353043318 -8.245015144 3.022736073
2.148084879 -13.1314373 0.4994218647
2.375124693 -14.40577698 0.9480643272
2.832905054 -16.77569008 1.53910327
