# .PCD v0.7 - Point Cloud Data file format
VERSION 0.7
FIELDS x y z
SIZE 4 4 4
TYPE F F F
COUNT 1 1 1
WIDTH 1327
HEIGHT 1
VIEWPOINT 0 0 0 1 0 0 0
POINTS 1327
DATA ascii
-6.087391853 9.845618248 2.023846626
-6.1089921 9.998054504 2.373208046
-6.122336388 10.12465096 2.731925488
-6.207746506 10.50356007 3.157934666
-6.03922081 9.987686157 3.391376495
-6.36979866 11.2662487 4.112315655
-11.31667328 27.83834457 0.9332091212
-11.4440937 28.27669334 1.927279353
-6.165630817 10.16445541 1.716355085
-6.055666447 9.852847099 2.021870613
-6.075126648 9.999711037 2.370334148
-6.288292408 10.84027386 2.854761362
-6.102365971 10.25479412 3.100730419
-6.025643349 10.06250763 3.40607667
-6.242875099 10.9441967 4.013776779
-11.1629734 27.63910675 0.9295539856
-11.34313965 28.28515625 1.921258926
-6.123494148 10.13302422 1.711933017
-6.033635616 9.894447327 2.023434401
-6.030619621 9.963056564 2.362144232
-6.008583546 9.958551407 2.695875168
-6.196110249 10.90354824 3.997338772
-11.88178635 30.5369339 0.9053828716
-11.23992443 28.26688004 1.91476965
-6.089692116 10.13646507 1.709717155
-6.373764038 11.24000835 2.158470869
-5.945831299 9.772871971 2.332819223
-5.966627598 9.929507256 2.687387705
-6.03929615 10.27491283 3.097507477
-6.407189369 11.7342968 3.81735754
-6.153850079 10.88552475 3.987278461
-11.08176136 28.06936836 0.9163662791
-6.737068176 12.49992466 1.442710996
-5.996296883 9.924320221 1.693336129
-5.906068802 9.749063492 2.326549292
-5.933113575 9.93074131 2.684258223
-6.114323616 10.68724346 3.181380749
-5.959742546 10.19642639 3.427521467
-6.154228687 11.02943897 4.024024963
-11.64261246 30.47694016 0.8944153786
-5.950126648 9.879164696 1.688012481
-5.920267582 9.843696594 2.010335207
-5.957382679 10.06399441 2.367153883
-5.921394825 10.01380348 2.695477247
-6.181020737 11.07939911 3.260668993
-5.943062305 10.26558781 3.440720081
-6.149303436 11.156703 4.055879116
-11.5005846 30.34158325 0.8899905682
-5.994946003 10.08751297 1.367269397
-5.892362595 9.783258438 1.679528475
-5.819023609 9.670268059 2.309814215
-6.080246449 10.74313164 2.819739342
-5.955006599 10.35521221 3.103168011
-6.155405045 11.22720242 3.676552773
-6.063529015 10.96247578 3.995393991
-11.42795181 30.48129082 0.8833232522
-5.845000744 9.729920387 1.673753262
-5.798629761 9.635482788 1.983990788
-5.800999641 9.720323563 2.313968897
-5.834774971 9.935185432 2.675303221
-5.927118301 10.3769455 3.104195595
-6.090875149 11.22043991 4.064793587
-11.24917793 30.22253036 0.879601419
-5.943182945 10.14494705 1.364873409
-5.821805 9.767115593 1.673875213
-6.225848675 11.40032768 2.159668207
-5.808774471 9.87829113 2.332782745
-5.84174633 10.0945549 2.699780226
-6.291601658 11.9606781 3.434765339
-5.946660042 10.69143486 3.534665823
-6.082226276 11.34033489 4.094397068
-11.13281345 30.19512558 0.8741993308
-5.894821167 10.09154987 1.361278653
-5.823822498 9.902827263 1.680338502
-5.757432938 9.728775978 1.988283753
-5.749724865 9.776978493 2.315995932
-5.782824516 9.995847702 2.679356337
-5.894845486 10.53746605 3.130388021
-5.899701595 10.65550613 3.521380424
-5.788177967 10.2921381 3.789449215
-11.06135082 30.36228943 0.8669928908
-5.887016296 10.20100307 1.362202406
-5.823821545 10.04100895 1.686783791
-5.73740387 9.866193771 2.325187445
-5.765632629 10.06956387 2.688741922
-6.286187649 12.28199863 3.493507385
-5.91150713 10.85325527 3.56627202
-5.741255283 10.24853039 3.772496223
-10.97431374 30.45046425 0.8606461883
-5.853118896 10.2035017 1.360194802
-5.691067219 9.72532177 1.982847691
-5.712784767 9.901130676 2.327084541
-5.863348007 10.61047745 2.779044867
-5.969585896 11.14337063 3.250126839
-5.87864399 10.86964512 3.566171169
-5.718880177 10.29994106 3.782955885
-10.91708279 30.6380043 0.853729248
-5.822618008 10.21945667 1.358565211
-5.709008217 9.84363842 1.669669271
-5.63942337 9.735589981 2.301711798
-5.588883877 9.785669327 3.294536352
-6.111195564 12.12846279 4.30009222
-10.83004093 30.70896149 0.8477341533
-5.662391663 9.781183243 1.663554549
-6.329908848 12.63938808 2.267831326
-5.6179986 9.775634766 2.304498196
-5.671996593 10.08905029 2.68280673
-5.633061409 10.01959038 3.007483482
-6.092549801 12.21841621 4.320967674
-9.819366455 26.99065781 0.8742217422
-5.634692192 9.802364349 1.662653446
-5.611763 9.881261826 2.316157818
-5.631932735 10.06228924 2.675041914
-5.599093437 10.01779079 3.003683567
-5.665066719 10.39967346 3.438608885
-6.010335445 12.03811264 4.264770508
-9.728480339 27.0330162 0.8686212301
-5.679876804 10.04656124 1.347790241
-5.593857765 9.775259018 1.65860045
-5.544497967 9.648703575 1.965384483
-5.479266644 9.458362579 2.256093979
-5.540331841 9.81652832 2.629594326
-5.550596237 9.95889473 2.987845659
-5.649032593 10.49151421 3.457155704
-10.10704041 29.05607224 0.8453415632
-5.652782917 10.08177853 1.346619844
-5.559308529 9.767055511 1.655867457
-5.552615643 9.830924988 1.980787039
-5.450590134 9.477385521 2.25587821
-5.514032364 9.845052719 2.631453753
-5.524152279 9.989312172 2.990828514
-5.601392269 10.43482685 3.439413309
-5.483525276 10.00416279 3.678772926
-9.784956932 28.08789062 0.8491766453
-6.278267384 13.04521465 1.858500004
-5.505906105 9.762106895 1.971659064
-5.416563511 9.458853722 2.250882864
-5.627877235 10.49908257 2.740358114
-5.492393494 9.988654137 2.987529516
-5.419758797 9.750261307 3.268120289
-5.452598095 10.00738716 3.675996065
-9.734966278 28.30653954 0.8419393301
-9.671609879 28.02963257 1.817378521
-6.050057888 12.22918892 1.804728389
-5.540227413 10.05451488 1.998014092
-5.393780231 9.490540504 2.25265193
-5.612082958 10.5877161 2.752266169
-5.435032845 9.86909008 2.959602118
-5.385281563 9.740200043 3.262182713
-5.424857616 10.03350163 3.679522514
-9.703623772 28.61493683 0.8337589502
-5.790456295 11.2440834 1.740896583
-5.387374401 9.605844498 2.265482187
-5.611412048 10.7496624 2.776619196
-5.433477879 10.01612377 2.986801147
-5.533276081 10.60005569 3.468714237
-5.409471512 10.11994267 3.70007658
-9.661174774 28.88243294 0.8258640766
-5.567349434 10.29001427 1.34419477
-5.754826069 11.25407791 1.738970518
-5.364066124 9.645569801 2.268164635
-5.512414455 10.45033264 2.722522497
-5.394921303 9.990549088 2.978258371
-5.41657114 10.31974983 3.7525177
-5.817605019 11.60343838 0.9931052923
-5.533768177 10.29330158 1.3422364
-5.822816849 11.74808216 1.766801
-5.348230839 9.722117424 2.275748253
-5.479140282 10.45760441 2.720634699
-5.347521782 9.928667068 2.96211195
-5.699709415 11.36004734 1.740272403
-5.317949295 9.738775253 2.275208712
-5.476402283 10.62366199 2.74548173
-5.349679947 10.1026268 2.99475646
-5.238461971 9.656951904 3.228200197
-5.345959663 10.31723118 3.743920565
-5.752427578 11.56162643 0.6093056202
-5.741479874 11.6216383 0.9887446165
-5.66912365 11.27644348 1.362979412
-5.670118332 11.40101337 1.740231276
-5.471297741 10.55060577 2.033290386
-5.294612885 9.782222748 2.278362513
-5.310421944 9.969061852 2.631789446
-5.220438957 9.625 2.893224001
-5.190073967 9.579662323 3.205996037
-5.287298679 10.1896801 3.70437026
-5.642733097 11.32143021 0.9899783731
-5.638179302 11.30945206 1.361568213
-5.328821182 9.899810791 1.646638513
-5.434249878 10.5318737 2.029031038
-5.265207291 9.796433449 2.277637959
-5.258753777 9.86492157 2.611479759
-5.19156599 9.630979538 2.891587257
-5.154776573 9.551200867 3.196034193
-5.240455151 10.11076069 3.678755522
-5.695365906 11.64268017 0.602216363
-5.603626251 11.31509113 0.9880666137
-5.607664585 11.33612061 1.360102654
-5.318161964 10.010005 1.651138186
-5.369094372 10.37854862 2.011720181
-5.209567547 9.668121338 2.258225203
-5.12976408 9.363628387 2.524278879
-5.168539047 9.667681694 2.896263599
-5.133695602 9.597178459 3.20412755
-5.184833527 9.990229607 3.641419649
-5.583589077 11.27994633 0.6173100471
-5.659530163 11.78725243 0.9809242487
-5.270282269 9.934103966 1.644380212
-5.242646694 9.894190788 1.962869644
-5.181624413 9.687889099 2.258291245
-5.194798946 9.869795799 2.606636047
-5.307122707 10.57969856 3.07982111
-5.158005238 10.02310562 3.647042513
-5.547007561 11.28509045 0.6153512597
-5.79167366 12.66950321 1.388282418
-5.538586617 11.49900055 1.736147523
-5.175223351 9.710626602 1.942940116
-5.155029297 9.715366364 2.259376764
-5.16354847 9.875941277 2.604865789
-5.161462307 9.974900246 2.953060865
-5.090732574 9.706834793 3.224251032
-5.144162178 10.12995911 3.673299789
-9.546157837 32.53542328 0.741985023
-5.788174629 12.87386227 1.390727162
-5.631977081 12.19676304 1.775340557
-5.14342308 9.71070385 1.940640807
-5.111021996 9.64912796 2.248165369
-5.14286232 9.940225601 2.612842321
-5.541383743 12.27392292 3.418711424
-5.057685375 9.699324608 3.219283104
-5.131917953 10.25013638 3.703219891
-9.484140396 32.81372833 0.7327776551
-5.654688358 12.39248562 1.376586914
-5.207734585 10.12519932 1.649313807
-5.102949142 9.671775818 1.934529066
-5.082297802 9.664672852 2.247717381
-5.111366749 9.94618988 2.611059189
-5.051417351 9.854968071 3.253428698
-5.051908016 9.978684425 3.624197006
-9.476690292 33.39881516 0.7198777795
-5.638994694 12.54390812 1.377628684
-5.162386417 10.05851555 1.643182755
-5.083616257 9.740196228 1.938750029
-5.538777828 12.43465996 2.607027292
-5.080190659 9.953989029 2.60959959
-5.453150272 12.24855614 3.405865669
-5.025437832 9.891440392 3.259035587
-9.382545471 33.52565002 0.7122033238
-5.404615402 11.46478653 1.349767327
-5.136760235 10.09974194 1.643466592
-5.04454565 9.69875145 1.932552457
-5.05064249 9.971406937 2.609757423
-5.124586582 10.82028484 3.850772858
-5.356195927 11.26560879 0.6076117754
-5.356580257 11.4064703 0.9731240273
-5.305864811 11.12093163 1.339472175
-5.122869015 10.20974731 1.647786736
-5.024874687 9.758922577 1.936090827
-5.017735958 9.969264984 2.606676102
-5.104040146 10.76116467 3.461201429
-5.30134058 11.17580891 0.6100627184
-5.264437675 11.09371758 1.336679339
-5.0695858 10.0934248 1.638799667
-5.088616371 10.74586678 3.091006994
-5.055148125 10.68671036 3.439858437
-5.269228458 11.20358944 0.6070005894
-5.231152534 11.11151981 0.9728114009
-5.048735142 10.16590309 1.640896559
-5.022761822 10.14130497 1.967367649
-5.30704689 11.63680172 0.5845478177
-5.277626991 11.60050869 0.96479249
-5.028056622 10.23216343 1.64271462
-5.376039505 13.05235577 3.549934149
-5.240320683 11.60661316 0.9626843929
-5.003262043 10.56060219 2.346477509
-5.290948391 12.01380539 0.5626754761
-5.205818653 11.6303606 0.9603443146
-5.204304218 11.62274933 1.3400563
-5.049898624 11.42621994 3.215566874
-5.250640869 12.01000881 0.5609654784
-5.163831234 11.62105942 1.337664247
-5.015295029 10.80258656 1.669071913
-5.210833073 12.16786098 0.9490737319
-5.130729198 11.64236832 1.33600688
-5.165682316 12.13416195 0.9473935962
-5.202942371 12.38777351 1.349990606
-5.073377132 11.6845026 1.714852929
-5.073111057 11.61035824 0.5748496056
-5.134822845 12.19726562 0.9443928003
-7.764899254 30.37830353 1.73536396
-5.221783638 12.99678612 1.786937237
-5.101028442 12.45129395 1.753232002
-8.094666481 34.33445358 0.626470089
-5.069586277 12.32415485 1.341379523
-7.992703438 34.41479874 0.6192880273
-7.012616634 27.82208443 1.657999754
-6.929601192 27.91956711 1.654460549
-5.040220261 13.364645 1.353351235
-6.946476936 34.60794449 0.5588524342
-6.430589199 30.53154755 0.618934989
-6.373621464 31.02721977 0.6051486731
-6.256890297 30.90951157 0.601362884
-6.152629375 30.92282104 0.5954170823
-5.984324455 30.254282 1.630753756
-5.943606853 30.94436836 0.583588779
-5.99050808 31.53404617 1.648042798
-5.856563091 31.17988014 0.5737578869
-5.740898609 29.70647812 1.609566092
-5.740787029 31.06428719 1.627540231
-5.631725788 31.00187683 0.5653434992
-5.611226559 30.72692871 1.615672946
-5.689838409 33.43114853 0.5159717798
-5.50096035 30.64043236 1.60823679
-5.27852869 29.20919037 3.566092491
-5.458880424 31.51236725 0.5448517799
-5.395140171 30.6133976 1.601848483
-5.331473827 31.08944511 0.5470272899
-5.356127739 31.60167122 1.612731338
-5.35612011 33.36743927 0.4990778565
-5.13911438 31.53883553 0.5267509222
-5.067875862 32.365345 0.5049440265
1.292163849 37.58338928 9.211976051
1.444096923 37.79730988 9.25576973
1.108111978 33.86857986 9.611619949
1.248152733 34.03044891 9.650822639
1.079082727 35.25515747 2.518759489
1.103890538 35.12110519 1.303239107
1.181696773 34.76133347 1.294354677
1.271484017 34.33913803 3.650519371
1.086136222 32.52618027 4.636002064
1.273867965 34.60508728 1.287381649
1.348959327 34.62948227 2.475702763
1.193334341 33.03104401 3.546008348
1.34629488 33.55955505 4.747267246
1.271197915 33.80138397 1.276983261
1.325006962 33.18540955 3.553025484
1.394695759 33.15091324 4.697452545
1.388190269 33.80041504 1.270736098
1.586236 34.10248566 3.617355108
1.53112185 33.28954697 4.708542347
1.520595312 33.86142731 1.264487743
1.814622045 34.80423355 3.665390015
1.647061586 33.25595474 4.700257778
1.834317923 35.15880585 1.264788985
1.595518112 32.68277359 3.500050306
1.780978918 34.05571747 1.253193974
2.080613852 34.98678207 3.669155836
2.048181534 32.97875214 8.161226273
1.880421519 33.93844223 1.24638617
2.240199566 35.17517471 3.677964211
2.305137157 35.12434006 4.894934177
1.854032516 33.03474808 1.235982537
1.865568995 32.26741791 3.454591751
2.10965395 33.25437164 4.683229446
1.978165388 33.12136841 1.230543137
2.253259897 34.04006958 1.227979422
2.286258698 33.58760452 1.220341444
2.440184116 33.21955109 4.667609692
2.377753258 33.44326401 1.213636041
2.71940136 34.66174698 1.211485147
2.390187979 32.09012222 3.418716431
2.673053741 33.21976089 4.659736156
2.921617508 35.05744553 1.205985904
2.472058296 31.93078232 3.402417898
3.045581102 35.09298706 1.199931026
2.699512959 32.68493652 1.186859727
2.811335325 32.69760132 1.181158781
3.155479431 33.83007431 1.177795529
3.259732008 33.75576401 1.171378136
5.465717793 43.72138977 1.184891582
3.866510153 35.48205948 1.161983848
3.777783871 34.49059677 1.153819561
3.874580383 34.37323761 1.1472646
3.989015818 34.33758163 1.14085114
3.809379816 33.19977188 2.293708563
4.093960762 34.26058197 1.134406447
3.986840725 33.45677185 2.297926903
4.137616634 33.92020416 1.127766609
4.528817654 34.08043289 1.109557629
6.582709312 42.16998291 2.592582941
4.667789936 34.14742279 1.103232265
4.661471367 33.8330574 2.286053419
4.768151283 34.08138657 1.097207308
4.720607281 33.58366394 2.271845579
5.021532536 34.59720993 1.090726018
5.182663441 34.73778152 1.08421886
5.288446426 34.66085815 1.077796936
5.454857349 34.79089355 1.070899367
5.911629677 35.09231186 1.051305413
6.483837128 35.29001999 1.02458322
6.152681351 33.74280167 1.021966696
6.223154545 33.56134796 1.016100764
6.315078259 33.4753418 1.010350823
6.462684631 33.51204681 1.003320694
6.644442081 33.71771622 0.9966830015
6.770701885 33.72031403 0.9903232455
7.003400803 34.05799103 0.9827709794
7.134777546 34.07067871 0.9762930274
11.32614136 36.65911484 0.7992650867
1.000456572 11.69083023 1.416655302
1.138418913 11.961833 1.843816638
1.357744098 12.43426609 1.436789155
1.044929504 11.6287899 1.820402026
1.042247772 11.51941967 1.812105894
1.054425716 11.56808186 1.003841877
2.286183119 14.32351494 0.9762947559
1.239861369 11.65866375 2.64825058
1.451144576 12.21818733 1.423988581
2.383712053 14.29848194 0.9712349176
1.97030735 13.28730774 1.452802062
1.002564311 11.05155563 0.6118308306
1.031464577 11.12217712 0.9996848106
1.059241056 10.98878002 0.60952425
1.007116556 10.87887764 0.9980077147
1.080964804 10.98689461 1.382925034
1.449578404 11.74405956 1.820724845
1.111091018 10.9600172 1.380726933
1.113135576 10.91454887 1.764766574
2.598261833 14.14722347 0.4489243031
1.183892131 11.02559757 1.3811059
2.643779755 14.1304636 0.4463836253
12.5217371 35.40597916 0.7261311412
1.248668551 11.0771246 1.381152987
1.217021108 10.90167713 2.150635958
12.60197163 35.28022766 0.7207805514
1.387908936 11.28571892 1.385506153
2.735280275 14.09176826 0.4413680136
12.8105402 35.42737579 0.7124019265
1.775728941 12.00916767 1.403809547
2.789828539 14.08786201 0.4379897714
12.87656307 35.25650787 0.7072295547
1.823050261 12.00880241 1.402217865
1.059117436 10.36904526 1.724849463
1.022024035 10.24293137 2.081035376
12.9702034 35.14508438 0.701420188
1.793849111 11.84983635 1.396336555
1.167106509 10.50765991 1.733255029
2.870274544 14.0200758 0.4342374504
13.19947338 35.31409836 0.6923187375
1.843368649 11.85473824 1.394914627
1.25063324 10.59364796 1.738183379
1.127826452 10.24593925 2.450158119
1.037281275 9.924308777 3.50018549
2.917728424 14.00125408 0.431597352
2.919250011 14.01214218 0.9419448376
1.90358305 11.88095474 1.394064307
1.336523414 10.63259029 2.121656656
1.155033708 10.21936893 2.446870327
1.9498173 11.878232 1.392438293
1.495393991 10.91609573 1.75791204
1.438216925 10.75116348 2.134036303
3.030695438 14.0053606 0.4243301451
15.12865639 38.30535126 0.6339062452
1.956598282 11.80117893 1.38892293
1.375580788 10.54656887 2.112513065
1.471037507 10.59041119 3.284584522
1.359829783 10.32480526 3.614262104
13.79375839 35.3236618 0.6638586521
1.573265076 10.90174961 1.755545497
1.388355374 10.48890972 2.106426716
1.611081243 10.77897263 3.329148531
3.125517845 13.96638489 0.4190603495
13.83588505 35.10968018 0.6593967676
15.44387245 38.09643555 2.075364113
14.33872986 35.76715469 3.382802725
1.417178035 10.46315575 2.103704929
1.263689756 10.11842918 2.434647322
1.05654645 9.588466644 3.422749519
13.93317223 35.00623322 0.6535602212
14.42954445 35.80365372 2.010335445
1.284846544 10.17263699 1.706437111
1.4037081 10.35599804 2.092455626
1.318688393 10.14600849 2.439295292
1.123161674 9.641805649 3.439545393
14.09959412 35.03761292 0.6459566355
15.3117466 37.20934296 2.041900158
1.340169191 10.20030212 1.707597613
1.413547635 10.29492664 2.086059093
1.391473889 10.20668125 2.448765993
1.009773612 9.356463432 3.365673542
14.37715149 35.28116226 0.6354555488
15.7613306 37.76221466 2.05107522
1.361703992 10.11764526 2.067480803
1.93575573 11.15563297 2.587068796
1.258439779 9.837386131 2.757702827
14.44486713 35.11936951 0.630395472
18.62101173 42.8959465 2.177945375
1.316123724 9.998925209 1.693197846
1.374146581 10.06391144 2.061884642
1.901419878 11.01012135 2.56671977
1.099074841 9.466314316 2.690181255
1.066153288 9.324767113 3.362140656
14.47395515 34.9005661 0.6265417337
18.11062622 41.58272934 2.138551712
2.01629591 11.23461342 1.773066282
1.319759965 9.88993454 2.043678522
1.873560071 10.87450314 2.547848225
1.113300562 9.425294876 2.683825731
1.087986588 9.295577049 3.356896639
14.8117857 35.08463669 1.967897058
1.366480231 9.94510746 1.688517213
1.343471408 9.859251022 2.040530443
1.894065976 10.82984447 2.542190075
1.155251741 9.431998253 2.686424732
1.316340327 9.641430855 3.452611685
3.523423672 13.96460629 0.9125077128
14.83102608 34.83605957 1.956856608
15.25300026 35.46659088 3.346816778
1.462347269 10.00337219 2.055749893
2.084920406 11.096632 2.581809282
1.156392932 9.364145279 2.675178528
1.154840827 9.279585838 3.35789752
16.55116272 37.71332932 2.024382591
1.412145019 9.879663467 1.683099747
1.532402515 10.05602169 2.061383486
2.04847002 10.94713783 2.560968399
1.180096626 9.337813377 2.671672344
1.163056731 9.226384163 3.346256018
14.70833397 34.21113205 0.60767591
16.28565598 36.92658997 1.999621391
2.175364494 11.18968296 1.767517447
1.550752997 10.01422691 2.057116508
2.060268164 10.88642025 2.553043604
15.00772953 34.4801445 0.5964784026
16.53216362 37.07624817 1.998338342
15.17270374 34.4776535 3.276180029
2.118325949 10.90878677 2.557229519
1.227120519 9.284964561 2.664682388
1.193123698 9.185266495 2.990559101
15.10620785 34.38212585 0.5907274485
16.64348793 36.98019409 1.990953445
15.60988903 34.98408508 3.306917667
2.243057251 11.04829311 2.578511477
1.267022491 9.287621498 2.666647911
1.156767845 9.055086136 2.962943077
15.25406933 34.37280655 0.5836311579
16.75694466 36.90301132 1.984314561
15.72951221 34.91944885 3.300685406
1.720478535 10.09310436 2.065864801
2.098697186 10.71752739 2.531237364
1.226523042 9.149640083 2.642349482
1.189049482 9.045970917 2.962981701
15.37856674 34.33481216 0.5773299336
15.2613678 33.97481918 1.907820821
2.373585701 11.20723915 1.766155481
2.111104012 10.66038799 2.523890257
1.296235323 9.207751274 2.654649734
1.878430247 10.17288494 3.223036766
15.4920187 34.2634964 0.571190536
15.42912579 34.00138855 1.903901219
2.404686689 11.18266392 1.763998389
1.742998362 9.988768578 2.05527997
16.51540756 35.43832016 6.142177105
1.329110861 9.198112488 2.654383898
1.951923013 10.18155861 3.622767448
15.38557816 33.65993118 1.891093493
16.09817886 34.75576782 3.284282684
1.806669354 10.02572441 2.059382677
2.728442192 11.5622263 2.657685518
2.012605429 10.25431919 3.246748209
1.874080539 9.976995468 3.570421696
4.035633564 13.92581177 0.8878529072
15.66037273 33.87067795 1.891644716
16.25225067 34.74977493 3.281992197
1.833392382 9.998768806 2.056783199
2.734328985 11.48775005 2.647954702
16.62095451 34.92985535 7.487362862
17.63546753 36.4824028 9.275770187
15.96777725 34.2821846 0.5489941239
15.63567829 33.56575775 1.879832983
3.393679619 12.61995506 1.854833245
2.556081057 11.14986229 2.178109646
4.278193474 14.00543785 3.01750493
16.8565979 35.05751419 7.51801157
18.31861115 37.34445953 9.484110832
16.1316433 34.29504776 0.541435957
15.80368233 33.60396576 1.876479864
16.32063484 34.33041 3.25129962
2.593789101 11.13232613 2.176566124
4.230876923 13.82839012 2.992998838
17.2224865 35.39891052 7.589035034
18.71503067 37.71672058 9.580285072
1.008248091 8.340337753 3.133083582
16.18401909 34.13169479 0.5372036695
15.89504433 33.49882889 1.869513988
3.533572435 12.66962242 1.856767297
4.309665203 13.85782337 2.998818159
17.36615181 35.38029861 7.592177868
1.421125889 8.995400429 2.966910839
1.030062199 8.318327904 3.12988472
16.28434944 34.03702164 0.5314751863
16.74000168 34.66426849 1.892631888
2.746653557 11.22914696 2.187401295
4.385457993 13.8865242 3.004494429
18.92555046 37.66873169 8.030644417
1.465684772 9.005336761 2.971591711
16.37540817 33.9403801 0.5261674523
16.88442612 34.63817978 1.887404799
3.562612772 12.53818226 1.8471421
17.36968231 35.1531601 4.707138062
4.443074226 13.8796463 3.00506711
4.148698807 13.34832859 3.448902607
1.525449634 9.042634964 2.982518673
16.53353119 33.92886734 0.5186473727
18.09805107 36.36717224 1.92291224
3.619791746 12.54089928 1.84673214
4.730693817 14.29866791 2.511507034
4.501777172 13.87421417 3.005886793
4.201446056 13.3324852 3.448699951
1.57035327 9.052099228 2.987181902
2.419802427 10.37542057 3.703674316
16.54267693 33.69842911 0.5157459974
14.48023701 30.20744133 1.776194453
3.69285512 12.57350636 1.848278284
4.763461113 14.2529707 2.50718379
4.549901485 13.85643005 3.004841566
3.633044243 12.33064651 3.261794329
1.609794974 9.05557251 2.990372896
2.459407091 10.36944008 3.705636263
16.63439941 33.60454178 0.5104597211
17.17234612 34.33372498 1.866841435
3.640878916 12.40384674 1.836876154
4.797069073 14.20889187 2.503051043
3.257403612 11.6923914 2.688090563
3.607763052 12.20705128 3.240790367
2.516331911 10.38695431 3.714309454
16.66180611 33.39471436 0.5069419146
17.27815819 34.24465179 1.860259533
3.636436462 12.30792332 1.8301934
3.624320984 12.19108963 2.762974024
3.67774272 12.23100758 3.247867584
16.83856201 33.42586517 0.499042064
17.45059586 34.26192856 1.856117487
3.604783773 12.16993523 1.820841074
4.07652998 12.86705303 2.362630129
3.620464087 12.05485535 3.217021227
2.549548149 10.33619785 3.29618907
19.05395699 35.9266243 10.78129292
17.47847748 34.19043732 0.4773879051
17.77097321 34.51158905 1.857211232
3.622589111 12.11153126 1.816600204
4.104245186 12.81898785 2.358110666
3.22633028 11.39814186 2.649067402
3.658199072 12.02872467 3.214642048
2.605796814 10.35175419 3.302897215
19.15455627 35.81700516 10.76576805
17.52792358 34.01233673 0.4732062519
18.05140495 34.69366837 1.85672915
3.623924255 12.02790928 1.810765266
4.156493187 12.80941582 2.357675552
3.296228409 11.42662716 2.654760361
4.880842209 13.77549744 4.105127811
4.676536083 13.40740204 4.567677975
4.766490936 13.81735897 0.8525429964
17.6285038 33.77738571 1.831756473
3.782824516 12.18943501 1.82059741
3.264665365 11.29836559 2.637318134
4.779830933 13.57844925 3.51514101
4.206532955 12.65037727 3.84647727
4.759681225 13.43970394 4.582083702
4.833137989 13.82203388 0.8495022058
17.95816231 34.036026 1.833028316
3.80470109 12.13733387 1.816801071
4.227306843 12.73789501 2.351336479
3.330220938 11.3198452 2.642029285
4.815246582 13.53678608 3.510280848
4.201947212 12.55519867 3.828206301
4.261368275 12.59494972 4.352659702
19.10427666 35.68507385 0.4177080095
17.65388107 33.31811523 1.812764287
3.865696907 12.14535999 1.816854239
4.363743782 12.85594654 2.364464521
3.379600048 11.31615162 2.643048525
4.912684441 13.58885956 3.523351908
4.242481232 12.52881622 3.826054096
4.923014164 13.76353645 0.8447300792
17.9027729 33.46359253 1.811784983
4.348177433 12.79151249 1.857572079
4.433963299 12.87188911 2.366824865
3.371153116 11.22914791 2.631663561
4.915130138 13.49752331 3.509073973
4.357287407 12.61314774 3.849933386
4.743274689 13.14116287 4.515296459
18.02164459 33.3972702 1.805951238
4.560918331 12.97669792 2.378584623
3.256790638 10.98118877 2.596469402
5.073634148 13.64375496 3.540127993
4.402582645 12.59733677 3.850174904
4.273855686 12.3583765 4.302145481
5.010248184 13.70589828 0.8401018977
18.08916664 33.26607895 1.798957348
3.881976843 11.92176056 1.801343918
5.264473438 13.93245316 2.480558634
3.642166853 11.48058128 2.672199726
5.07252121 13.54723454 3.524923563
4.323964119 12.39498615 3.806745291
4.340287685 12.37500095 4.31184721
5.081525326 13.72080994 0.8369695544
18.97258949 34.33761978 1.81759584
3.932625771 11.91431236 1.800468326
5.401409149 14.04218388 2.49296093
3.561763287 11.28358364 2.644610405
4.798030376 13.05589867 3.433755159
4.35306406 12.35656357 3.801676989
4.383503437 12.35304546 4.311081886
18.32312584 33.25907898 0.4285799563
19.03180122 34.17478561 1.809625864
3.993742466 11.92611313 1.800848007
4.219672203 12.21259212 2.299768448
3.538419247 11.17241955 2.629771233
4.895161629 13.10711288 3.4468472
4.561363697 12.57358837 3.857181787
4.502169132 12.43982601 4.340903759
5.197663784 13.70027447 0.8314114213
21.41959572 37.42638779 1.874062657
4.040012836 11.91160107 1.799547911
5.331346989 13.74557877 2.463205099
3.564007998 11.13341904 2.62568593
4.939871311 13.08148193 3.445223093
4.705111504 12.69423294 3.890108109
4.67621994 12.60421276 4.392713547
20.25052261 35.592556 0.3638978302
19.59845543 34.50498962 1.807641983
4.093078613 11.90676403 1.798875451
3.743550062 11.35803795 2.210551262
4.740940094 12.75023842 2.868766546
4.813771725 12.81108665 3.396444798
4.091439724 11.73195934 3.666592836
4.727009773 12.59063053 4.394601345
19.64920425 34.46250534 0.3799640238
19.52188683 34.14493942 1.795602322
4.130243778 11.87872887 1.796743751
3.777659416 11.32967758 2.208277702
4.758247375 12.68764591 2.861482382
3.892756939 11.41372967 3.129974604
3.75427866 11.17501926 3.538595915
4.503901958 12.1904707 4.287414551
20.01023674 34.7328949 0.3661590219
19.55404282 33.95712662 1.787465096
4.234892845 11.94710064 1.800741553
3.860928535 11.37129688 2.213464022
4.806359291 12.67354298 2.861362457
3.922474384 11.37862301 3.126169443
3.788224936 11.1513958 3.536799908
5.050779343 12.87834454 4.487307072
19.66122818 33.99611664 0.3746737838
19.96446991 34.30948257 1.790545106
4.232284546 11.86606026 1.795290709
3.909356356 11.36658859 2.213709831
4.263471127 11.82739449 2.736652374
3.871930361 11.1555748 4.005071163
19.60480881 33.68375015 0.3740974665
18.83246613 32.47503281 1.748616815
4.818974495 12.61571217 1.842502236
4.499129295 12.1209898 2.29480505
4.269552231 11.75995064 2.728448153
3.97089839 11.30110741 3.116911173
4.406671524 11.86384106 3.714682341
3.937805414 11.1758585 4.015825272
19.71092224 33.60367203 0.3684394062
20.02270889 33.91336823 1.773752213
5.350766659 13.22934532 2.413750648
4.139020443 11.49958134 2.691388369
4.023793697 11.30230045 3.12006855
3.987314224 11.16934109 4.019310474
20.19927025 34.04621506 0.3505819738
5.495290756 13.43661499 1.354263306
4.805189133 12.38490391 2.324706316
4.246349335 11.57414818 2.704512596
4.355485439 11.6820116 3.197045088
3.948789358 11.08335018 3.536683321
4.100829124 11.25345516 4.048394203
5.609003544 13.5512085 0.8110664487
5.531896591 13.39551449 1.351762891
5.01520586 12.63506794 1.842815161
4.357295513 11.6483736 2.717750072
4.283591747 11.50976944 3.166615963
4.297930241 11.44534206 4.108652115
5.656267166 13.51451302 0.8085467815
5.590510368 13.38020897 1.349708319
5.080482483 12.63461494 1.842490196
4.389487267 11.61028767 2.714232683
4.037525177 11.09266663 3.088838577
3.793012857 10.72337055 3.459018707
4.226937294 11.27040672 4.064613819
20.44072723 33.65410995 0.3356691599
5.638678074 13.35494995 1.347544551
4.198718071 11.31585979 2.213392973
4.410181046 11.56071854 2.708898067
4.124306202 11.13933945 3.10099864
3.806652308 10.67443848 3.451252699
4.259479523 11.23931408 4.06137228
5.588849545 13.24416256 0.8089328408
3.972503424 10.97519016 1.737055779
4.218297005 11.26680374 2.209087849
5.212750912 12.55761337 2.8617239
4.172958851 11.13048172 3.102524042
4.224889755 11.11946869 4.032697678
21.09016037 34.05470657 0.3101139367
5.270271778 12.67991161 1.330994844
5.473214149 12.91104603 1.859214425
4.186217308 11.14918804 2.19745636
4.004193783 10.86825848 2.608491421
4.146602154 11.02208138 3.084574223
4.176565647 10.98291874 3.999157667
21.26541519 34.04874039 0.302103579
5.276477337 12.60292244 1.327930689
4.701904297 11.79933071 1.788733721
4.229082108 11.13209057 2.19659996
3.998079062 10.78854465 2.598512411
4.241633892 11.07438183 3.098160982
4.218325615 11.00469208 3.544046402
3.773834944 10.3857584 3.832832813
5.862030506 13.29354954 1.3397367
5.565139294 12.85964584 1.855520129
4.373277187 11.24803543 2.210035563
3.939675331 10.64113426 2.578261375
4.325098038 11.110466 3.10863924
3.857045412 10.46293163 3.417332172
3.793702841 10.34390545 3.826196194
5.969038486 13.39171028 0.7931396365
5.899377346 13.25775433 1.33748734
5.18857193 12.2803812 1.818735719
4.309881687 11.09104824 2.194214344
3.944028139 10.58051872 2.571064949
4.105641365 10.71560097 3.483055353
3.730341911 10.19860935 3.789384127
5.930224419 13.20909119 1.334920883
4.006859779 10.66197109 1.716372609
4.260784626 10.95804977 2.180912018
3.987426758 10.56736183 2.571204424
4.196057796 10.76514339 3.499429703
3.829990387 10.25984478 3.81259799
6.065910339 13.34280586 0.7882865071
4.645686626 11.42057228 1.764128089
4.213843822 10.8257246 2.167730331
5.479778767 12.41560173 2.854933262
5.474675655 12.36581612 3.36714983
3.83192873 10.19927502 3.800301075
25.41395378 38.11448288 1.800636649
4.780563354 11.51826286 1.770156503
4.304370403 10.87409401 2.17394805
3.9915874 10.43872738 2.555843115
4.432470322 10.9658823 3.093695641
3.882638693 10.2328577 3.37856555
3.826663256 10.12685108 3.784826279
25.54839706 38.01992798 1.793947101
4.67828846 11.27748108 2.218518496
4.088828564 10.49382877 2.566478491
4.225440979 10.63361263 3.031347752
3.929775953 10.22595215 3.381370783
3.884314775 10.13376427 3.792466402
25.59340096 37.81179428 1.785177708
4.145012856 10.56733513 1.709929705
4.45420599 10.92133141 2.181253672
4.086313248 10.42256546 2.557830095
4.149466515 10.46961308 3.002258778
3.99416399 10.24028301 3.389431953
4.123138428 10.36517429 3.865783215
24.17261124 35.75874329 1.74246347
4.156249046 10.51262474 1.706389189
4.169147015 10.45830727 2.565590858
4.471512794 10.80196476 3.07194519
4.213077068 10.44527721 3.444394588
4.063901424 10.22549057 3.830791473
25.99232864 37.78643417 1.774966002
4.674676418 11.09058094 1.742767215
4.208631516 10.43952847 2.565032005
4.225888252 10.42908287 3.001219988
4.276023388 10.45536423 3.451653242
4.034630775 10.12408161 3.806927919
6.396965504 13.23498631 0.7723552585
4.597527981 10.95566654 1.282676935
5.717072964 12.267066 2.330443859
4.189161777 10.34819794 2.553340435
5.130306244 11.46952438 3.212779522
4.275622368 10.38763618 3.43979311
4.087756634 10.12389851 3.812776327
24.58088684 35.5237999 1.724430919
4.626978874 10.8879509 1.729867578
4.301334858 10.41839027 2.566526413
4.56071806 10.70243549 3.063178301
4.183549881 10.20941257 3.400618315
4.266639709 10.27515507 3.863334179
6.520578861 13.21209812 0.7665995359
5.072947979 11.3992548 1.288036942
4.632609367 10.82415104 1.725805163
4.957971573 11.18401051 2.215747595
4.240516663 10.28095531 2.547621727
4.566296101 10.60457039 3.503316641
4.277614594 10.22593212 3.854632378
4.547613144 10.65104294 1.714863896
4.942387581 11.09628677 2.207464218
4.127142429 10.04849434 2.939145327
4.19488287 10.09607315 3.381985664
4.343899727 10.23963451 3.864873171
4.584951401 10.63060379 1.713563561
4.169122219 10.03432465 2.939918995
4.005290508 9.806710243 3.314925194
5.38222599 11.40575886 4.216785431
4.668804646 10.66223717 1.715559006
5.251092911 11.32455254 2.234925985
4.378724098 10.25183105 2.550369263
4.042335033 9.791210175 3.315625906
5.449090481 11.41098881 4.225473881
5.031844139 11.02789974 1.738629699
5.334964275 11.35052872 2.23916769
3.844599247 9.556715012 2.444905758
3.970881939 9.677125931 2.874891758
3.800741434 9.415186882 3.637867212
5.167081356 11.11249638 1.743994594
5.525071144 11.50049019 2.256977558
3.89921999 9.560017586 2.447796822
5.432482243 11.31727409 3.21107316
3.806115389 9.362131119 3.627938986
5.201313496 11.08083534 1.742041707
5.256252766 11.10907078 2.215766668
4.034496784 9.65358448 2.464921951
4.238986969 9.798051834 3.764741659
5.642515659 11.59298992 0.790828526
5.63252306 11.54391861 1.280830622
5.434022903 11.27613831 1.754420877
5.14454174 10.90825748 2.195258141
4.169014454 9.747608185 2.482087851
3.84463954 9.343411446 2.81836009
3.92941618 9.410434723 3.240161657
4.253204346 9.752465248 3.757399082
5.653559208 11.50473595 1.278981686
5.162801266 10.86624241 2.191973686
4.196479321 9.726576805 2.480956078
3.8526752 9.302560806 2.813113689
4.287100315 9.738681793 3.758675337
5.271863937 10.92470837 2.199799538
4.290084362 9.771608353 2.49058342
3.914407015 9.317056656 2.819544554
3.914924383 9.287848473 3.218052626
4.837022305 10.29723358 3.933535814
5.77588892 11.53312111 0.7843681574
4.450176239 9.922229767 2.091189146
4.306461811 9.728307724 2.486403465
4.191620827 9.571019173 2.875244856
3.931014061 9.247688293 3.212816715
4.942474365 10.35015106 3.956460714
6.079469204 11.80410099 0.7733483911
5.528527737 11.14152813 1.268821716
4.955239296 10.46149445 1.703378201
5.337528706 10.85927773 2.195675611
4.387360573 9.757687569 2.493672371
4.228353024 9.551877022 2.875185728
4.033493042 9.304098129 3.232093811
4.988366127 10.33573246 3.959143877
5.592758656 11.17756271 0.7892981172
5.912018776 11.50186443 1.273372054
4.886198997 10.31720638 1.694393516
5.000281334 10.41245842 2.148019552
4.731122494 10.07943153 2.547087669
4.210836887 9.472319603 2.862736702
4.08904314 9.307384491 3.237991095
4.463126659 9.690623283 3.770307064
5.671091557 11.19352245 0.7859771848
5.497057915 10.96361351 1.263251424
5.693370819 11.11642933 2.227220535
4.748399258 10.0347538 2.542863369
4.272662163 9.47810173 2.868052483
4.247978687 9.421040535 3.272351742
4.514715672 9.686402321 3.775739908
5.879656792 11.35029221 0.7781527638
5.01351738 10.32399559 1.695114255
5.523171902 10.85403538 2.199981928
4.713348389 9.932745934 2.529579401
4.294489861 9.442541122 2.864689589
4.27627039 9.392957687 3.270439386
4.545250416 9.658937454 3.774150372
5.699730396 11.08174896 0.7837280035
27.01475906 34.55723572 1.63716948
4.94547081 10.18354797 1.686407089
4.916467667 10.09187412 2.557684183
4.368179798 9.466522217 2.873470783
4.273681641 9.334326744 3.260465622
4.586290359 9.642823219 3.776074648
5.719018459 11.03181648 0.7824409008
5.959108353 11.26046753 1.263996601
4.999092102 10.18068981 1.686393738
5.129309654 10.29091549 2.140837669
4.862251282 9.969301224 2.541169167
4.371113777 9.410362244 2.865898132
4.361830235 9.370989799 3.27521801
6.00147295 11.2693367 0.7720763087
6.171117306 11.41885567 1.265126944
5.207448959 10.34205437 1.696782827
4.923524857 9.972409248 2.544629574
4.350841999 9.329686165 2.85322547
4.678472996 9.651276588 3.352798223
6.106710911 11.31103706 0.7678099275
5.811949253 10.9611721 1.256691337
5.249812603 10.32201099 1.69572413
5.074942112 10.10260296 2.12317872
5.081005096 10.0811615 2.564838648
4.36526823 9.28674984 2.848395586
4.20644331 9.089232445 3.213425875
4.565794468 9.444395065 3.735537291
6.055574417 11.15252113 1.258329868
5.701521397 10.73955917 1.722357035
4.990794182 9.952219009 2.10800004
4.803866386 9.723096848 2.510676622
4.432334423 9.302681923 2.855669498
4.383533001 9.222464561 3.252999544
4.703050137 9.529905319 3.768992901
6.509551048 11.56860256 1.263429642
5.955887318 10.94481659 1.735580564
5.012695312 9.912623405 2.105234385
5.018829823 9.891950607 2.540586472
4.424761772 9.236631393 2.84604907
4.389312267 9.173952103 3.245670557
4.820589542 9.596260071 3.796371222
6.118248463 11.11423779 0.7656129003
6.060084343 11.02219772 1.253801584
5.802188396 10.71634674 1.721374035
5.061706543 9.904800415 2.105948925
4.959416389 9.770511627 2.524043322
4.452297211 9.210670471 2.844620705
4.424801826 9.156691551 3.246465445
4.478340626 9.183990479 3.675148249
5.685695648 10.52947807 1.709804535
5.116858006 9.873083115 2.543653727
4.481118202 9.186041832 2.843497276
5.881085396 10.60655403 3.629982471
4.436471462 9.083777428 3.650945902
7.688129902 12.62060833 0.70966959
5.68764019 10.46134758 1.705791235
5.174297333 9.87041378 2.546412468
4.719287872 9.371440887 2.887140036
5.051233292 9.683866501 3.395839214
4.448546886 9.03980732 3.644234896
7.699078083 12.54636097 0.7085653543
29.50975227 35.12691879 1.606632352
7.528401375 12.29735947 1.822479367
5.142848492 9.802504539 2.09965086
7.164348125 11.81561947 3.408525705
4.463145256 8.998633385 3.638407707
29.66924858 35.05337143 1.601077199
5.932519436 10.5804739 1.71396935
5.193163872 9.79541111 2.100533485
5.044622421 9.614526749 2.511479616
4.466022968 9.000231743 2.817216158
5.247370243 9.764956474 3.429160833
4.470686436 8.950518608 3.630411625
29.65770912 34.816185 1.593384266
5.848389626 10.43091393 1.70480144
5.291217327 9.833459854 2.106618404
5.274382114 9.790070534 2.543042183
4.517836094 8.996643066 2.820836544
6.635501385 11.19535255 1.248422027
5.968589306 10.48652649 1.708683014
6.970675468 11.47009754 2.293097019
5.305290699 9.759717941 2.541443825
4.532010555 8.957763672 2.816768169
5.264252663 9.663095474 3.414676189
4.964842319 9.335283279 3.766081572
6.668501854 11.15715504 1.246530175
6.997628212 11.45836544 1.770774603
5.337621212 9.759774208 2.101895332
5.338906288 9.732064247 2.540310144
4.739349365 9.108717918 2.853485346
7.105546474 11.43106842 3.889372587
5.001088142 9.313114166 3.766743183
7.696093559 12.1517868 0.7054203749
6.611678123 10.99967384 1.7420398
8.131957054 12.48038769 2.412012339
5.693990707 10.02337074 2.59134078
4.693373203 9.00657177 2.836222172
4.748292923 9.033924103 3.260463715
5.055382252 9.308585167 3.77306366
7.684298038 12.06177711 0.7051973343
31.55362701 35.76992035 1.589019537
7.970907688 12.24099541 2.387340069
5.715803146 9.981801033 2.588103533
4.649606228 8.907614708 2.819586992
4.971438885 9.168786049 3.736340761
30.13266373 34.12409592 1.561592937
6.014422417 10.24154091 2.162430048
4.775111198 8.974801064 2.8386724
7.213551998 11.31986332 3.883358479
5.036612511 9.175053596 3.746155739
7.594276428 11.78339863 1.24978292
6.665276051 10.8434763 1.733417034
5.605005741 9.748972893 2.557034016
4.906860828 9.046726227 2.85891819
7.283703804 11.31578732 3.890274286
4.990822315 9.074004173 3.721657515
7.586296082 11.70003891 1.247222781
6.430426598 10.546381 1.714949489
5.543591499 9.656718254 2.099861622
5.368416786 9.459430695 2.512855768
4.815469265 8.902517319 2.832517862
5.348904133 9.388061523 3.380461454
5.127880096 9.148757935 3.753614187
7.747008324 11.81535149 0.7004913688
7.616243362 11.65773773 1.245308876
6.186439991 10.24410629 1.696140766
5.634402275 9.683379173 2.104933739
5.462664127 9.493542671 2.521866083
4.913348675 8.940783501 2.84562254
5.500841618 9.474251747 3.410371304
5.109808445 9.077610016 3.738330364
32.2998848 35.30459976 1.560213327
6.133811951 10.12885666 1.68926084
6.450585365 10.40520763 2.189638615
5.41195488 9.385796547 2.507600069
4.958548069 8.930911064 2.848109484
5.08992815 9.0025177 3.722127676
32.45428848 35.21285248 1.554494619
6.799715996 10.70170498 1.726331472
6.472065926 10.35970497 2.186677217
5.432792664 9.346768379 2.504720211
5.108786106 9.01706028 2.871850252
5.704998493 9.551121712 3.44461441
5.118078709 8.973039627 3.720679522
32.49526215 35.013134 1.547382355
6.825093269 10.65763474 1.724051952
8.008459091 11.74146652 2.348032951
5.547619343 9.396112442 2.516591787
5.076356411 8.930569649 2.857969522
6.090145111 9.850857735 3.533159018
5.177575588 8.972724915 3.728765488
32.08963013 34.39413071 1.534877896
7.303402424 11.03874874 1.74900353
5.670166016 9.451538086 2.529573679
5.125996113 8.92117691 2.860971451
5.974137306 9.681497574 3.494382143
5.16546154 8.905842781 3.715205193
7.322583199 10.98617649 1.74623251
6.066423416 9.787373543 2.127496958
7.117055893 10.73220634 2.748025417
5.16549921 8.902144432 2.861903667
30.60159683 32.5596199 1.502969384
6.005001068 9.669003487 2.116041899
5.476491928 9.158150673 2.487716436
5.199142456 8.877584457 2.861657381
5.036402702 8.703295708 3.240808725
6.120135307 9.668579102 3.982230186
30.74407959 32.47047806 1.497695804
31.61997986 33.1766777 3.172000408
5.841408253 9.461194038 2.094064713
5.56681633 9.183380127 2.495729446
5.84695673 9.415236473 2.985684156
5.059252739 8.672738075 3.238760233
6.026090145 9.52285862 3.943503857
31.03238106 32.51442719 1.494103074
6.345511436 9.888586044 1.677576661
5.742881775 9.312019348 2.078950882
5.633878708 9.186717987 2.500119209
5.914689541 9.417481422 2.991831541
5.112547874 8.666985512 3.243920088
6.058948517 9.492769241 3.94283247
31.16010666 32.41009903 1.488668084
5.7180233 9.257104874 1.637559533
5.800236225 9.305347443 2.080415487
5.882670879 9.353305817 2.532223701
6.025225639 9.457699776 3.006514311
5.236228466 8.723937035 3.266517401
6.036352634 9.413137436 3.925763369
31.27165794 32.30194473 1.483418107
5.757480145 9.234390259 1.636674166
5.606870651 9.073302269 2.055563688
5.885414124 9.299926758 2.526967049
6.016587257 9.390579224 2.997340202
5.535365105 8.9385252 3.332732916
5.72985363 9.08531189 3.825521231
31.37394524 32.18538284 1.478091598
6.167796135 9.546122551 1.657331705
5.444851875 8.874763489 2.034436226
7.04932785 10.27922058 2.697612047
5.977999687 9.300327301 2.982672453
5.336422443 8.709697723 3.275854111
31.39615059 31.98656273 1.471604347
5.511496544 8.880970955 2.037281275
7.070011139 10.23218632 2.694147587
5.938919067 9.210419655 2.96803093
5.413815975 8.723387718 3.286797047
5.839579582 9.071008682 3.838638306
31.60464096 31.95360565 1.4671278
6.310229778 9.554457664 1.659122586
5.527265549 8.83916378 2.034623146
7.103942871 10.19691086 2.692714453
5.836735249 9.063246727 2.940716505
5.838374138 9.039043427 3.382537603
6.214431286 9.339956284 3.938422203
7.73382473 10.79829407 0.6932514906
31.6540451 31.77966881 1.46100986
6.320786476 9.503204346 1.656478286
6.044481277 9.23542881 2.083674192
6.245905399 9.385043144 2.557878017
6.02046442 9.165905952 2.969780684
5.899370193 9.035210609 3.389061689
7.768259048 10.75900364 0.6914938092
31.82777023 31.71487427 1.456196308
6.091537952 9.217980385 2.08404994
6.240818501 9.32141304 2.551220894
5.974270821 9.068444252 2.953656912
5.839622021 8.927203178 3.366263866
6.123140812 9.144795418 3.891972542
7.596095085 10.51077557 1.209827542
6.21718502 9.29368782 1.64428401
5.775950432 8.888022423 2.047389507
7.019546509 9.931109428 2.660935879
5.972596645 9.010002136 2.946350813
6.340299129 9.298563957 3.479150772
7.661119461 10.52857304 0.6943845153
7.655298233 10.4942379 1.208374143
6.305471897 9.307608604 1.645931602
6.058325291 9.073549271 2.071861506
6.919350624 9.782521248 2.639889479
5.959972382 8.939785957 2.936647415
5.7450881 8.732748032 3.326843977
6.302644253 9.181970596 3.924309015
7.68717432 10.4797821 0.6929246783
31.50317764 30.79332924 1.433725357
6.369701385 9.303284645 1.646379828
6.269067287 9.192275047 2.088650465
6.897130013 9.701507568 2.630501747
5.795020103 8.722772598 3.331308126
6.374804974 9.184715271 3.935304642
32.38280869 31.33974838 1.436009407
6.394410133 9.268079758 1.644798636
6.241572857 9.113792419 2.081725836
7.160612583 9.836939812 3.154821873
5.819331169 8.691105843 3.329632998
5.648866177 8.524711609 3.718331337
7.667909145 10.33566666 0.6927158833
6.397575855 9.214809418 1.642051697
6.299277306 9.107283592 2.083414316
7.214463711 9.849637032 2.665437698
7.135380745 9.756394386 3.142808199
5.981248856 8.773728371 3.360803127
5.637912273 8.464968681 3.706750631
32.70934296 31.20684624 1.426934481
6.425043106 9.182094574 1.640655398
6.468950748 9.193582535 2.096284389
8.080714226 10.50862026 2.785728693
6.125602245 8.840353966 3.387613058
5.558767319 8.34954071 3.675879002
32.95603561 31.17648888 1.422201753
6.442964554 9.135632515 1.638453007
6.440788746 9.108997345 2.088934183
7.405447483 9.87833786 2.680665255
6.523947716 9.130381584 3.01138711
5.897145271 8.592050552 3.324803114
5.659871101 8.374590874 3.695015907
33.18476868 31.15110397 1.417926431
6.425177097 9.059960365 1.634350777
6.177876949 8.835518837 2.058617353
7.339701653 9.761328697 2.665083647
7.218100071 9.635302544 3.136022091
5.887026787 8.527050018 3.314375162
5.754128456 8.398469925 3.712984085
7.707289219 10.10066032 0.6894043684
33.26831055 31.00539017 1.412405729
6.518563747 9.078496933 1.636392593
6.202197075 8.796468735 2.056690693
7.22230196 9.577132225 3.129533529
5.910667419 8.495101929 3.312738657
7.66332531 10.00278473 0.6905904412
7.594004631 9.922446251 1.192489624
36.20425797 33.09388733 3.214631319
6.29185915 8.815879822 2.061613321
7.377968311 9.670583725 2.658940792
7.340394974 9.613861084 3.144956112
5.886612892 8.424933434 3.299955845
5.989465714 8.483978271 3.762221336
7.712515354 9.954106331 1.191612244
33.00498199 30.30037117 3.034106255
7.268081188 9.546482086 2.153215408
7.17741394 9.425203323 3.107449293
5.881963253 8.368095398 3.291441202
6.653964996 8.95779705 3.939335585
34.71025848 31.53545952 1.40590775
33.05726242 30.13339806 3.02630043
7.238882542 9.461866379 2.145923376
7.049789906 9.285939217 2.600531816
7.131052494 9.328092575 3.091715574
5.880119324 8.313817978 3.28366065
6.689617634 8.928957939 3.94005847
7.653228283 9.804966927 0.6896753311
7.659562588 9.783593178 1.187524557
33.20897675 30.04594994 3.023784399
7.279587746 9.433254242 2.145479679
5.884200573 8.264501572 3.277331114
6.708264828 8.886727333 3.936083555
7.668534279 9.753543854 0.6886867285
36.11534119 32.21099472 1.404318213
7.340605736 9.420483589 2.147009373
6.959308624 9.096304893 2.576607943
7.467013359 9.471467972 3.140395403
5.902019024 8.226128578 3.274243832
35.02319336 31.14116478 1.390090346
34.38054657 30.5488205 3.063821793
7.324626446 9.347272873 2.14112854
5.905677795 8.176883698 3.267937422
6.519366264 8.630846977 3.866303682
7.665455818 9.628031731 0.6879858375
36.07481384 31.7444458 1.391760945
38.08442307 33.21518707 3.244295597
7.327302456 9.292031288 2.137304544
7.035177231 9.041395187 2.576676369
6.540004253 8.591667175 3.863242149
7.695813179 9.588983536 0.6864547729
7.049273491 8.994023323 2.57326746
41.47939682 35.21718597 11.40168667
6.57915163 8.566630363 3.865309238
36.97398376 31.9943161 1.385809422
7.072653294 8.953881264 2.571190596
41.70523453 35.14301682 11.42003059
7.676727295 9.449840546 0.6863550544
36.18313217 31.17839432 1.374456763
38.25534058 32.66617203 3.219595671
7.13411808 8.945489883 2.574688673
7.633655548 9.298457146 3.136786461
7.657224178 9.376432419 0.6867024302
7.669068813 9.360635757 1.175556183
38.36576462 32.52086639 3.214040041
7.158892632 8.906279564 2.572843075
41.96973419 34.86365509 11.41589832
7.654783249 9.31333828 0.686403811
35.08384705 29.92698669 1.355516911
36.79164505 31.12335968 3.12445116
42.2931633 34.85936356 11.45644188
