# .PCD v0.7 - Point Cloud Data file format
VERSION 0.7
FIELDS x y z
SIZE 4 4 4
TYPE F F F
COUNT 1 1 1
WIDTH 1303
HEIGHT 1
VIEWPOINT 0 0 0 1 0 0 0
POINTS 1303
DATA ascii
20.11991692 -44.58164597 6.160665035
17.5853653 -39.82924271 1.073334098
16.70190048 -37.60577011 2.463734627
17.16580391 -38.57852936 3.958884716
17.51342392 -40.0150795 1.077573299
16.54481125 -37.59999847 2.46410203
16.94036674 -38.41337967 3.943432331
17.44335556 -40.22582626 1.0821594
16.42943001 -37.66916275 2.467869043
16.75043869 -38.34105301 3.935749054
19.8223896 -45.15196609 6.216924667
17.34141922 -40.36699677 1.086233616
16.20056915 -37.49962234 2.460762978
16.55957222 -38.26422882 3.927725077
19.75408745 -45.39524841 6.242475033
17.27302933 -40.58678436 1.090911865
16.03572083 -37.4716568 2.460132837
16.37587929 -38.20113754 3.920891762
19.63817978 -45.55462646 6.257539749
17.16116524 -40.68971634 1.094553351
15.89112949 -37.48882675 2.461573124
16.21525574 -38.17097855 3.916933298
17.08510399 -40.89645767 1.0991503
15.74668789 -37.48799896 2.462163925
16.05558014 -38.15943909 3.914494991
19.44304466 -45.96386337 6.298833847
16.97815323 -41.03316498 1.103209972
15.60391045 -37.50771332 2.46373415
15.91497326 -38.19126511 3.915725708
16.02579498 -39.15346909 1.091264129
15.45259953 -37.50663757 2.464359522
15.77513409 -38.22439575 3.917093515
15.8908844 -39.22483826 1.094797015
15.31974506 -37.56661987 2.467823744
15.63026237 -38.26340485 3.918913126
16.64351463 -41.43906784 1.115515828
15.17475605 -37.57915115 2.469087124
15.4880209 -38.28994751 3.919785738
16.53432846 -41.5765419 1.119590044
15.07228661 -37.69466782 2.475080967
15.35940742 -38.34917068 3.923422337
16.78803253 -42.6172905 1.131103992
14.95265293 -37.76918411 2.479204416
15.23583603 -38.42087173 3.928129435
16.69408607 -42.78414917 1.135341048
14.8163023 -37.80252075 2.481446981
15.12447739 -38.50434113 3.933908463
16.57571602 -42.91282272 1.139415383
14.69820023 -37.86248779 2.484883547
15.02087688 -38.6271553 3.942937851
16.42318153 -42.95547867 1.142763495
14.58214474 -37.94694519 2.489490509
14.92392731 -38.76824188 3.953517199
18.53297043 -47.84264755 6.490729809
16.3246479 -43.1374855 1.147286534
14.46930313 -38.04034805 2.49451828
14.81311512 -38.87568665 3.961304426
16.31119919 -43.56685638 1.154090881
14.36818314 -38.18438721 2.501921892
14.67786121 -38.94072342 3.965513945
15.29107857 -41.32085037 1.137620926
14.2769928 -38.33691025 2.509691238
15.90186977 -42.5457077 4.265443802
15.08331776 -41.19599915 1.139337778
14.17081738 -38.45184708 2.515743256
15.64335155 -42.30234909 4.243913651
14.95443153 -41.28024673 1.142860293
14.12690258 -38.73498154 2.529551029
15.42303944 -42.15483093 4.230426788
14.85197163 -41.43730927 1.147023439
13.97664165 -38.73523331 2.530346155
15.17072964 -41.91652298 4.209405422
17.12005806 -47.10387421 6.378681183
15.76127815 -44.38819122 1.17615521
13.94520855 -39.05957031 2.54608345
14.96277523 -41.79304504 4.198005199
13.88164139 -39.60218811 1.135885835
15.77705383 -44.54416656 2.79975915
14.73039246 -41.57607651 4.178899288
13.74248219 -39.63905716 1.138830423
15.6617384 -44.67891693 2.806854725
14.5006094 -41.38306808 4.161777973
16.59059334 -48.19025421 1.219535112
15.54867363 -44.84622955 2.815512657
14.28304768 -41.21901703 4.147109509
13.6366663 -40.23139191 1.149591088
13.77073765 -40.27997589 2.605684042
14.0531435 -41.03759003 4.130983829
13.44488144 -40.11978912 1.151161909
13.54655457 -40.09968948 2.598255634
13.8200655 -40.81868362 4.111824512
15.48786449 -45.57975769 6.174875259
13.34304142 -40.24745178 1.154808402
13.42412567 -40.16699219 2.602182865
13.61756325 -40.66043472 4.097797871
15.2746706 -45.44268036 6.155508041
13.23552322 -40.38288116 1.158659339
13.32959938 -40.31718445 2.609951019
13.39399242 -40.4582901 4.080108166
15.09962463 -45.41381073 6.149245262
13.20960426 -40.7898941 1.165212154
13.33433247 -40.81291962 2.633804321
13.21321011 -40.40106583 4.074474812
14.98256302 -45.6080246 6.16960907
13.02676964 -40.70267487 1.166963696
13.14964008 -40.74567795 2.631633043
13.10625076 -40.54144287 4.085353374
14.87803936 -45.84347916 6.194972038
8.111447334 -25.32665825 5.565007687
12.70747375 -40.19032669 1.164609313
13.01297283 -40.77567673 2.633878231
13.02078342 -40.74977875 4.101908207
14.76751423 -46.03842926 6.215634823
8.092278481 -25.58963776 4.679709435
8.031173706 -25.37143707 5.570145607
12.82478428 -41.03068924 1.175241828
12.91404819 -40.94626999 2.642689943
12.92360401 -40.9257431 4.115791321
14.65517712 -46.20413971 6.232951641
8.003240585 -25.61003685 4.680383205
7.922184467 -25.32803726 5.558107853
13.94619846 -45.07056046 1.21707809
14.0873909 -45.11260986 2.836714745
12.81565475 -41.07112122 4.127153397
14.53154087 -46.36455154 6.249530792
7.79778862 -25.26655579 4.623804569
7.766180038 -25.13625336 5.517181396
13.73243427 -44.92800903 1.218477845
13.87885475 -44.98987198 2.832046032
12.70802402 -41.22003937 4.138833523
14.42012215 -46.56632996 6.271116734
7.834560871 -25.68005371 4.686450005
7.62409544 -24.9830513 5.483891487
13.52040195 -44.78641891 1.21985352
13.66897488 -44.8585968 2.826982975
12.58291245 -41.31539917 4.146086216
14.29090118 -46.7147789 6.286334991
7.490539074 -24.88396072 4.558845997
7.538926125 -25.00744057 5.485310078
13.30773449 -44.66534042 1.221535206
13.44664383 -44.70964432 2.821152449
13.29421711 -44.15871811 4.381651402
14.17028809 -46.9223175 6.308555126
7.373073101 -24.81657791 4.54584837
7.446557045 -25.02342606 5.484979153
13.10430241 -44.5429306 1.223035693
13.24598598 -44.5994072 2.817069292
13.09012604 -44.03108215 4.370390415
14.05298519 -47.11572647 6.32924509
15.75068378 -52.6323204 8.912322998
7.37330246 -25.086689 5.494065285
12.90986824 -44.44647217 1.224765778
13.03650379 -44.45578384 2.811436892
12.89627075 -43.93311691 4.361627102
13.95504951 -47.37739563 6.358151913
7.376038551 -25.43535042 4.638530254
7.339938164 -25.28341103 5.529145241
12.78815174 -44.59487534 1.228942513
12.89049339 -44.52199173 2.815560341
12.72021008 -43.89167404 4.357591152
13.82158947 -47.5246315 6.373379707
14.7144556 -50.47270966 8.564096451
7.171981812 -25.03162575 5.477066517
12.67336941 -44.76984787 1.233391643
12.77325439 -44.68745422 2.824311733
12.52060032 -43.76723099 4.346694469
13.67831516 -47.64099503 6.384952068
6.891841888 -24.42116737 4.475131512
7.32028389 -25.85058212 5.633063316
12.55857468 -44.94840622 1.237884283
12.65833282 -44.86415863 2.833601713
12.18224907 -43.15728378 4.295525074
13.54046059 -47.77793121 6.399031639
6.793401241 -24.38983154 4.468179703
7.231031895 -25.87010956 5.633748055
12.42439079 -45.0321312 1.24127543
12.51342964 -44.93871689 2.838151455
12.00081635 -43.05348969 4.286437988
7.166104794 -26.04002571 3.795613766
6.714263439 -24.42465591 4.471636295
7.150442123 -25.90320587 5.637268066
12.30908775 -45.18479919 1.245374918
12.398489 -45.09144592 2.846299887
11.82238293 -42.95663071 4.277954102
7.427506924 -27.28947067 3.94394207
6.644994736 -24.479002 4.478280544
12.18936729 -45.35475159 1.249790907
12.3146944 -45.35941696 2.859833956
11.63419247 -42.84955215 4.268629551
7.337557793 -27.30616379 3.944786787
6.594545364 -24.60173035 4.495653152
6.878880501 -25.59105492 5.570990086
11.49834728 -43.44529343 1.232594132
11.62311363 -43.46902084 2.772838116
11.52105045 -43.04174042 4.284147739
7.219943523 -27.25800514 3.937789917
6.456507206 -24.44057846 4.468462944
6.718594551 -25.36374283 5.523980618
11.31354141 -43.37888718 1.234536648
11.42948246 -43.37231827 2.769452572
11.41339588 -43.25868988 4.301748276
7.053063393 -27.02519417 3.9087708
6.373935699 -24.47919273 4.472565651
6.245172977 -23.97230911 5.251822948
10.97932434 -42.71011734 1.229957461
11.28616238 -43.43116379 2.773278236
11.29384995 -43.40600967 4.313617229
6.901740551 -26.82488441 3.883742809
6.401276112 -24.91388512 4.538670063
6.488154411 -25.20754051 5.488149166
11.14913177 -43.96787262 1.245782733
11.17440987 -43.61130524 2.782780886
11.16381073 -43.51636505 4.322446346
6.842188835 -26.96783257 3.899744987
5.46496439 -21.69403839 4.03412056
6.457336426 -25.43707275 5.529871464
10.98985767 -43.97161102 1.248326421
11.12244987 -44.02719879 2.803318977
11.04508114 -43.67266083 4.335113525
6.144182682 -24.6467495 3.621671438
5.359790802 -21.58841896 4.01611805
5.496349812 -22.08727646 4.880148411
6.213338852 -24.80102539 6.303246021
10.84583187 -44.03488159 1.251496673
10.94807434 -43.9727211 2.801888704
12.02439499 -48.14661026 4.705897808
6.055097103 -24.6448307 3.620522738
5.280388355 -21.58003807 4.013334751
6.74123621 -27.21039581 6.855678558
10.73129559 -44.21802902 1.255956888
7.104814529 -29.26764679 2.114916325
11.89688206 -48.33895111 4.721583366
5.998058319 -24.7697506 3.634531975
5.214612007 -21.62505531 4.018913746
5.391217232 -22.29825974 4.916488647
5.918112755 -24.33996582 6.190440178
11.03522968 -46.12034225 1.279111147
12.50308514 -51.57025146 3.159854412
11.77964592 -48.57741928 4.741124153
5.928770065 -24.84827042 3.643027067
5.991771698 -25.07103729 4.554596901
5.318446636 -22.32631302 4.919760704
6.411974907 -26.67672539 6.725688934
1.621566415 -7.666144371 0.3754009008
10.91010189 -46.29465866 1.283586383
10.73101521 -45.0515213 2.855818748
11.6496172 -48.76914597 4.756818295
5.674472809 -24.169981 3.561326504
5.125013828 -21.8892765 4.057294846
5.19604969 -22.1517067 4.884006977
6.313017368 -26.66457367 6.719548702
1.578741193 -7.590165615 0.3808084726
1.586660743 -7.615015984 0.620500803
10.78753185 -46.48422241 1.288235068
10.51717472 -44.83989716 2.847073793
11.53692913 -49.0381012 4.778946877
5.614768982 -24.28032112 3.573684216
5.054635525 -21.92036057 4.060778141
5.101648331 -22.0873642 4.869578362
6.227477074 -26.70707893 6.726057053
1.556797385 -7.601483345 0.380890429
10.87117004 -47.563591 1.302713633
10.30906963 -44.64482498 2.839101791
11.4078722 -49.24475479 4.795939445
5.782039165 -25.35334015 3.700756311
4.951306343 -21.81266212 4.042688847
5.046300411 -22.18520737 4.886442184
4.964548588 -21.79517174 5.593093395
5.582109928 -24.36084366 7.074827671
1.537467837 -7.624405861 0.3802631497
1.534913063 -7.604497433 0.6219043136
10.74445248 -47.75911331 1.307492614
10.1245594 -44.54421616 2.835559607
5.949054718 -26.45875359 3.831645489
4.87616539 -21.82197571 4.04285574
4.986316681 -22.26569366 4.899992466
5.407185555 -24.01854515 6.101663589
5.508375168 -24.41760826 7.086456299
1.516375303 -7.631273746 0.6218075156
10.5962534 -47.86457062 1.311274648
9.941786766 -44.44673538 2.832166433
13.90470123 -61.72541046 5.830535889
5.845777035 -26.4192009 3.826154232
4.764765739 -21.67298317 4.01843071
5.026167393 -22.78282738 4.997588634
4.842536449 -21.93733025 5.620726585
5.270399094 -23.76321411 6.907757759
5.455051422 -24.52913666 8.026004791
10.30402756 -47.32332611 1.30780673
9.772935867 -44.4070015 2.831488848
13.71900177 -61.89392853 5.844449043
5.739777565 -26.36567497 3.819031477
4.645337582 -21.48295975 3.987679005
4.926364422 -22.69844818 4.979456902
5.835706234 -26.66488838 6.703942776
5.201929092 -23.83406448 6.923373699
10.15474224 -47.41758728 1.311421871
9.604503632 -44.3666153 2.83078599
13.48492146 -61.84779358 5.840605259
6.461675167 -30.04336739 4.256033897
4.572722435 -21.49698639 3.988698006
5.341891289 -24.87520027 6.290221214
5.03018713 -23.44386482 6.815747738
9.620080948 -45.71832275 1.29473722
9.435603142 -44.32168579 2.829874992
13.30897331 -62.06567764 5.858691216
6.352808475 -30.03454208 4.254192352
4.55450058 -21.75996017 4.028429031
4.730830193 -22.53800392 4.944975376
5.249696255 -24.85724831 6.283439159
4.954992771 -23.47994041 6.822237492
5.505376816 -25.95038033 8.44843483
9.881456375 -47.73186493 1.320070267
9.277153015 -44.32300568 2.831145525
6.229089737 -29.95538521 4.244017601
4.488398552 -21.80845642 4.034853458
4.677589417 -22.65990829 4.966645718
5.168768406 -24.89046097 6.288455963
4.88778019 -23.5535984 6.83882761
5.421153545 -25.98785973 8.455748558
9.766677856 -48.00102234 1.325679421
9.123775482 -44.34719467 2.833500624
11.08933163 -53.63757324 5.160056591
5.260075569 -25.86157799 3.756366014
4.466514587 -22.06763458 4.074018478
4.741394043 -23.33941841 5.095398426
5.09535408 -24.95968056 6.301781654
4.827325344 -23.66113472 6.864515781
9.617425919 -48.10925293 1.329456091
8.973531723 -44.38650894 2.836577654
12.20937634 -59.98917389 5.686822414
5.171021938 -25.87187958 3.756998539
4.399516106 -22.11780739 4.080749035
4.501152039 -22.57813644 4.947582722
4.80798912 -24.00270081 6.080049515
4.885811329 -24.34251022 7.043390751
9.494250298 -48.30752182 1.334142327
8.826320648 -44.44096756 2.840378523
10.62898731 -53.21721268 5.125470161
5.085932732 -25.90132904 3.759935856
4.342472553 -22.21814728 4.095294476
4.478019238 -22.83350563 4.995043755
4.697068214 -23.87381935 6.048208714
4.795568466 -24.32124901 7.034734249
5.040770054 -25.45953369 8.282787323
4.210376263 -22.31253433 1.035583973
8.68410778 -44.48165512 2.843478203
11.76589584 -59.869133 5.67724514
5.733587742 -29.59866333 4.198919773
4.238846779 -22.06944084 4.071278572
4.416082859 -22.92399216 5.010810852
4.874934196 -25.15559959 6.339478493
5.466436386 -28.05857277 8.028465271
4.958031654 -25.49545288 8.290035248
4.118197441 -22.23675728 1.035835981
8.544055939 -44.57434464 2.849104881
10.45972633 -54.29525375 5.215276718
5.608243465 -29.46533203 4.182516575
4.137916088 -21.94816399 4.051514149
4.318632603 -22.83688736 4.992566109
4.792329311 -25.18563843 6.344032764
4.929663181 -25.84486198 7.435187817
4.879566669 -25.55365753 8.304154396
4.047802925 -22.27259827 1.03737855
8.411016464 -44.70582581 2.856576443
9.024062157 -47.83610916 4.679875851
8.899045944 -47.12373352 6.280385017
4.023266315 -21.75073051 4.019986153
4.300545692 -23.1565609 5.052332878
4.74718523 -25.43270493 6.398168564
5.220374584 -27.83804131 7.963050842
4.801470757 -25.61537743 8.319416046
3.993191957 -22.41508102 1.040226817
8.2694664 -44.83835602 2.864177465
9.962520599 -53.76303101 5.171706676
8.695475578 -46.93370056 6.256968498
3.803911448 -21.01140404 3.904475451
3.998646259 -22.01137161 4.831412315
4.634753227 -25.31085968 6.368094921
5.120874882 -27.83109665 7.958102226
4.705384254 -25.60801506 8.313533783
8.803775787 -49.27203751 1.358126044
8.147831917 -45.03974533 2.874986649
9.786605835 -53.84630203 5.17894125
5.444731236 -30.28864861 4.278746128
3.85565424 -21.6834507 4.007801533
3.952540636 -22.17575836 4.861544609
4.248472214 -23.71331406 6.000851154
4.453148842 -24.77668381 7.142119408
4.687289715 -25.99313736 8.42742157
8.667235374 -49.48355865 1.363137245
8.030917168 -45.2742424 2.887382746
8.416926384 -47.34449768 4.639981747
5.333617687 -30.26237106 4.275157928
3.782072306 -21.69275475 4.00843811
3.870457888 -22.14865112 4.855040073
4.701469898 -26.64748001 6.669224262
4.674055576 -26.45908165 7.587124825
4.590950012 -25.96568871 8.415729523
8.530679703 -49.70260239 1.368246555
7.94142437 -45.67172623 2.907518148
8.263827324 -47.4264183 4.647125244
5.208131313 -30.15354538 4.261798382
3.708115339 -21.69985771 4.008765221
3.697757959 -21.61237144 4.751137733
4.630220413 -26.77105522 6.695315361
4.210988522 -24.39340019 7.035056591
4.581860542 -26.42252922 8.551463127
9.091135025 -53.94483566 1.421304464
9.250352859 -54.13137054 3.309681654
8.115693092 -47.49071503 4.65281868
4.194932938 -24.95037842 3.643490791
3.634504557 -21.70864296 4.009385586
3.755125284 -22.34647369 4.890453339
4.276741028 -25.28961754 6.355043888
4.1296525 -24.41532326 7.038467407
4.185773849 -24.67304039 8.016386032
12.22275829 -73.74245453 1.661540985
8.938416481 -53.36795425 3.275003433
7.904757977 -47.23760223 4.632223606
4.077573776 -24.77090645 3.621877432
3.551510334 -21.64055634 3.998171329
3.6515944 -22.19462776 4.860214233
4.188689232 -25.26499176 6.347622871
3.959112644 -23.89477348 6.897899628
4.053848267 -24.40778542 7.932838917
11.95616913 -73.70962524 1.664838433
8.816492081 -53.76722336 3.295526266
7.732772827 -47.20576477 4.63001585
4.045710087 -25.06826401 3.65692234
3.483355045 -21.67998886 4.003600597
3.533900976 -21.95122719 4.812529087
4.120226383 -25.38121605 6.372305393
3.909733772 -24.09516716 6.948904037
3.985059977 -24.50462341 7.959464073
11.70070839 -73.7429657 1.668913603
8.591201782 -53.54912186 3.286775827
7.588109493 -47.33853912 4.641499519
3.983777523 -25.24746704 3.67793417
3.405045509 -21.65872383 3.999666691
3.499821424 -22.20568848 4.860084534
3.566143036 -22.5772438 5.730950832
3.832511425 -24.16062164 6.963997841
3.929702997 -24.68632317 8.011925697
9.03818512 -58.51516724 1.487704039
9.153464317 -58.3190155 3.515043736
7.499221325 -47.87764359 4.686767101
3.92203784 -25.40821075 3.696790695
3.34270072 -21.7587738 4.014505863
3.975676775 -25.67225266 5.521475315
3.422373533 -22.16940498 5.636445999
3.825793505 -24.63964462 7.089047909
3.631046772 -23.39526367 7.617128372
8.836437225 -58.54236984 1.490909576
7.284137726 -47.57840729 4.662457466
3.594253778 -23.87517166 3.514611721
3.453782082 -22.9460144 4.197580814
3.880483389 -25.63336372 5.512868881
3.354894638 -22.22728157 5.648200035
3.707628012 -24.4328289 7.032078266
3.629751205 -23.90142059 7.768315792
10.92948246 -73.89486694 1.681856275
8.735178947 -58.27067184 3.516279459
7.113348007 -47.5541153 4.660998821
3.548598528 -24.11523628 3.542944431
3.763572693 -25.45036697 5.476787567
3.246160746 -22.01881599 5.599310875
3.615693331 -24.38609886 7.017683983
3.464918137 -23.37028122 7.604746819
10.65497875 -73.79795074 1.684265733
6.919873714 -47.37542343 4.646747589
3.478146076 -24.20005417 3.552872419
3.657242537 -25.36452293 4.570455551
3.646550417 -25.25713921 5.438818932
3.147022963 -21.86388588 5.56269598
3.510623693 -24.24910545 6.979428291
3.414286375 -23.57139778 7.663465977
10.4058609 -73.78136444 1.687460303
8.408420563 -58.84206009 3.547066927
6.773716927 -47.45516205 4.653954029
7.000739098 -48.94692612 6.489871025
3.489823341 -24.81748962 4.485310078
3.691371918 -26.13034248 5.604584694
3.093438148 -22.01161194 5.595078468
3.439419508 -24.33561516 7.00052166
3.380276203 -23.86661148 7.750867844
10.16083622 -73.88452911 1.69229722
8.237627983 -59.02181625 3.557363033
6.630737782 -47.61847305 4.6681633
3.593020916 -26.18027306 3.787686586
3.558549404 -25.87001801 4.647535801
3.598354816 -26.11174583 5.600037575
3.019908667 -22.00032425 5.591351509
3.404191256 -24.64729691 7.081441879
3.515663862 -26.27701569 2.895756006
3.509447336 -26.19586563 3.789470911
3.461467028 -25.81359291 4.63831234
3.087938786 -23.06362724 5.017373085
2.963816643 -22.14000511 5.621981144
3.48828125 -25.85811424 7.400550842
3.247463226 -24.06686401 7.807379246
3.408479452 -26.1527462 2.885812283
3.498822451 -26.78457642 3.85929513
3.725576401 -28.38523293 5.035338879
4.197175503 -31.81752968 6.68704319
2.888962746 -22.1205349 5.616482735
3.403283358 -25.85778809 7.398798466
3.199304819 -24.32260513 7.882816792
3.308719635 -26.11161423 2.882810354
3.406863689 -26.78665924 3.859526634
3.461372852 -27.16177368 4.845774174
2.818340302 -22.25094604 4.860751629
3.188732386 -25.01894188 6.274763584
3.048893929 -23.89271355 6.876592636
3.081385851 -24.09841537 7.812839508
3.182242632 -26.39212418 1.108550072
3.234196663 -26.30217171 2.001352787
3.238049507 -26.29549599 2.89852953
3.268336535 -26.45995522 3.820767879
3.367707014 -27.19763947 4.850891113
2.740391016 -22.26680565 4.863071442
3.092031956 -24.97024536 6.262478828
2.963698149 -23.90155602 6.877383232
2.987984657 -24.05036545 7.796319008
3.080139875 -26.33213043 1.109063506
3.142221689 -26.3237114 2.003245831
5.833069801 -48.02496719 4.705717087
3.828940153 -31.74443054 4.447971344
2.741336107 -22.9505825 4.194301128
2.667714596 -22.32528114 4.87356472
3.016739607 -25.08959389 6.288481712
3.582322359 -29.53590965 8.367398262
2.898307085 -24.02855301 7.787836552
2.983663559 -26.31542206 1.110112906
3.054401398 -26.38062286 2.006838083
5.860978603 -49.72009659 4.847568512
3.286418438 -28.19466972 4.0267663
2.635072947 -22.75229263 4.163383484
2.577667236 -22.24304771 4.857269287
2.955122709 -25.32879829 6.341792107
3.478853703 -29.56772614 8.374072075
2.816692352 -24.07104874 7.798905373
2.900519609 -26.33509064 1.111497879
2.948312759 -26.20602036 1.999269962
5.518070221 -48.19091797 4.721217632
3.191449881 -28.16977882 4.023911476
2.553311825 -22.68420601 4.152643681
2.586236 -22.93050194 4.98783493
2.851392269 -25.1130085 6.291851044
2.796986818 -24.61108589 7.061039448
2.562463999 -22.58488274 7.347719669
2.817889214 -26.40070152 1.11352551
2.846202612 -26.09501076 1.994783759
5.44315958 -49.00987244 4.790251732
2.449967384 -22.48885536 3.349769831
2.48273921 -22.74391747 4.161667347
2.477343082 -22.66197968 4.936126232
2.793975353 -25.36487198 6.348186493
2.727196217 -24.73959923 7.093797207
3.113980293 -28.07194901 9.006001472
8.053043365 -76.17832184 1.753285289
2.75577116 -26.08289528 1.99503696
2.916912794 -27.51517105 3.002379656
3.518342257 -32.9018631 4.585892677
2.387760162 -22.58529091 4.136997223
2.384369135 -22.51993179 4.908582211
2.837813377 -26.54735374 6.616065979
2.650994778 -24.81793022 7.113337994
3.006641626 -27.97762108 8.975745201
2.669877052 -26.11217499 1.997280598
2.824856758 -27.53500748 3.004568577
3.411308765 -32.9611969 4.593161106
2.326604128 -22.73291969 4.159667015
2.38106513 -23.20791435 5.039298534
2.744361401 -26.52583313 6.610330582
2.590575457 -25.04795265 7.173055649
2.919859648 -28.06760406 9.001320839
7.147614479 -72.43183899 1.711821795
6.512629032 -64.51860046 3.842298269
4.86852026 -48.3856163 4.741191864
3.297804594 -32.96089554 4.593385696
2.370400906 -23.90880966 4.341192245
2.314059973 -23.32537651 5.061296463
2.658729792 -26.57770729 6.62133646
2.720556736 -27.1286335 7.722153664
2.372575521 -23.73192024 7.689095974
6.890823841 -72.38264465 1.714457154
2.474905491 -25.90166283 2.869664431
3.179435968 -32.91078568 4.587731838
2.284642935 -23.86565399 4.334455013
2.481834888 -25.80659294 5.533809185
2.252675295 -23.42843056 5.905162334
2.244024992 -23.30203247 6.709454536
2.285268784 -23.67118263 7.66951704
3.499960423 -38.58463669 1.277928591
2.385550737 -25.89022064 2.869263649
3.06486702 -32.89583206 4.586284161
2.202614307 -23.85759926 4.333175182
2.408324003 -25.95965385 5.562640667
2.237376451 -24.09808731 6.05670023
2.167444229 -23.3325901 6.716685772
2.600563049 -27.76399231 8.905210495
2.966863871 -33.05846405 4.605958462
2.342099428 -26.2025032 5.608626842
2.071579933 -23.1984539 5.851827145
2.086014748 -23.31281662 6.710677147
2.516254425 -27.88318443 8.939967155
5.063253403 -59.88402939 1.560403466
2.289322615 -26.7955513 2.945876122
2.789112806 -32.33449173 4.520380974
1.998734713 -23.38972855 4.260941505
2.222445488 -25.86390686 5.543868542
2.000169992 -23.2830658 5.870580196
1.996471524 -23.20029068 6.680222511
2.417960644 -27.85523224 8.930352211
2.197387218 -26.78740501 2.945817947
2.072501898 -25.2255249 3.676480055
1.91770196 -23.37082481 4.258088112
2.147377253 -26.01815224 5.573067665
1.913676858 -23.19835854 5.850933075
1.86002183 -22.53243828 6.50310421
1.960343838 -23.65395546 7.660208225
3.957944155 -49.54492188 4.844442844
2.565835238 -32.3152771 4.518979073
1.832150817 -23.29449272 4.246398449
2.026791096 -25.62972069 5.498919487
1.890836239 -23.87930107 6.005203724
1.782329917 -22.51929474 6.499063969
1.877992868 -23.63366508 7.653244972
3.79272294 -49.62185669 4.852089405
1.923612595 -25.51439476 3.711530685
1.831062317 -24.24762535 5.235506058
1.944708943 -25.59488106 6.394437313
1.735485196 -22.89534378 6.597905159
1.785995364 -23.48898315 7.608794689
3.650501966 -50.01427078 4.886097431
1.831796408 -25.44557571 3.703764439
1.658597946 -23.08568382 4.214444637
1.765259624 -24.46922684 5.277686119
1.850325108 -25.50014687 6.372653484
1.682962656 -23.23081589 6.686074734
1.686529756 -23.23127747 7.530299187
3.667834044 -54.61215591 1.50322938
3.488264084 -50.16173553 4.899709225
1.747107267 -25.46953392 3.707046747
1.564805269 -22.86643028 4.180772305
1.6955446 -24.65732956 5.313529491
1.746308327 -25.2610817 6.318161488
1.602879763 -23.21509743 6.681529999
1.620939732 -23.41821671 7.586149216
3.480355024 -54.62459564 1.505737662
3.316607237 -50.18338776 4.902853966
1.742639661 -26.68213463 3.851629019
1.503821254 -23.10827827 4.218367577
1.607904792 -24.60019302 5.302695274
1.599160194 -24.36383057 6.114299774
1.546122313 -23.53868675 6.766670704
1.568961859 -23.82277107 7.70776701
3.29026413 -54.59446335 1.507663608
5.923807144 -93.93893433 5.290442467
3.269684553 -52.16165924 5.069473267
1.651971459 -26.68198967 3.852124691
1.430902362 -23.19018555 4.231289864
1.427893877 -22.99482536 5.803398609
1.459106803 -23.429842 6.737653732
1.45671773 -23.34244728 7.562301636
5.598698139 -93.95885468 5.294739723
3.086886168 -52.11488724 5.067020416
1.906152129 -32.37507248 4.529532433
1.297804475 -22.28929901 4.092385292
1.335276008 -22.86308098 4.971957684
1.351803899 -23.02478218 5.810168266
1.384932876 -23.51756287 6.760619164
1.742536068 -29.29146004 9.357818604
2.33261919 -43.87883759 1.367655754
2.949976444 -52.86938858 5.131575584
1.809729338 -32.6232872 4.559741497
1.215824842 -22.17121696 4.074459076
1.257629871 -22.85763359 4.971096039
1.216543317 -22.03020096 5.584386349
1.305033207 -23.51622772 6.760128498
1.377795577 -24.72032928 7.977568626
2.176524162 -43.76686096 1.367973924
2.778569221 -53.07423401 5.150246143
1.685577273 -32.38532257 4.532170296
1.1507833 -22.3528347 4.102880478
1.188897252 -23.01671219 5.001628876
1.134717464 -21.8938942 5.553510189
1.327587128 -25.40511322 7.25891161
1.266275525 -24.21609116 7.825124264
2.025203943 -43.73820496 1.369404435
2.641415834 -53.99512863 5.228859425
1.599333286 -32.87088776 4.590693951
1.079633474 -22.4375267 4.11635828
1.104964733 -22.89497375 4.978693962
1.06036067 -21.885849 5.551804066
1.375607014 -28.05920029 7.959849358
1.153564572 -23.61767578 7.644338608
1.875160575 -43.73300552 1.371142387
3.364598274 -73.65822601 6.875933647
1.553174615 -34.2906189 4.760430336
1.000171423 -22.35612869 4.104196072
1.074504852 -23.70178413 6.80910635
1.342982054 -29.32311058 9.366435051
1.725499749 -43.73526382 1.37297225
3.110934019 -73.6891861 6.880820751
1.002466559 -24.10309029 5.209609032
1.240032554 -29.26224327 9.348063469
2.858031034 -73.74317169 6.887683868
1.166517019 -30.43263245 4.302960873
2.595961809 -73.54929352 6.873832226
1.062384725 -30.41653633 4.301882744
1.021256208 -32.33538055 4.531285286
1.408272743 -78.8949585 7.335361004
1.136901379 -78.9987793 7.346940041
-69.97263336 48.6686058 0.3196651042
-16.40990257 11.66195011 0.3068091273
-16.35728836 11.65543461 0.8939440846
-16.35034752 11.6870575 1.478813052
-16.32028389 11.66305065 0.3077375293
-16.30595589 11.68854237 0.8918834329
-16.30504608 11.72539711 1.476298332
-16.32670212 11.73157978 2.064590454
-16.29738235 11.74463463 2.651991844
-16.29345703 11.77557755 3.246293545
-16.27734566 11.80035496 3.84482789
-16.2566452 11.8215971 4.449341774
-16.24611092 11.84812927 5.064948559
-16.22348595 11.86872482 5.687746525
-16.21042633 11.89822578 6.326328278
-16.25979996 11.68816376 0.3068747818
-16.25607872 11.72271824 0.8897946477
-16.24745178 11.7531805 1.473421454
-16.24782181 11.74148083 2.059201956
-16.24135017 11.77395725 2.647483349
-16.2298851 11.79858208 3.239680529
-16.22883606 11.83634949 3.840260506
-16.20667076 11.85639668 4.443899155
-16.1829071 11.87160587 5.054824352
-16.18815994 11.9164238 5.686475754
-16.14329529 11.91837692 6.312127113
-16.24645042 11.75313663 0.3030640483
-16.23043823 11.7774601 0.8872954249
-16.22170067 11.80802822 1.471474528
-16.22361946 11.79771805 2.057929993
-16.20944023 11.8237896 2.645912409
-16.20838165 11.85754871 3.240153551
-16.18620491 11.87730408 3.836976767
-16.1877079 11.91798401 4.446656227
-16.1607933 11.93057728 5.057547092
-15.50667572 11.59424591 2.57178998
-15.49992561 11.67037868 0.8794638515
-15.49276543 11.7020998 1.442029595
-15.52805614 11.72281742 2.009382248
-15.49495125 11.74159241 0.8765815496
-15.47874546 11.76539135 1.440422535
-15.51691055 11.78898239 2.00911212
-15.48476791 11.81229782 0.8736201525
-15.4732914 11.83680916 1.43904984
-15.5054512 11.85520267 2.008824348
-15.52585125 11.91299629 2.583476543
-15.4879303 11.89179707 0.8705283999
-15.49397278 11.93268585 1.438404322
-15.50204754 11.93303394 2.009182215
-15.50645161 11.97268486 2.583506584
-15.48232841 11.95986938 0.8677290082
-15.46278858 11.98128033 1.436285257
-15.50210571 12.0067873 2.009750605
-15.50283718 12.04728222 2.585508347
-15.47446728 12.03010941 0.8647944331
-15.44164658 12.03933811 1.434442282
-15.50131989 12.08412266 2.010291815
-15.49884892 12.1219883 2.58748889
-15.47210121 12.10589409 0.8617239594
-15.43190289 12.10833454 1.432910204
-15.48849201 12.15065765 2.009926319
-15.49593735 12.19817066 2.58962822
-15.47953796 12.19139671 0.8584262133
-15.4290905 12.18426991 1.431561232
-15.4782486 12.21998024 2.009763241
-15.49263954 12.27446747 2.591745377
-15.46568775 12.26127243 0.8553685546
-15.42588902 12.26031971 1.430189967
-15.47490215 12.29625225 2.010131121
-15.45781422 12.33326149 0.8523210883
-15.4136467 12.32817936 1.428558111
-15.46916962 12.37473297 2.010356188
-15.45446968 12.40602684 0.8493136168
-15.45716286 12.45027065 1.428448319
-15.45555305 12.43804264 2.009925365
-15.3464098 12.4507513 2.583683014
-47.00069427 45.02338409 2.260255814
-47.07054138 45.0716095 4.433292389
-46.76972198 45.09635925 2.248979568
-46.80389023 45.09356308 4.415308952
-46.52902222 45.15822601 2.237451315
-46.59394836 45.18761444 4.401796818
-46.29536438 45.22614288 2.22611618
-46.51986694 45.42147446 4.398709774
-46.05898285 45.29007721 2.214715481
-46.32023621 45.52566147 4.386010647
-45.83094788 45.36159134 2.203539371
-45.90548325 45.40343857 4.356797695
-45.70348358 45.35713196 6.495285988
-45.59469604 45.42333984 2.192155361
-45.6161232 45.42549896 4.337336063
-45.51966095 45.47455215 6.482331276
-45.39411545 45.52187729 2.181699276
-45.3837204 45.47505569 4.321988106
-45.33417892 45.5897789 6.469188213
-43.99199677 44.33099365 2.140370369
-45.28538895 45.68271637 4.317097187
-45.13619614 45.69111252 6.454462051
-43.73986435 44.36346817 2.12874651
-43.80151367 44.39588165 4.205462933
-44.9177475 45.76964188 6.437116146
-43.53401947 44.44476318 2.118313551
-43.56317139 44.44261169 4.189724922
-44.7019577 45.85013199 6.420120239
-43.30652618 44.50152206 2.107334614
-43.35194016 44.51769257 4.176080704
-44.45928955 45.90018463 6.399654865
-43.08181 44.56018066 2.096432447
-43.11651611 44.56520844 4.160572529
-42.88608932 44.47682571 6.206670761
-42.85984421 44.62077713 2.085605621
-42.92937851 44.66502762 4.148798943
-42.71009827 44.58812714 6.194493294
-42.81619644 44.86432648 2.079492092
-42.74468994 44.76704407 4.137222767
-42.54673767 44.6978302 6.183446884
-43.61090088 46.06508636 8.461823463
-42.9360466 45.29344559 2.077393293
-42.79829407 45.12125397 4.143975258
-39.53495407 41.59080505 5.800841331
-43.42972565 46.16327667 8.447109222
-43.11182022 45.80572128 2.076319933
-38.14685822 40.14852524 3.786006689
-38.40085983 40.58882523 5.662683964
-43.30067825 46.32048035 8.442040443
-43.27658081 46.32670212 2.074595213
-38.00040817 40.27259445 3.777241707
-38.02745438 40.45600128 5.624154091
-43.02746201 46.34448624 8.412372589
-43.31473923 46.70761108 2.069676161
-37.70507812 40.3781929 5.592226505
-42.73773575 46.34754944 8.379600525
-43.09460449 46.79263306 2.058429956
-36.28337097 38.87112808 3.649016857
-37.40452957 40.32272339 5.563101292
-42.90120697 46.84309387 2.048960924
-36.2202034 39.02610016 3.646170139
-37.27081299 40.40403748 5.55393362
-42.67603683 46.90419388 2.03788352
-36.94729614 40.30359268 5.521198273
-42.44058228 46.95206451 2.026566982
-37.49428558 41.07488632 3.750452995
-36.63645172 40.21508408 5.490064144
-42.25157166 47.0539856 2.016357899
-35.48067093 38.96385193 3.595918894
-36.59649277 40.44733047 5.494828224
-42.00341415 47.08449173 2.004754782
-37.11880875 41.19838333 3.726388454
-36.1477623 40.18931198 5.445279598
-41.77337265 47.13539505 1.993587852
-41.94264984 47.3090477 4.106275082
-40.13636017 45.30410385 5.987540722
-41.58661652 47.23777771 1.983432889
-37.70604706 42.97669983 9.531648636
-41.37685394 47.31153107 1.972743154
-34.7878685 39.21295929 3.551796675
-36.03717422 40.90208817 5.4612813
-34.61312103 39.3052063 7.021359921
-37.61144638 43.16188812 9.535844803
-39.65875244 45.5230217 1.927535176
-34.6676178 39.35253143 3.545058727
-34.30992508 39.05013275 5.239686966
-34.51651001 39.46098328 7.020551682
-37.45668793 43.2881546 9.526677132
-39.46040344 45.5959549 1.917346001
-34.62785721 39.56488419 3.544396639
-34.12821198 39.09744644 5.225256443
-34.16266632 39.29533386 6.970591545
-35.96514893 41.70375061 9.18200779
-39.41460037 45.84302902 1.910887599
-39.33726883 45.73408127 3.917231083
-34.07736206 39.29450226 5.227987766
-34.16503143 39.56110382 6.987941742
-35.76160049 41.74067688 9.158285141
-40.49823761 47.53155136 1.929417133
-40.59967041 47.63029099 4.019473076
-34.1362648 39.64551926 5.246159554
-34.8772316 40.89396667 8.962573051
-40.25382996 47.55669403 1.917975783
-34.48847961 40.21372604 3.541240215
-33.68850708 39.35467911 5.195754528
-34.76798248 40.8783989 7.139688015
-39.93577957 47.48618698 1.904921532
-39.92348099 47.44210815 3.972586393
-34.48968887 40.80947876 7.104538918
-34.44556046 40.91774368 8.907617569
-34.86441803 41.62916183 10.87896824
-40.04304123 47.96053696 1.901231289
-39.98661041 47.85958099 3.98079443
-34.42977905 40.87090683 5.317587852
-34.24620819 40.78313446 7.076043606
-34.68423462 41.69018173 10.85862637
-40.21337128 48.52172852 1.898810148
-34.0863533 40.71375275 5.281462669
-34.58270264 41.51262665 7.160558224
-34.07502365 41.01602936 8.867968559
-34.69882584 42.00711441 10.89947701
-35.40039444 42.57842636 1.78868103
-33.71891403 40.35830688 3.491382837
-33.89428711 40.751194 5.265971661
-34.32810974 41.47323227 7.130100727
-33.89458466 41.07025909 8.849369049
-34.58388519 42.15517044 10.89996147
-35.24042892 42.67037582 1.779785633
-35.27398682 42.69019318 3.617367029
-35.25203323 42.83444214 5.463454723
-34.30620956 41.74016571 7.145217896
-33.99195862 41.49356461 8.901855469
-39.79057312 49.00561523 1.870944142
-35.11013031 42.7772522 3.607331038
-33.44103241 40.73108673 5.225447655
-33.67315292 41.36339569 8.847986221
-34.26772308 42.33677673 10.87403107
-39.60113144 49.10314178 1.860589743
-39.64217377 49.13048172 3.97022748
-34.85496902 43.09355164 7.294137478
-33.41443253 41.31092072 8.809350967
-34.77854156 43.33465958 11.07447529
-39.34939194 49.11647034 1.848928571
-39.40587234 49.1828537 3.955069304
-32.84479523 40.51118469 5.164989471
-33.24071884 41.38664627 8.793966293
-39.15264511 49.20265198 1.83842361
-39.18651199 49.22164917 3.940913439
-32.72552109 40.63970184 5.159470081
-34.45699692 43.17246246 7.256228447
-34.006073 42.71934891 9.019568443
-38.93814468 49.24636841 1.82787466
-39.04154968 49.37850189 3.932863474
-32.45746994 40.5502739 5.13272047
-38.72002411 49.3018074 1.816934705
-32.38064957 40.56821823 3.404680967
-32.67717743 41.14556503 5.174571514
-33.6424675 42.65460587 7.133841515
-38.52302551 49.38549042 1.806426287
-38.63733673 49.53547287 3.907684326
-32.30625153 40.9274559 5.134021759
-32.20209503 40.95375061 6.865200043
-32.82794571 42.00413895 8.799585342
-33.40262985 42.97714996 10.82305717
-37.30267715 48.04143524 1.775466323
-38.40161514 49.54817581 3.892235279
-34.41222382 44.17183685 5.44116497
-33.6628952 43.30472183 7.179571152
-32.81524277 42.27667618 8.824099541
-33.08599472 42.84207916 10.7589426
-37.07324219 48.06785202 1.764505625
-37.11816406 48.10617828 3.793033361
-32.29841232 41.67254639 6.923781872
-32.71192169 42.43832016 8.826442719
-32.78871155 42.73106003 10.70082378
-36.86942291 48.12916946 1.754059792
-36.90619659 48.15668869 3.779555798
-37.90552521 49.78032684 5.959475994
-32.13797379 41.74777603 6.911717415
-32.56708145 42.54138184 8.817926407
-33.09606171 43.48685074 10.84141254
-36.81715775 48.40576553 1.746557713
-32.21535873 41.82323456 3.406348705
-37.73502731 49.90088654 5.949453354
-31.99551964 41.84846878 6.903343678
-32.27549362 42.43264008 8.770368576
-32.9163475 43.5463295 10.82235622
-37.43750763 49.6509552 1.751919627
-37.57175827 49.81902313 3.840230942
-31.80686188 41.71882248 5.121490479
-31.83465385 41.92250443 6.891260147
-32.11499023 42.51135254 8.757661819
-37.25567245 49.72764969 3.81849432
-32.57633591 43.50082397 8.912073135
-32.32476425 43.3216095 10.70692062
-37.05234909 50.01206207 5.895153522
-31.48066902 42.03749847 6.861590385
-32.18127441 43.43019867 10.69970989
-31.72045898 42.35178757 3.379165173
-31.45207405 42.13860321 5.107475758
-31.33498383 42.13259506 6.852710724
-31.60960197 42.72579193 8.714880943
-31.9162693 43.37343597 10.65381813
-31.490839 42.3245163 3.363804579
-36.64509964 50.16972733 5.866517544
-31.27722359 42.54530334 8.655582428
-32.13577271 44.02766037 10.7692461
-36.42473984 49.99966812 1.698887944
-36.5165329 50.13166046 3.774073124
-31.28468895 42.68521118 6.885298252
-31.23463058 42.79833984 8.675091743
-32.13362503 44.33742142 10.80856514
-36.2356987 50.08759689 1.688526392
-36.28251648 50.13476562 3.75875926
-31.52856064 43.37328339 6.958182335
-31.61432076 43.44485855 3.38348484
-31.46485901 43.408638 5.158642292
-33.12132263 46.11282349 7.313558102
-31.34057426 43.54335785 5.153446198
-35.6287384 50.26537323 3.717311859
-35.57370758 50.40410614 5.784760952
-31.89211464 44.90476608 7.10195303
-35.40449524 50.29699326 3.702983379
-31.75240898 45.04306793 7.097066402
-34.23143005 48.88661575 1.618415594
-34.24267578 48.88298798 3.612237215
-31.6453495 45.21623611 7.09804678
-34.03718567 48.95132828 1.608175397
-34.04956055 48.94986343 3.600337982
-24.98373604 34.84601974 4.269431114
-31.70058441 45.64809036 7.133888721
-33.85018921 49.00828552 1.59840703
-33.85316467 49.01089859 3.588175058
-24.88823891 34.94456863 4.265364647
-31.45603752 45.60574341 7.105750084
-34.55888748 50.51407623 1.602784991
-23.11479187 32.21975327 2.7103405
-24.76106644 35.00598145 4.257169724
-31.67313385 46.30519867 7.177091599
-34.34358215 50.55416107 1.591996551
-23.0329628 32.33236313 2.706210136
-24.69246101 35.16188431 4.25771904
-34.15565491 50.6376152 1.581645727
-22.56255913 31.815485 2.670089722
-24.61468697 35.30411911 4.256975174
-33.97587204 50.7340126 1.571415901
-22.28369904 31.60250664 2.649681807
-24.45218277 35.30829239 4.243587971
-33.73561096 50.73058319 1.560255647
-22.17349625 31.66295815 2.643171787
-22.57416534 32.47182846 3.971887827
-23.52264595 34.18663788 5.490721226
-33.54319763 50.80490875 1.549832582
-22.12368393 31.83583069 2.641799688
-22.5276165 32.64471054 3.975064993
-23.33051109 34.14281464 5.468132973
-33.34653091 50.87162399 1.539343834
-21.78749466 31.50651169 2.61644125
-22.31702805 32.54343414 3.95345974
-33.14772797 50.93413162 1.528823256
-21.74289322 31.67520714 2.615377426
-22.08508492 32.40327835 3.928518772
-32.94885254 50.99585724 1.518302083
-21.61832619 31.70961761 2.607685328
-22.17363739 32.80744934 3.952421904
-32.75393295 51.0637207 1.507836223
-21.48568916 31.72971725 2.599323034
-21.81506348 32.44693375 3.908020973
-32.54688644 51.11004639 1.497202992
-21.35212708 31.74753571 2.590883732
-21.7488327 32.58715439 3.908349276
-22.60410309 34.22205734 5.400713921
-30.62997818 48.15685654 1.464024305
-21.2256279 31.77692986 2.583034754
-21.95652771 33.1950264 3.950525522
-21.99762154 33.42711639 5.283070564
-30.44532394 48.21643066 1.454166174
-21.16980934 31.91732979 2.580973864
-21.5400238 32.72364807 3.896855116
-21.88029861 33.48527145 5.275579453
-21.11568642 32.0746994 2.579216242
-21.22476768 32.42356873 3.858602762
-21.74906921 33.50509644 5.263980865
-31.12565422 50.20733643 1.44765687
-20.49695778 31.22624779 2.52998209
-21.15854454 32.56406784 3.859035254
-21.42409897 33.18870544 5.208931446
-30.93227577 50.26491928 1.43738997
-20.42419434 31.34496117 2.526611805
-21.15526199 32.81966019 3.869418144
-21.28084183 33.19605255 5.195316792
-30.76006699 50.36029053 1.427377343
-20.30835533 31.38653755 2.519621611
-21.03532028 32.86580276 3.861586094
-21.15584946 33.23594284 5.185902596
-24.78689384 39.84313965 1.349390388
-20.1329937 31.31896973 2.5075984
-21.59479523 34.16055679 3.961198568
-21.38385582 33.92736816 5.258584976
-24.51474571 39.66570663 1.339940786
-20.01260948 31.35067558 2.500221014
-21.52426147 34.30822372 3.96167469
-20.88876343 33.28275299 5.163115978
-21.95292664 35.4431839 6.816302299
-30.14960098 50.47191238 1.396223187
-19.99915504 31.58079338 2.501932144
-20.84514046 33.31980896 3.865212917
-20.78706551 33.36500549 5.159189224
-29.96915245 50.5504303 1.386100769
-19.88274384 31.62074852 2.494916677
-19.91142273 31.83373642 3.727268934
-20.38333893 32.87560272 5.084056854
-20.97193527 34.16446304 6.570624352
-24.02884483 39.7331543 1.315505505
-19.87648964 31.86872292 2.497304678
-19.7914772 31.86830902 3.719065428
-20.28568268 32.96144485 5.080864429
-20.89162827 34.29468155 6.575116634
-23.911026 39.83815765 1.307824612
-19.92438698 32.22322083 2.504366636
-19.84767342 32.24017334 3.739305735
-20.17939377 33.03111267 5.075687408
-20.81062698 34.42474365 6.579571247
-29.38127136 50.6950798 1.355229855
-19.74323273 32.14224243 2.491866589
-20.00775719 32.81830978 3.776642084
-20.00368309 32.96608353 5.053930283
-21.18170929 35.43908691 6.728106022
-29.19565582 50.7619133 1.345043063
-19.46212196 31.86498451 2.470763206
-20.06117249 33.19740677 3.797011375
-20.05814743 33.35001755 5.08748579
-20.97620583 35.33392334 6.693883419
-29.00171089 50.81202698 1.334775567
-19.58695602 32.37625504 2.484539986
-19.9755249 33.46862793 5.088312626
-20.28323936 34.25699234 6.502497196
-28.81134033 50.86853409 1.324541211
-19.07341003 31.63552666 2.443348169
-20.45151901 34.53496552 3.885116577
-19.9199028 33.64214325 5.09582901
-19.93107033 33.8433876 6.419390678
-28.63165092 50.94576645 1.314396858
-18.81192017 31.38271141 2.423796892
-21.1472435 36.22164917 4.012499332
-19.86062431 33.81032944 5.102639675
-19.89694023 34.06473541 6.439017296
-28.45796776 51.03487778 1.304293275
-18.74213219 31.5094986 2.420803547
-21.44367027 37.13073349 4.074931145
-19.63778305 33.64856339 5.069403648
-19.78481674 34.12982559 6.433462143
-27.30201149 49.11231613 1.28690207
-19.09202003 32.47392654 2.454124928
-19.9149971 34.32234573 3.833412647
-19.28226852 33.19698334 5.002041817
-19.6799736 34.19523239 6.428800583
-27.11450195 49.15549088 1.277023077
-18.29743385 31.13001442 2.388164759
-19.74868965 34.27765656 3.818340302
-19.13977242 33.20520782 4.989164829
-19.79842377 34.73936844 6.499778271
-26.93745041 49.21953964 1.267220974
-18.15620613 31.1212883 2.379093885
-20.97933197 37.12637329 4.038021088
-19.23358727 33.69052505 5.034268856
-19.41454887 34.25492859 6.405921936
-26.76197815 49.2865448 1.257424593
-18.7498455 32.6125946 2.433988571
-21.50789261 38.55708694 4.14131403
-27.33665466 51.02635574 7.094017982
-19.31594849 34.33347321 6.403506279
-26.59131813 49.34165955 1.248086572
-19.10356712 33.6400528 2.468308926
-21.3737545 38.59724045 4.13250494
-19.11309052 34.01581573 5.047305107
-19.21537209 34.42348099 6.402153015
-26.40867996 49.39294052 1.238235831
-18.10536766 31.80888748 2.383828878
-17.98566055 31.72896957 3.569675684
-19.06833649 34.22212982 5.058607578
-18.81482506 33.85329437 6.297472
-26.22258377 49.43628311 1.228365183
-18.00011826 31.86528206 2.377822399
-17.88574409 31.79602623 3.564760923
-18.60111809 33.50374603 4.960987568
-18.91196251 34.36787033 6.363234043
-17.5632 31.20701408 2.342520475
-17.80308533 31.90079308 3.562852859
-18.52062988 33.62922287 4.962952614
-18.85694313 34.55750275 6.377677917
-20.2702446 37.38198853 1.18150723
-17.52095795 31.39409065 2.34203577
-17.48017502 31.48104095 3.519432783
-18.4427433 33.76177979 4.965731621
-18.76001549 34.6569519 6.377953529
-20.11646843 37.38198853 1.174041867
-17.38395691 31.37571526 2.333171368
-17.37107468 31.52459908 3.512845755
-18.43681717 34.05555725 4.987389565
-18.5428009 34.48868179 6.336506367
-19.99086761 37.44333649 1.166703463
-17.37798882 31.64640236 2.335969448
-17.27817345 31.60416412 3.509108782
-18.33581924 34.1408577 4.984536648
-18.33658409 34.34101868 6.29851532
-19.79157257 37.33992386 1.159088016
-17.12472153 31.36823273 2.316738844
-17.2043457 31.72720337 3.508770227
-18.00682259 33.71110916 4.921706676
-18.27100945 34.50955582 6.309772491
-19.62721825 37.31237793 1.15163672
-17.00389671 31.38287544 2.309303522
-17.16600227 31.93226433 3.514786959
-17.65068626 33.21022797 4.851024628
-18.34355354 34.99759293 6.37036705
-19.50102043 37.37020493 1.144314885
-16.89116669 31.41534615 2.3025949
-17.07295227 32.01491547 3.511238337
-17.54358673 33.27285004 4.846006393
-18.24587059 35.09924316 6.371079445
-19.49817657 37.71190262 1.137271285
-16.76961327 31.42723465 2.295095444
-16.82598877 31.74201012 3.480248928
-17.51631165 33.52150726 4.862471581
-19.12370872 37.48624039 6.72304678
-19.3104744 37.62966919 1.129759669
-16.80542564 31.80397606 2.301809311
-16.7459259 31.85292435 3.478984356
-17.30290413 33.3366394 4.828986168
-18.61049271 36.62958145 6.575926304
-19.19727325 37.71950531 1.122400045
-16.62709427 31.68492317 2.289206743
-16.66836548 31.97100067 3.478248596
-17.20681763 33.42559433 4.82709074
-18.49972534 36.71596909 6.573774815
-24.90416145 51.59460068 1.12062633
-16.50730133 31.70125198 2.281891823
-16.59554291 32.10179138 3.478458166
-17.10307121 33.51300812 4.82442522
-17.76416969 35.29642487 6.342143059
-24.72503471 51.66335678 1.11044395
-16.43162346 32.01505661 3.462122917
-17.00000572 33.58668137 4.820807457
-18.39249611 37.18718719 6.614151001
-24.54919243 51.71487427 1.10076189
-16.2732029 31.74546242 2.267764568
-16.30729866 32.00648117 3.452283144
-16.81267548 33.438591 4.792639256
-17.63610268 35.67226791 6.370038033
-24.29910088 51.61029053 1.090595245
-16.09136963 31.59363365 2.254579544
-16.19206429 32.03475571 3.444788694
-16.7572155 33.61221313 4.801036835
-17.50690842 35.68494797 6.358134747
-24.10719109 51.64540863 1.080434442
-15.88505173 31.39310265 2.239287615
-16.05886841 32.01820374 3.43396306
-17.49568939 35.7837944 5.0341115
-17.39153481 35.74929047 6.353377819
-23.93021011 51.71691513 1.07025528
-15.74739933 31.3584156 2.230280399
-16.91492462 34.47643661 3.608055115
-17.37849045 35.84421158 5.028363228
-17.74479675 37.00166321 6.527263165
-24.27880669 53.1090126 1.059028029
-15.59387398 31.28227615 2.219791651
-16.08314133 32.71632004 3.46688509
-18.18824387 38.26279068 5.286903858
-17.5966301 36.99494934 6.511452198
-25.22192001 56.06541061 1.045174837
-15.52071571 31.42327118 2.216935158
-16.41158867 33.89979172 3.54442215
-16.75077248 34.97255707 4.905490875
-17.48451614 37.09913254 6.511592388
-15.60592747 31.9568615 2.228686333
-16.28212357 33.90785217 3.535064697
-16.6634388 35.10095596 4.907760143
-17.35693169 37.14500427 6.503790379
-15.32999706 31.56455994 2.20678091
-15.62702656 32.52707672 3.424184561
-16.68441582 35.51545715 4.941762447
-17.24742317 37.23859406 6.503144264
-27.06125641 62.58964157 1.002571344
-15.48163223 32.26665497 2.224715233
-15.55286121 32.66474152 3.424814224
-16.53287506 35.48003769 4.925769329
-17.41405869 38.05108643 6.609864235
-15.40405941 32.39257812 2.221430779
-15.46385479 32.76491547 3.422676086
-16.33491325 35.30003738 4.894522667
-17.40090561 38.41436386 6.648865223
-15.22002316 32.23563766 2.20810914
-15.31315422 32.70025253 3.408558846
-16.31367111 35.6312561 4.918486595
-15.12262249 32.32541275 2.203169823
-15.25735092 32.89151382 3.413029432
-16.25740051 35.85398483 4.930997849
-16.61221886 37.0788765 6.422215462
-15.07075405 32.50658417 2.202172518
-15.23461533 33.1594696 3.42342782
-16.16666031 35.96598053 4.931923389
-16.45698166 37.02423477 6.400839806
-14.98716831 32.60318375 2.198185682
-15.0478344 32.9940834 3.402162075
-16.09072495 36.12083817 4.937510967
-16.33339882 37.05671692 6.392341137
-14.8793211 32.65076447 2.19210577
-14.99347878 33.19625854 3.407296896
-16.1145134 36.57980728 4.97549963
-16.13520432 36.89661026 6.355094433
-14.89416409 33.04465485 2.197857141
