# .PCD v0.7 - Point Cloud Data file format
VERSION 0.7
FIELDS x y z
SIZE 4 4 4
TYPE F F F
COUNT 1 1 1
WIDTH 1327
HEIGHT 1
VIEWPOINT 0 0 0 1 0 0 0
POINTS 1327
DATA ascii
13.67139721 43.98293686 0.7717056274
6.105599403 24.85386658 1.816785455
6.176196575 24.89569092 2.722306728
6.326170444 25.11999321 3.655576229
14.25564384 44.3995285 7.352927208
14.386096 44.47408676 9.047877312
14.52513218 44.54417419 10.77060413
14.67344284 44.63210297 12.53122807
6.129502296 24.81761551 0.9129749537
13.98211002 44.06008911 2.385163307
14.11527824 44.14905167 4.01992321
6.394636631 25.04741669 3.646931887
14.42368031 44.37891769 7.35052681
14.56190491 44.47132492 9.050304413
14.70867825 44.55892181 10.77922153
14.8481493 44.6245079 12.53706169
14.01272774 43.96396637 0.7546539307
14.15965652 44.06576157 2.379002333
14.28256607 44.128582 4.014511108
6.475655556 25.00592422 3.641606569
14.60701466 44.39427948 7.353389263
14.73486423 44.46060181 9.051397324
14.88872433 44.56389618 10.78582287
15.02378464 44.61801529 12.54335594
14.18854809 43.96549988 0.74602139
14.32829571 44.04854965 2.372176647
14.46127987 44.11357498 4.009311676
6.564943314 24.98436356 3.638421535
14.79220581 44.41254425 7.356762886
14.91400433 44.4424324 9.051410675
15.06665421 44.54156494 10.78679943
15.21028614 44.63586426 12.55620003
14.37439823 43.96875763 0.7369266152
14.49779892 44.03252411 2.365402699
14.6449585 44.13042831 4.006494999
14.81530476 44.28082275 5.670557976
14.95915508 44.38624191 7.353820801
15.09496117 44.44846725 9.055808067
15.24325371 44.53609467 10.79138279
15.38633251 44.62795639 12.56247616
14.54317284 43.97198868 0.7286801934
14.6790514 44.0434761 2.35943222
14.81728458 44.11894989 4.001811504
14.99076939 44.29587555 5.670709133
15.13393879 44.37753296 7.353500843
15.27172375 44.46421432 9.061927795
15.41710567 44.54391098 10.79876804
15.56255627 44.61935425 12.56874752
14.71500492 43.96034241 0.7201157808
14.84446716 44.03664017 2.353267193
14.98771763 44.12283707 3.998391628
15.15914345 44.27228546 5.666779041
15.31391239 44.40047073 7.357773304
15.44535637 44.45071411 9.062994003
15.59803009 44.54603577 10.80533218
15.74150658 44.63644028 12.5814991
14.87946415 43.9512291 0.7119523287
15.0270195 44.04800797 2.347327471
15.17064953 44.13384628 3.99529171
15.33825684 44.29328537 5.667678356
15.48276806 44.3758316 7.355344296
15.61788082 44.45423889 9.067107201
15.77159214 44.55069351 10.81229687
15.91338253 44.61577988 12.5849514
15.07131767 43.94279861 0.7024664283
15.21023369 44.03887177 2.340492725
15.34545612 44.10424805 3.989324093
15.52280045 44.2636528 5.663115501
15.67844868 44.39081192 7.358772278
15.80538559 44.42921829 9.066683769
15.96578407 44.5394249 10.81682396
16.10091019 44.60889816 12.59265804
15.24567032 43.9543457 0.694083631
15.38531113 44.03041458 2.334004879
15.5280571 44.11194611 3.986081839
15.69843483 44.27409363 5.663032055
15.85562134 44.38288879 7.358942986
15.98635674 44.44935989 9.07407856
16.12773323 44.51584625 10.81779575
16.29145241 44.62760544 12.60682869
15.43101978 43.96923065 0.685212791
15.55465508 44.02822113 2.328020334
15.70259476 44.12039566 3.983112097
15.85754299 44.22598267 5.656793118
16.02864838 44.38484573 7.360556602
16.17362404 44.46183777 9.08039093
16.31838608 44.53472519 10.82870293
16.4618187 44.62058258 12.61393833
15.5897398 43.94280243 0.6771625876
15.74391651 44.04943466 2.322398663
15.88329697 44.12115479 3.979480982
16.03682518 44.24235916 5.657457829
16.20783043 44.37915039 7.361232758
16.33890343 44.44460678 9.081172943
16.49037933 44.53125763 10.83443642
16.63914871 44.60774612 12.62016487
15.769063 43.94164276 0.6684156656
15.92453671 44.04980087 2.316193342
16.05258369 44.1154747 3.975641489
16.20912933 44.22200775 5.654272079
16.38802338 44.37453461 7.362160683
16.52504158 44.45203781 9.08680439
16.66850853 44.52014923 10.83895969
16.8256321 44.61361313 12.63150501
15.94531727 43.93246078 0.6597338915
16.09298325 44.02212143 2.309212446
16.23455429 44.11663818 3.972112894
16.36325455 44.16117859 5.6468997
16.57674217 44.38719177 7.365674019
16.70150757 44.43722153 9.088482857
16.83767891 44.48879242 10.83910942
17.0148716 44.62399673 12.64422798
12.11257267 35.13209152 0.7427774072
7.524154663 24.94034576 1.770678401
16.41592216 44.115242 3.968453884
16.55067444 44.17205429 5.647132874
16.75153923 44.3685112 7.364768505
16.8864727 44.4395752 9.093436241
17.20193291 44.62831879 12.65554237
7.584922314 24.98204803 0.8437662125
7.579308987 24.84021378 1.764454484
16.59584808 44.10948181 3.964544773
16.73587227 44.17674255 5.646783829
17.07337952 44.4447403 9.099034309
17.38338852 44.61959457 12.6635952
7.627501965 24.85434532 0.840211153
7.712586403 24.90846634 1.762913942
16.77426529 44.09938049 3.960388422
16.91030502 44.15725327 5.643963337
17.25546646 44.43843842 9.102655411
17.55911827 44.59786606 12.66839314
7.603116512 24.58539581 0.8382591009
7.801298141 24.88022232 1.758709311
17.09682083 44.1622467 5.643784046
17.43774986 44.43140793 9.106268883
17.75110245 44.60868454 12.6819973
7.607783794 24.38198853 0.8356691599
7.763031006 24.59540558 1.747675896
17.26896477 44.13595581 5.640387535
17.62368202 44.43073654 9.111181259
17.78261757 44.52489853 10.88534355
17.92552567 44.60137177 12.69043732
7.606245995 24.17897606 0.8333890438
7.767721176 24.39388275 1.738822937
17.43885231 44.12334061 5.638524055
17.81095123 44.45065689 9.119754791
17.95536804 44.51405716 10.89061451
18.11721039 44.60891342 12.70355415
7.780130386 24.33288574 0.8267784119
7.862589359 24.38158989 1.735151172
17.6295166 44.13327789 5.63906908
17.84396362 44.34522629 7.374076366
17.99917603 44.45199203 9.125294685
18.1454525 44.51819611 10.89981365
18.20409966 44.40498352 12.6606741
7.719316959 24.00014877 0.8258684278
7.963646412 24.38149643 1.731816649
17.81698418 44.13526535 5.638849258
18.03743362 44.35710144 7.378267765
18.17358589 44.4242897 9.125612259
18.20855141 44.26731491 10.85183048
18.274086 44.1696701 12.60953712
7.786565304 23.93391609 0.821867466
8.052799225 24.36684799 1.728264213
17.88505173 44.11676025 3.941605568
17.99584961 44.11863708 5.63674593
18.20948601 44.34348679 7.37874794
18.21696854 44.1349144 9.077773094
18.30153084 44.097229 10.82166862
18.44437027 44.15326691 12.61617279
7.871628284 23.9142971 0.817550838
8.241556168 24.55244827 1.730054379
18.05472183 44.09983826 3.93744278
18.17804337 44.12638855 5.637284279
18.23620415 44.04047775 7.337476254
18.32244492 43.99030304 9.056437492
18.47364616 44.08426666 10.82698441
18.63958359 44.1847229 12.6357317
8.022686005 24.02683067 0.8115836382
8.335547447 24.53474426 1.726244569
18.22900581 44.09119034 3.93386054
18.23921585 43.89350128 5.612629414
18.37285233 43.93915176 7.325571537
18.51334763 44.0141983 9.066320419
18.65880013 44.07735443 10.83425045
18.81869125 44.16488647 12.64240742
8.092442513 23.96503448 0.8075289726
18.10536766 43.67165375 2.227278709
7.5661726 22.70713615 2.52922821
18.39971542 43.83964539 5.606825352
18.55339622 43.92388535 7.326211452
18.69949913 44.00894928 9.071240425
18.84506798 44.07142258 10.84190273
19.01139069 44.17021942 12.65599537
7.428882122 22.34970474 1.662302732
7.534742832 22.4589901 2.511421204
18.57922554 43.82236862 5.604932785
18.74320602 43.92551041 7.329397202
18.88041878 43.99241638 9.074205399
19.04243851 44.08558273 10.85425663
19.19353867 44.15407181 12.66403961
7.610116482 22.62647057 0.8153788447
7.478890896 22.2635746 1.657041192
7.580555916 22.35488701 2.503014803
18.76530838 43.81673813 5.604333878
18.93328094 43.92633057 7.332570553
19.07448959 43.98178101 9.078704834
19.23672676 44.07419586 10.86148262
19.38039207 44.14577866 12.67438126
7.585012913 22.38300705 0.8138145208
7.556031227 22.23061752 1.653187752
7.878459454 22.74495316 2.527000666
18.96555138 43.81881332 5.604620457
19.12456322 43.92810822 7.335986137
19.26311493 43.97768021 9.084244728
19.42371368 44.06587982 10.86910439
19.58028412 44.16075516 12.69115734
7.591482639 22.2219429 0.8116808534
7.652526855 22.23459244 1.650300503
7.925719738 22.6506443 2.519345284
19.13999748 43.80667496 5.603477955
19.3170433 43.93083191 7.339644909
19.45376205 43.99413681 9.093408585
19.6108036 44.07454681 10.88025284
19.77317047 44.16115952 12.70423698
7.662940979 22.17778969 0.8077719212
7.578612804 21.92346954 1.639480114
19.33891106 43.82156372 5.605249882
19.49484253 43.92268753 7.341661453
19.64105415 43.98498917 9.098280907
19.79081345 44.05086899 10.88472271
19.95323181 44.15446091 12.71495152
7.717439175 22.11060333 0.8044167757
7.567362309 21.72592735 1.631500483
7.808008671 22.07633781 2.479089022
19.51566315 43.81147385 5.604457378
19.6746788 43.89938354 7.341747761
19.82951736 43.99466705 9.106448174
19.99528122 44.08904266 10.90288925
20.13915825 44.13962173 12.72433567
7.653092384 21.71200371 1.628240705
7.848705292 21.9845314 2.471789598
19.71048737 43.81596375 5.605280876
19.88019562 43.92241287 7.348666668
20.01065826 43.97182846 9.109045029
20.17570686 44.06383133 10.90734196
20.32619667 44.12571716 12.73417282
7.739985943 21.79929352 0.799847424
7.711289883 21.64672279 1.62369287
7.919094563 21.9308567 2.466862917
19.90371513 43.81611633 5.605723858
20.07089996 43.91669464 7.351519108
20.21274948 43.96841431 9.115742683
20.3760891 44.0561409 10.91646576
20.53043175 44.14167404 12.75225639
7.820211411 21.76499367 0.7956525683
7.775870323 21.59357834 1.619471669
7.999014854 21.90345573 2.463738441
20.09797668 43.79915619 5.604471207
20.25704765 43.90148926 7.353099823
20.40570831 43.96473312 9.122186661
20.56920815 44.05167007 10.92598248
20.73221588 44.15163803 12.7689476
7.930494308 21.80278778 0.7908412218
7.949011326 21.73826218 1.620208263
8.073090553 21.8652668 2.459938049
20.28230858 43.79826736 5.604926109
20.45592499 43.90804672 7.357951641
20.60780334 43.9936409 9.13448143
20.75795555 44.05563354 10.93705845
20.92476845 44.14378357 12.78104305
7.94341135 21.65418816 0.7885751128
8.009218216 21.68459129 1.616128683
8.184167862 21.90211678 2.461090088
20.48797417 43.81682587 5.607526302
20.63986206 43.9040451 7.361174583
20.79264832 43.97282028 9.138009071
20.95352936 44.05295563 10.94732952
21.11195564 44.14266968 12.79444695
8.070352554 21.7210083 0.7833065987
8.132265091 21.73523903 1.614499211
8.362772942 22.04962158 2.469357252
20.67288399 43.81435776 5.607956409
20.83738899 43.90548325 7.365496635
20.97793388 43.96915436 9.144499779
21.1525631 44.07238388 10.9622736
21.30691528 44.13658905 12.8074379
8.115479469 21.6316452 0.780182898
8.267573357 21.80618858 1.61335814
8.338382721 21.84360123 2.454821587
20.85961151 43.79653549 5.606884003
21.03422928 43.90433884 7.369554996
21.1748867 43.96737289 9.151859283
21.34971237 44.06973648 10.97290897
21.51967812 44.16001129 12.82864189
8.213240623 21.63624573 0.7756153345
8.369960785 21.81732178 1.610741138
8.443912506 21.85972786 2.454624176
21.05441666 43.79177094 5.607258797
21.23234177 43.90407181 7.373851776
21.38198662 43.98183441 9.162405014
21.53729248 44.04927063 10.97964668
21.70543289 44.13539886 12.8370409
8.275549889 21.57785606 0.7720320225
7.44490242 20.03163528 1.564499617
8.598432541 21.96022224 2.459893703
21.24749565 43.78271484 5.60725975
21.41781044 43.88063431 7.374877453
21.57359123 43.96808243 9.16782093
21.73591995 44.04665375 10.99064922
21.90906906 44.14022827 12.85364914
8.393348694 21.61640739 0.766902864
7.493525982 19.96228409 1.56018877
19.13624763 39.9883461 3.621763945
21.46083641 43.80726242 5.610871792
21.6314373 43.90439606 7.382907391
21.78137779 43.9807663 9.178337097
21.93880653 44.04994202 11.00319099
22.10906792 44.13747025 12.86841965
8.348284721 21.37225723 0.7663508058
7.591042519 19.97753334 1.557931185
19.32667542 40.00283051 3.620500803
21.64844322 43.78617859 5.609763622
21.82135963 43.88615799 7.384916782
21.96844673 43.95684433 9.182136536
22.14001846 44.04897308 11.01494408
22.30534744 44.12716293 12.88135433
7.877399921 20.401474 0.7778947353
7.665548325 19.95265198 1.554714918
19.50328636 39.99237061 3.617668867
21.85243034 43.79174042 5.611535549
22.02867699 43.89612198 7.391162872
22.1758709 43.96605682 9.192304611
22.34555435 44.05386353 11.02823353
7.596567154 19.76865387 0.7841960788
7.680776596 19.83473969 1.549431562
19.69844627 40.01206589 3.61681819
22.0445137 43.77587128 5.611132622
22.21665382 43.88916016 7.394799709
22.35823441 43.93204498 9.194498062
7.711921215 19.73732185 1.544536591
7.654937267 19.55872917 2.299676418
22.24777985 43.79436111 5.614355564
22.41233826 43.8769722 7.398028374
5.720726013 16.1308403 3.967918158
7.775829315 19.77852631 0.775895834
7.531643867 19.28840637 1.531424642
7.725913048 19.53731155 2.297375202
22.44242477 43.78023148 5.614290237
5.780910492 16.11096764 3.967317104
8.060220718 20.10226059 0.7660758495
7.592551708 19.24479866 1.527892828
7.752436161 19.43514633 2.28986311
5.846238613 16.09926987 3.968306065
7.786813259 19.50102615 0.7723896503
7.679307938 19.24367523 1.525360942
7.869066238 19.48121834 2.291888714
5.910554886 16.08562851 3.968977451
8.00599575 19.71400261 0.7644363046
7.985966206 19.5999794 1.531072021
7.857218266 19.31762695 2.280490398
5.974890232 16.07172012 3.9696486
8.128160477 19.7656498 0.7592882514
7.857365608 19.25415421 1.520723939
7.901292324 19.24593735 2.275013447
6.03818512 16.05587769 3.970003605
8.107226372 19.59277153 0.7584190965
7.969929218 19.29259109 1.519101739
20.9736824 39.97694397 3.600947142
6.114709377 16.06644249 3.975242853
8.147911072 19.51314735 0.7556774616
8.043522835 19.27490997 1.516325712
8.261179924 19.54174614 2.292267799
5.942957878 15.74565601 3.28861475
6.175973415 16.04671478 3.974963665
8.001523972 19.14454269 0.7585759759
8.123530388 19.2599926 1.513494492
8.32177639 19.494133 2.288386345
5.94439888 15.69759655 2.661997795
5.983897209 15.69637203 3.283401966
6.239924431 16.03671646 3.97640419
8.073620796 19.11778259 0.7549430728
8.020819664 18.96521378 1.504527688
5.966324329 15.68119049 2.044076681
5.989427567 15.65484333 2.658198595
6.031729221 15.66362476 3.280555725
6.303321362 16.01980972 3.976758242
5.959395409 15.61946106 1.42761302
6.001524925 15.62312031 2.039736032
6.057702541 15.65372467 2.658786297
6.375969887 16.02252769 3.980717897
5.979772091 15.6000967 0.8150339127
6.016068935 15.59486008 1.425076604
7.555556774 17.90753746 2.184868097
6.424229622 15.98197842 3.97666502
6.024414539 15.55684853 0.8125132322
7.607854366 17.85215378 2.180609226
7.682174206 17.9708004 0.7610426545
7.577200413 17.74718666 1.468137145
7.699865818 17.86354828 2.18066287
7.67696619 17.84014702 0.7599228024
7.579915524 17.63046074 1.463442445
7.66084671 17.68354797 2.168580532
7.770628929 17.85961533 0.7558014393
7.530488491 17.43046761 1.456870198
7.634092808 17.52390671 2.157823563
7.828561783 17.81849861 0.7527047396
7.556789398 17.34552765 1.452822328
7.661787033 17.44050789 2.151912928
19.17873955 34.5151329 0.402125597
7.598332882 17.28378296 1.449294209
7.760898113 17.46282196 2.152746677
7.885884285 17.57892418 2.86895442
19.35647011 34.52506256 0.3940504193
7.645213604 17.23020744 1.445958018
7.862559795 17.48793983 2.153775215
7.929239273 17.5181427 2.863615274
19.52438164 34.51929855 0.386274457
8.033369064 17.67942429 1.453335166
7.953186035 17.49611664 2.153744936
7.923517704 17.38684082 2.850813866
8.126261711 17.75614929 0.7383751869
8.220419884 17.82496452 1.454130411
8.094171524 17.57601547 2.158284903
7.95407486 17.31493568 2.844282866
8.212327957 17.75486946 0.7344151139
8.266742706 17.76604271 1.450638175
8.313123703 17.771698 2.170208216
8.210567474 17.55887985 2.871419907
8.283619881 17.73189354 0.7309162021
23.90298271 39.88838959 1.905334115
8.34075737 17.68656349 2.164308548
8.351436615 17.70372391 0.7275281549
24.08851433 39.87757111 1.900159836
8.238357544 17.41909027 2.146877766
8.548018456 17.80277824 1.444847107
8.514977455 17.69057274 2.163644791
8.718388557 17.9825573 0.7135671377
8.316428185 17.35628891 1.43354094
8.446712494 17.47912598 2.14983511
8.761490822 17.91708183 0.7109459043
8.629203796 17.66829491 1.437628508
8.48381424 17.40318489 2.144590378
21.42230606 35.22266006 0.3065726161
8.722284317 17.66749573 1.435266376
8.687470436 17.56142616 2.154207468
21.45206261 35.01277924 0.3031336963
21.60453796 35.08957291 1.779069304
8.734786034 17.50458145 2.15023303
21.40475082 34.70007706 0.3021901846
8.686639786 17.37622833 1.425057054
7.466409683 15.67528248 2.034212112
8.833590508 17.45399284 1.424390912
7.33841753 15.39718628 2.016333818
8.860726357 17.37633133 1.420790195
7.351614952 15.31003761 2.010550261
7.341094494 15.24635792 1.377416134
7.388480186 15.25480175 2.006803274
29.24584961 43.92313766 5.715312481
7.374001026 15.19133759 1.374551654
7.439572334 15.22360325 2.004605532
7.919836521 15.79628468 2.699491501
7.451717854 15.18991184 1.372630358
7.49063158 15.18714809 2.002082348
7.966637135 15.75553036 2.696561337
8.306195259 16.25130653 0.715231359
7.509963036 15.16787243 1.370414853
7.962303162 15.69883537 2.034190178
8.002417564 15.69533634 2.691642761
7.556296825 15.17808247 0.7387242913
7.579254627 15.15472889 1.368279338
7.641512871 15.1817646 2.001364231
7.977620125 15.56330967 2.678932905
7.558037281 15.07790089 0.7376833558
7.753326416 15.28023148 1.368834615
7.865169048 15.3696022 2.013057947
8.008888245 15.49848366 2.673552752
7.613568306 15.05215073 0.7349359989
7.840508938 15.28809261 1.367079854
7.712264538 15.07315826 1.994203448
7.743679523 15.06566811 2.628407955
7.690119267 15.04776192 0.7314502597
7.818466187 15.15768909 1.36277616
7.614753723 14.85486889 1.980309248
7.785493374 15.0173521 2.624811411
7.602312565 14.83656788 0.7333908677
7.73321104 14.94952106 1.35708499
7.656982422 14.8033762 1.9769454
7.812108994 14.95028877 2.619212389
7.63947773 14.77862072 0.7311744094
7.741967678 14.86049175 1.353614211
7.754327774 14.82517147 1.978228927
7.85087204 14.89363003 2.614844561
7.706737995 14.76803112 0.7280584574
7.804408073 14.83836174 1.351374626
7.780081272 14.75814438 1.973929524
7.948805809 14.91954327 2.619278193
7.792871952 14.77534103 0.7242683768
7.899722576 14.85623264 1.349858046
7.847414494 14.74714947 1.973184824
8.203929901 15.13075733 2.643943548
8.307644844 15.30490875 0.7061793804
7.905092239 14.76395416 1.346380234
8.02910614 14.86945915 1.980861306
8.295387268 15.14083099 2.646851778
8.304316521 15.19882965 0.7053412199
7.899907112 14.66455555 1.342892647
8.108354568 14.86623669 1.980641007
8.387056351 15.15044212 2.649750233
7.929872036 14.6032896 1.340008855
8.299278259 14.99589634 1.988818884
31.31424141 42.35710907 5.613732338
7.977556705 14.56341743 1.337513924
8.233874321 14.82401657 1.978000998
31.52023125 42.30944824 5.614151001
8.093562126 14.60429764 1.336423397
8.262929916 14.76036167 1.974026799
8.163507462 14.59480858 1.3345505
8.451327324 14.88346291 1.981849551
8.202272415 14.54856873 1.332056046
8.605692863 14.96966743 1.987361908
8.163505554 14.40784454 1.327890277
7.264458179 13.32753468 1.883877158
33.86315155 43.8849678 5.809743881
8.202632904 14.35810184 1.325285316
7.327394962 13.31267643 1.883044958
7.410216331 13.35890102 1.30692482
7.687004566 13.63523769 1.90351975
7.535966396 13.41974068 2.475524426
7.334522724 13.18584824 1.302439928
7.600268364 13.44818878 1.8918612
7.571573734 13.37252712 2.472269773
7.320702553 13.08862972 1.29932034
7.62266016 13.38571453 1.888079643
7.636210442 13.3579073 2.472628832
7.36311388 13.05088139 1.297110915
7.679434776 13.36189747 1.886755824
7.674713612 13.31825924 2.470157385
7.359136105 12.9658289 1.294229627
7.632250786 13.22710228 1.878431678
7.707194805 13.26768589 2.466603041
7.308451176 12.82570171 1.290412307
7.695297241 13.21055031 1.877600431
7.636564732 13.10853195 2.450950384
7.321634293 12.75697803 1.287762642
7.725655079 13.11640835 2.453999996
7.352064133 12.70744514 1.285432696
8.109931946 13.48940563 1.895710588
7.798509598 13.11454391 2.455799818
7.412163734 12.69013691 1.283617973
8.373099327 13.68970585 1.90863812
7.718708992 12.9440794 2.438997507
7.329105854 12.51893902 1.279431581
8.304348946 13.52726841 1.898665786
7.796056271 12.94296932 2.441031456
7.45235157 12.57347965 1.278823018
8.010026932 13.12689114 1.873650193
8.019993782 13.09653187 2.460355759
7.701035976 12.75963497 1.280200958
8.470950127 13.53261852 1.899643779
7.697662354 12.67717361 2.415657759
7.780889988 12.76113605 1.278672457
8.518215179 13.49884224 1.89784503
7.717278004 12.62011623 2.411384106
8.118035316 12.99833012 3.046466112
7.555184364 12.4430275 1.272371054
8.229866982 13.11123371 1.873664618
7.832742691 12.65871811 2.417959452
8.197388649 12.99670506 3.050503731
8.150139809 13.01966667 0.6928352118
7.542586803 12.34976006 1.269481182
7.945914268 12.73295784 1.850072742
7.86808157 12.6136837 2.415199041
8.308749199 13.02741241 3.059826851
7.593570709 12.32271385 1.267587066
7.941722393 12.64249229 1.844749808
7.875379562 12.54002762 2.409241199
7.605344296 12.25541878 1.265115023
7.926594734 12.54564571 1.839016557
7.888510227 12.46875477 2.403680086
7.666730404 12.24284649 1.263523102
7.946829796 12.48940659 1.835852981
8.034783363 12.54026413 2.414012432
7.668174744 12.16554356 1.260935664
7.997806549 12.46432972 1.834683537
8.223892212 12.65328026 2.429103613
7.629657269 12.04873848 1.257809043
8.169496536 12.55564213 1.840953231
8.503535271 12.85031796 2.453924179
7.655682087 11.99721813 1.255628586
8.112159729 12.41795826 1.832684398
8.489800453 12.75401211 2.445573568
7.752622128 12.01592541 1.254437089
8.143679619 12.36914825 1.830081701
8.299137115 12.48474121 2.417553186
7.817910671 12.00665092 1.252928019
8.324971199 12.46695805 1.836835742
7.280295849 11.37194061 1.767578244
7.321630955 11.3726263 1.24145782
7.290456295 11.31272793 1.764291286
7.307593346 11.28637123 1.238933444
7.326672077 11.27518654 1.762426853
7.314787865 11.22105598 1.236708641
7.361307144 11.23614311 1.760482311
7.323111534 11.15719032 1.234519601
7.350787163 11.15443707 1.755824924
7.345684528 11.10709572 1.232525826
7.396648884 11.1262579 1.754605174
7.245304108 10.94226456 1.229070067
7.310889721 10.97527885 1.745534182
7.265300751 10.89441013 1.227210641
7.350329876 10.94173431 1.743996859
7.27507019 10.83380795 1.225136876
7.413203716 10.92967415 1.743854642
7.381641865 10.86563969 1.224296212
7.548163414 10.98656273 1.748128891
7.285874367 10.71249199 1.221163034
7.434960365 10.81715488 1.737874031
8.001074791 11.29804611 2.312707901
7.471375942 10.81161118 1.221085906
7.507808208 10.81712532 1.738521338
8.033939362 11.25880051 2.310793638
7.342096329 10.62643337 1.217546344
7.511023998 10.75084591 1.734953165
8.126501083 11.26920891 2.31485939
7.337100029 10.55402184 1.215402842
7.587106228 10.74969292 1.73559916
7.61472702 10.74368286 2.256036997
7.370679379 10.51621628 1.213686705
7.620501518 10.68009186 2.251342773
7.722885609 10.75483131 1.215146542
7.554956436 10.58096409 1.726228952
7.629161835 10.61596107 2.246733665
8.091320038 10.98817921 2.833578825
7.959150314 10.89180565 1.215431929
7.321732521 10.31041908 1.709479809
7.571032524 10.4976635 2.235582829
8.117362976 10.94025803 2.830445528
7.627842426 10.53827286 1.210141778
7.360504627 10.27798748 1.708149433
7.590799332 10.44753075 2.232492208
8.189724922 10.93571663 2.834572315
7.426218987 10.30052471 1.206247926
7.383904457 10.23558521 1.706147909
7.602629662 10.39412117 2.228882074
8.218328476 10.89341164 2.832212925
8.098276138 10.83882999 0.6780159473
7.452831268 10.25721359 1.204524517
7.358469009 10.15165997 1.701459765
7.652227879 10.37300777 2.229131222
8.187842369 10.79761696 2.820841551
8.131326675 10.79697132 0.6763113737
7.465478897 10.17392254 1.703773022
7.781188965 10.41529846 2.237134695
8.179650307 10.72134113 2.812844038
7.845121384 10.45640755 1.204226255
7.594128609 10.21672726 1.707411051
7.848025799 10.40106678 2.238590002
8.198526382 10.66816998 2.808879375
7.60673666 10.1929369 1.200186014
7.621837139 10.177495 1.705679417
7.822676659 10.31647587 2.231326818
8.209362984 10.61193371 2.804123163
7.65136385 10.16441345 1.198652983
7.634022236 10.12543297 1.703122258
8.076701164 10.46329784 2.251928806
8.192484856 10.52970123 2.795068979
7.854829788 10.26677799 1.198503017
7.761842728 10.16217709 1.706482649
8.176241875 10.47749996 2.25680995
8.236722946 10.4980278 2.79492569
8.040578842 10.35262775 1.198153138
7.742969513 10.08128071 1.702113867
8.228207588 10.4487915 2.256714821
7.828297138 10.11298943 1.194442987
7.756265163 10.02705479 1.69950366
8.230280876 10.38629723 2.252222538
7.874339104 10.08477974 1.192934394
7.76306963 9.971047401 1.696739793
8.239930153 10.32685089 2.248270988
7.801735878 9.961279869 1.190480709
7.794608593 9.931852341 1.695143342
8.271137238 10.2848587 2.246460676
7.852022171 9.936800957 1.189034104
7.904258251 9.954677582 1.697655916
8.356920242 10.28608418 2.24996686
7.90855217 9.917040825 1.187638521
7.891795635 9.880353928 1.6937747
8.566720009 10.38418293 2.265430212
8.227771759 10.10974121 1.188406348
7.940340519 9.857481003 1.693255544
8.262928963 10.07456684 1.186905622
8.201818466 9.999994278 1.703726053
8.263205528 10.00904179 1.185067892
8.3204422 10.0297184 1.706756473
8.347202301 10.00823307 1.183842063
8.520294189 10.11417675 1.713577867
8.405900955 9.987530708 1.18243432
8.507799149 10.03845978 1.709704161
8.603269577 10.07493687 1.182058334
8.531604767 9.993947029 1.707863331
8.647956848 10.04233551 1.180539012
8.561640739 9.954172134 1.706353307
8.723002434 10.03227711 1.179222345
8.637954712 9.942331314 1.706856608
25.76323318 22.59731865 1.285156012
8.658138275 9.89177227 1.704719543
25.81290436 22.47626495 1.281213045
8.732885361 9.881397247 1.705304146
25.13499641 21.83150291 1.273112297
25.47262192 22.0170002 2.526269197
25.19968414 21.7257309 1.269420266
25.76620865 22.07549667 2.533379078
26.3543129 22.44636536 3.849669456
25.17274284 21.56164742 1.265426159
25.23078537 21.54378319 2.500374794
26.40161514 22.32297897 3.843395948
25.42315292 21.59698105 1.263041139
25.28919792 21.44183731 2.49649334
25.8157959 21.75724983 3.779843092
25.50815392 21.50534821 1.259518623
25.85111427 21.6967411 2.516957283
25.75270844 21.56734657 3.764385939
25.34115028 21.23588943 1.254663706
25.70926094 21.44398499 2.503064156
26.23602867 21.75438118 3.798140764
25.34770012 21.09787941 1.250997424
25.33823395 21.03345108 2.478357553
26.31340218 21.65455818 3.79497242
25.39634705 20.9897213 1.247581482
25.36858749 20.91306305 2.473326683
27.09398079 22.04845428 3.855696678
24.92956161 20.51860619 1.241435409
25.34741974 20.75757027 2.465906382
27.17695236 21.95657921 3.853402615
26.2901535 21.28920937 5.041292667
25.01756668 20.43299294 1.23813951
25.68869972 20.8432045 2.475303173
26.6946106 21.47161865 3.80009079
26.31163788 21.15250778 5.031265259
25.16145897 20.39247704 1.235308886
25.65546227 20.67207527 2.467051029
26.27040863 21.03159332 3.752377987
26.47737503 21.12112808 5.040946484
25.27894974 20.32605934 1.232173324
25.58325386 20.47575378 2.457064629
26.19279861 20.83667183 3.736288786
26.6021347 21.05379677 5.044605255
26.02925682 20.69054794 1.232059836
26.26268005 20.79047012 2.482415199
26.07782364 20.6108017 3.716555357
26.63055801 20.92943001 5.036331654
25.89988518 20.45572662 1.22778976
26.42006874 20.74544525 2.48307085
26.03975296 20.44500542 3.704239368
25.6624279 20.14425278 1.222955346
26.20859528 20.45669556 2.466755152
26.16773033 20.37452888 3.705690861
25.66072845 19.99758911 1.219366193
25.94695473 20.13066292 2.44798398
26.48440933 20.43373871 3.72413826
25.67344475 19.86099815 1.215873718
25.93495178 19.97710228 2.441091537
26.62601662 20.36989021 3.726754665
27.39803314 20.81984711 5.085448742
25.87212563 19.84486771 1.21313262
25.99283791 19.86925316 2.437439203
26.71713829 20.28775406 3.725917578
26.01047897 19.79606438 1.210331202
26.17674255 19.84918404 2.439827204
27.53491211 20.66065598 3.787583113
5.809031963 6.77912569 3.075963736
5.824481964 6.774113178 3.477374077
26.09134865 19.70277405 1.207151175
26.09065247 19.64962959 2.429756403
5.801448822 6.748446465 2.677568913
5.825080872 6.746545792 3.074302673
5.826630592 6.730640411 3.47173357
26.17204666 19.61644745 1.204161167
26.16269875 19.55818176 2.427164793
5.824936867 6.734816074 2.288519859
5.80495739 6.705821514 2.673729658
5.832001686 6.706075191 3.070481062
5.852494717 6.704292297 3.47247386
26.96098328 19.96603584 1.203421235
26.30043411 19.50045013 2.427225351
5.826703072 6.707360744 1.899650097
5.835063457 6.696218967 2.286236286
5.825791359 6.6763134 2.673072338
5.869572163 6.686889172 3.073420763
27.11389732 19.9135952 1.200451493
5.844035149 6.689417362 1.514357209
5.816329479 6.656103134 1.896049619
5.846726418 6.658664227 2.284175634
5.862709522 6.654448509 2.674925089
5.823687553 6.645806313 1.129542351
5.858429909 6.637309551 1.896951675
5.885385036 6.637692928 2.285552263
5.839103222 6.615466118 0.3629055023
5.814685822 6.611461163 0.7471963167
5.829011917 6.606560707 1.128570795
5.846612453 6.601410389 1.510740995
5.893693924 6.614142895 1.897277355
5.844340801 6.576088905 0.3630577326
5.835258484 6.581562996 0.7462080717
5.844434261 6.573570251 1.127638459
5.903046131 6.593281746 1.511465669
5.853823662 6.537160873 0.362901181
5.860867023 6.554691315 0.7450309396
26.89827728 19.16829491 2.424573421
58.77681351 38.12044907 1.270674109
58.89970779 37.91408157 1.26467824
60.47231674 38.24666214 1.255382895
60.66439438 38.05958939 1.249218345
60.8598938 37.88882065 1.243423343
61.0370636 37.6920433 1.237292767
33.02658463 21.38750839 1.170441866
33.05931854 21.23870468 1.166931629
33.14048386 21.11697197 1.163539529
33.04231644 20.90527916 1.160051703
33.02217484 20.72915268 1.156567335
32.9924469 20.54865646 1.153111935
33.06951904 20.42607117 1.149847031
33.0067215 20.2374897 1.146594286
33.25645065 20.21420288 1.143759131
33.21001816 20.02684402 1.140426278
33.37062836 19.94745445 1.137349606
33.00956726 19.60001945 1.133799434
33.055233 19.47088814 1.130847573
32.98398209 19.27500725 1.127677917
32.91896439 19.08342171 1.124561548
32.8960762 18.9138031 1.121517658
32.87293243 18.75266647 1.118662119
32.86299133 18.59080315 1.115701556
52.37117004 28.01980782 3.292222738
32.8343544 18.42052078 1.11277163
19.52589417 11.97793579 2.000122309
32.88494873 18.29667664 1.110046744
19.48135948 11.85822678 1.995078921
19.6237011 11.89611244 2.896158457
33.05379486 18.22115517 1.107227683
19.53204727 11.78421593 1.993781447
19.6635685 11.82152462 2.894733429
33.06868362 18.07240105 1.104398608
19.81048012 11.82169724 2.001476049
19.66712189 11.72502899 2.890300989
33.22985458 17.99210167 1.101608992
19.29183006 11.4821558 1.978253126
19.74632263 11.66384983 2.891750813
19.92316628 11.7161541 3.811732292
33.44606018 17.94412231 1.098966479
19.31221581 11.39530849 1.975907564
19.72927094 11.55815506 2.885821819
19.95881271 11.63904285 3.810065269
25.33574295 14.08701515 1.097147703
18.60484886 10.98148251 1.945897579
19.03614616 11.15027523 2.82833004
19.97971535 11.55523777 3.806742668
25.38652992 13.994771 1.095118403
19.30287552 11.20894146 1.969702482
19.33912468 11.19728661 2.847349882
25.3950634 13.88348866 1.093116283
18.6838665 10.84092426 1.943297505
19.36396217 11.11786938 2.845075846
25.14127541 13.6377039 1.090910077
18.75469017 10.77056599 1.942781091
19.32630348 10.99661541 2.837432623
20.32629585 11.41514683 3.828718901
25.15950012 13.53231525 1.088971257
18.71038818 10.66320038 1.938371301
19.31572914 10.90207767 2.832560062
25.19602203 13.42914963 1.086945295
18.77373314 10.60333538 1.938053846
19.53352165 10.90710068 2.84503746
20.29857445 11.21131516 3.814198732
25.18260384 13.3044548 1.08496666
18.89166832 10.55755711 1.939518452
19.35380554 10.73482513 2.827228785
20.30690765 11.11706829 3.809427977
19.37758064 10.69942474 1.086446524
18.87922668 10.45999241 1.936257005
19.3510704 10.63505745 2.822673082
20.31304359 11.02211094 3.804469585
19.38765907 10.60947514 1.084897876
18.9823494 10.41170216 1.937337041
19.31698418 10.53173065 2.816220284
19.54330063 10.60076046 3.711638927
25.60915947 13.13521004 1.078952551
18.85701561 10.27168465 1.930080175
19.37615967 10.46325588 2.816621542
19.45225143 10.47359467 3.69625926
25.66270065 13.03829098 1.076998591
18.68646049 10.10956955 1.921075583
18.98185539 10.21141624 2.783295631
19.67481232 10.47226048 3.716116667
25.54372025 12.87609482 1.075303912
18.69093895 10.02557373 1.918733478
18.5526371 9.944067001 2.747345209
19.73947906 10.40952492 3.718410015
25.56306267 12.765728 1.073428392
18.7207489 9.94757843 1.917221308
18.5805912 9.870554924 2.745848894
19.68395233 10.29312325 3.706956148
25.61165619 12.66735744 1.071547151
18.67456436 9.843459129 1.913077712
18.63946342 9.805033684 2.746498585
19.83097649 10.2586937 3.718321562
24.73520851 12.19875336 1.070646524
18.66846275 9.751454353 1.910311818
18.7852726 9.7739048 2.753624678
19.83753014 10.16755295 3.713950157
24.79663467 12.11478043 1.068932056
18.68801117 9.669887543 1.908514857
18.8141861 9.695772171 2.752094269
20.50117111 10.33972454 3.783351421
25.82405281 12.40977383 1.066115975
18.87885284 9.659914017 1.913092256
18.85245514 9.625780106 2.751471519
25.49441528 12.19348812 4.33571291
25.52282715 12.17496681 1.06472981
18.83876228 9.559194565 1.909292459
19.33529854 9.727571487 2.783657074
19.92247963 9.929820061 3.708950281
25.84756088 12.18355274 1.062606215
19.41747093 9.691929817 1.927759409
19.37894821 9.653251648 2.783240557
19.88314056 9.821697235 3.699691534
26.70157623 12.39726543 1.05985105
19.440485 9.609332085 1.926122189
19.45407867 9.590737343 2.785167217
19.67059326 9.65331459 3.67152524
26.80135536 12.31448841 1.057982445
19.40893936 9.506289482 1.92255342
19.58732796 9.554224968 2.791552544
19.75682449 9.593904495 3.676361322
26.87281418 12.22068024 1.056168675
19.39046097 9.413122177 1.9196105
19.62668037 9.477506638 2.790897608
19.70858383 9.484313011 3.666352034
26.61560249 12.00541496 1.054864645
19.31826401 9.291525841 1.91454792
19.61332893 9.381372452 2.786430836
19.72524834 9.399086952 3.663585186
27.04681015 12.04363441 1.052544117
19.28537178 9.189549446 1.911049843
19.77173233 9.343359947 2.794348001
26.59155464 11.79364872 4.415587425
56.5289917 22.57393265 1.003661513
19.51391792 9.186670303 1.91698432
19.6211319 9.202511787 2.780153275
19.54874611 9.113265038 1.916046023
19.78760529 9.175666809 2.789037704
55.71707916 21.83856201 0.9990177155
19.64178276 9.060325623 1.917184711
26.18851089 11.34016705 3.249248028
55.80447388 21.61400414 0.9954991937
19.84465981 9.031554222 1.921867132
26.14912033 11.19922638 3.241784096
55.71016312 21.36133385 0.9928060174
20.01696205 9.004517555 1.925805092
26.23398018 11.11891079 3.243974924
55.62781525 21.10246468 0.9899955392
20.07771111 8.938371658 1.925833702
26.05225563 10.94757843 3.227006912
55.83429718 20.94231415 0.9866881371
19.99191856 8.818001747 1.920651674
26.03599739 10.82777596 3.221825361
55.89653778 20.74448013 0.9838327169
21.01118469 9.06670475 1.954019785
26.08553505 10.7302227 3.221421242
56.69873428 20.79114723 0.9795328975
25.65712357 10.50770664 2.113399744
26.14064026 10.6400795 3.221652269
25.7267704 10.42368793 2.11335516
56.29538727 20.19655037 0.974766016
55.99794769 19.42728806 0.9675441384
55.65307999 19.09396172 0.9657570124
55.67089844 18.88518715 0.9633303285
15.6199522 6.679236412 2.452113152
15.60470772 6.662079334 3.152380705
55.70639801 18.67079163 0.9607786536
15.63844872 6.628376484 1.752445817
15.62940502 6.613294601 2.450641155
15.63036537 6.597563267 3.152158737
15.62191868 6.566858768 1.054252386
15.61321259 6.552062035 1.750158787
15.66449356 6.551367283 2.450894594
15.61834812 6.509080887 0.3577820063
15.6569109 6.504659653 1.053398252
56.13959885 18.13434219 0.9526816607
56.26855087 17.94610023 0.9500459433
56.48161316 17.78100777 0.9472305179
55.66133118 17.32781601 0.9471136928
55.69611359 17.12652779 0.9449667335
55.71477127 16.92101097 0.9428991079
55.6863327 16.70316505 0.9409959316
55.84663773 16.53563499 0.9386196733
56.97145844 16.78653145 3.118437767
55.59759903 16.23893166 0.9372004867
56.96451187 16.5600338 3.114187479
55.64559174 16.02054977 0.9350169301
56.53715134 16.21553993 3.095840693
55.62422943 15.7957201 0.9331673384
55.94753647 15.65699577 0.9303773046
55.92614365 15.4429388 0.9286940694
56.01285172 15.2554493 0.9267357588
55.79090118 14.55832863 0.922336638
55.64309311 14.30735493 0.9211550951
55.72850037 14.10983181 0.9193116426
55.69604492 13.88615131 0.9178668261
56.73431396 14.08557987 3.067568302
55.72922134 13.67717743 0.9162611961
56.77987289 13.87595272 3.065902948
56.03947449 13.52707195 0.9138281941
55.78728104 13.26856136 0.9132636786
25.08119202 6.81394577 4.076414108
55.72995377 13.05206966 0.9121289253
25.12397194 6.724594593 4.078160763
56.02472687 12.90729427 0.9099088311
25.10599136 6.622921944 4.073636055
25.38496208 6.592172623 3.065232277
25.17843628 6.534124374 4.078424931
25.38274765 6.516941547 1.006508589
25.40004921 6.508236408 2.034338951
25.44574165 6.499808311 3.067353249
25.30335426 6.45506525 4.088704586
25.41096497 6.41269207 1.005789399
25.30780411 6.347277641 4.086400509
56.11751938 12.05251884 0.9045352936
56.33391953 12.05818653 3.028926373
25.35395813 6.252510071 4.088607788
55.72922134 11.77701473 0.9047202468
56.42162704 11.86973095 3.029358625
25.44978523 6.171757698 4.096130848
55.68224716 11.56591415 0.9038235545
56.79600143 11.73242283 3.039064169
55.73693466 11.3733511 0.9026259184
55.7530098 11.14204502 0.9014393091
55.87510681 10.95012093 0.9000398517
56.10931396 10.7868166 0.8983434439
56.22632599 10.59243679 0.8970288634
56.45561218 10.42598152 0.8954101205
55.92734909 9.9177351 0.8955770731
55.6814537 9.669482231 0.8956665397
55.87129211 9.46753788 2.988785267
55.67632294 9.258047104 0.8943215609
55.64027405 9.053290367 0.8938366771
55.75554657 8.858798027 0.892829299
55.69432449 8.651093483 0.8925040364
55.66145706 8.43713665 0.8920896649
55.81042862 8.246099472 0.8910738826
56.15643692 7.456302166 0.8882761598
55.93629837 7.222483158 0.8887543082
52.37451172 6.830338955 2.863320112
53.60339737 6.937225819 4.911372662
55.92905807 7.022758961 0.8885273337
52.4226532 6.638782024 2.863879204
53.6240387 6.738911629 4.911051273
55.84257126 6.804855347 0.8886067271
56.38736725 6.658867359 0.8864828944
52.13794708 6.228388309 2.853208303
53.34443665 6.321696281 4.889347553
51.81378174 6.003197193 2.842219114
52.82548523 6.084766865 4.853396893
56.02764511 6.205678463 0.8874945641
51.97855377 5.823803902 2.846691608
53.30123138 5.919784546 4.883677483
52.1697998 5.655394554 2.852084637
52.05771255 5.460902691 2.847982645
53.61470413 5.399146557 0.8959921598
51.86598206 5.251296997 2.841406584
52.14391708 5.078393459 2.849661112
53.16899109 5.135586739 4.870420456
52.30566406 4.895353794 2.854317665
53.09577179 4.932537079 4.864616871
83.02108765 6.821031094 0.7912604213
52.25141525 4.696557999 2.852242947
57.24768829 4.844539165 0.8833784461
52.26428604 4.502568245 2.852337122
82.98440552 6.213017941 0.7918708324
52.38762283 4.325087547 2.855972528
52.96676636 4.342422962 4.853784084
82.96247101 5.909197807 0.7922713161
53.20944214 4.1774683 2.88159585
53.05407333 4.15068388 4.858990192
87.61249542 6.095991135 13.59541988
82.97142029 5.607357025 0.7926166654
53.18855667 3.978402376 2.880801916
82.96333313 5.304674149 0.7930778265
53.19891739 3.781156778 2.881049871
87.39566803 5.464378357 10.339571
87.38887787 5.452748299 13.56090927
83.00143433 5.019454956 0.7934038043
53.54404831 3.599766493 2.89187336
87.41015625 5.165111542 10.34001637
87.31296539 5.134133816 13.5488987
76.31382751 4.422161579 0.8176055551
53.76477814 3.410570621 2.898850441
87.42433929 4.850039959 10.34054375
87.31047821 4.835049152 13.54723167
76.29364014 4.142618179 0.8182256818
87.43742371 4.534916878 10.34113312
87.29178619 4.519682884 13.54348087
76.28847504 3.863849401 0.8188431263
76.31391144 3.856789112 3.607542753
87.44940186 4.219741821 10.34178448
87.33535767 4.206834316 13.54847431
76.28833771 3.585357428 0.8194934726
76.3316803 3.579376698 3.608410835
87.460289 3.904559374 10.34249687
87.34615326 3.892650843 13.54918766
76.3052063 3.307469845 0.8201349378
76.34049225 3.301598072 3.60908246
87.39450836 3.587085485 10.33559227
87.32416534 3.577525377 13.54561996
76.2987442 3.042795897 0.8208701015
76.3563385 3.024019957 3.610059023
87.37890625 3.287205458 10.33395767
87.33276367 3.263364792 13.54645634
76.29174042 2.764282465 0.8216940165
76.34323883 2.745739698 3.610210419
87.43428802 2.973338366 10.3397007
87.30822754 2.964207649 13.54296398
76.32147217 2.500515699 0.8223972321
76.35287476 2.481897116 3.611126423
87.2933197 2.671082973 10.32564831
87.3463974 2.650718927 13.54826164
79.91490936 2.502460957 15.51237774
76.31634521 2.236001015 0.8232670426
76.33764648 2.217628241 3.611337185
79.98925781 2.234558344 12.5403862
79.88803101 2.22843194 15.50781822
76.29433441 1.971323013 0.8242412806
76.29756927 1.953202486 3.610841274
80.03269958 1.983579874 6.651816368
80.01693726 1.979096293 9.587213516
79.93360901 1.959484339 12.53317833
79.90755463 1.955189586 15.51147652
76.33145142 1.707414746 0.8250569701
76.3165741 1.689610958 3.612280846
80.03575134 1.708027482 6.652800083
80.00799561 1.704059958 9.586983681
79.9484024 1.685456276 12.5357933
79.91432953 1.681745291 15.5131464
76.31787872 1.415127754 0.8262007236
76.31880188 1.41191709 3.613319397
80.01803589 1.417838335 6.652563572
80.02218628 1.400245309 9.589344025
79.95443726 1.396863341 12.53743076
79.90459442 1.379365921 15.51225185
76.28717804 1.136794448 0.8274027109
80.01525879 1.12784481 6.653444767
80.05514526 1.110880733 9.593730927
79.98326111 1.093862176 12.54244137
79.88586426 1.077044964 15.5100565
76.3035202 0.8447278738 0.8285520077
80.03939819 0.8233130574 6.656302452
80.03135681 0.8068734407 9.592571259
79.93966675 0.805177331 12.5376749
79.91730499 0.7891920805 15.51671886
76.31084442 0.5665283799 0.8297277689
64.55358124 0.6143211126 3.245821953
80.01858521 0.5333520174 6.656237125
80.00253296 0.5175303221 9.591004372
79.92678833 0.5166723728 12.5373106
79.85314178 0.5015692115 15.50708485
76.31731415 0.3021688759 0.8308938146
76.31793976 0.2872113883 3.61807847
80.01272583 0.2433847785 6.657290459
79.95294952 0.242998749 9.58740139
79.88515472 0.2284604758 12.53319645
79.89846802 0.2278725654 15.51651478
76.29089355 0.03810707852 0.8322160244
76.33144379 0.02324498259 3.619827747
79.90226746 -0.03088989109 6.651422501
80.00192261 -0.03231156245 9.593968391
79.93383026 -0.04609404877 12.54156685
79.89163971 -0.04554381967 15.51714134
76.30340576 -0.240256086 0.8335222602
76.29209137 -0.2400873899 3.619984627
80.01039886 -0.3076155186 6.660216808
79.99407196 -0.321600318 9.594991684
79.9300766 -0.3202175796 12.54292393
79.89946747 -0.3335262239 15.52061367
76.29895782 -0.5184323192 0.8349359035
76.32357025 -0.5183224082 3.622535706
80.02555084 -0.5979369879 6.66302824
79.98918915 -0.6109326482 9.596476555
79.92515564 -0.6087570786 12.54440689
79.90628052 -0.6215971112 15.52414322
76.31381989 -0.7831071019 0.8362628818
76.33409882 -0.7963652015 3.624509096
80.01974487 -0.8879300952 6.664566994
80.05522919 -0.8873171806 9.605229378
79.94696808 -0.897875607 12.54975128
79.90026093 -0.9094647169 15.52568531
76.30347443 -1.061201572 0.837795496
76.30367279 -1.073510647 3.625272989
79.99333954 -1.162931561 6.66475153
80.04837036 -1.176861763 9.606824875
79.9404068 -1.172021151 12.55126572
79.8699646 -1.18233192 15.52311325
76.29653931 -1.325465679 0.839289546
76.33264923 -1.338269949 3.627907515
80.00550842 -1.453393102 6.667729855
80.02102661 -1.45134294 9.606368065
79.98400879 -1.462065697 12.55998421
79.88212585 -1.456247926 15.52808762
76.30473328 -1.590208054 0.8407796025
79.99718475 -1.728835106 6.66934824
80.01267242 -1.72629261 9.607985497
80.19342804 -1.743207335 12.59151459
80.25186157 -1.741573453 15.59515858
76.2875824 -1.868100166 0.8424816132
60.88102341 -1.331031561 3.141587496
80.06373596 -2.006883383 6.676074505
80.44831085 -2.031214476 9.655136108
80.32662964 -2.023148775 12.61277199
80.28526306 -2.032127142 15.60442352
76.31342316 -2.147587061 0.8440967798
80.37606812 -2.309379339 6.699453354
80.27375793 -2.335777283 15.60633755
80.45470428 -2.598814964 0.8326592445
51.58415222 -1.40230453 2.849741936
80.24664307 -2.609769106 15.60539436
80.43267822 -2.876365662 0.8345270157
80.25798798 -2.885418892 15.61132336
80.4309845 -3.169519424 0.8364782333
80.36735535 -3.160847187 3.768559933
80.36096954 -3.172029495 12.63171959
80.24407959 -3.174466372 15.61331081
80.42828369 -3.462689877 0.8384859562
51.67378235 -1.963930845 2.857216835
80.40335083 -3.463567019 6.712529182
80.43636322 -3.473417044 9.66999054
80.33818817 -3.461620808 12.63267612
80.28426361 -3.466374874 15.62490749
52.12650299 -2.181516886 2.873359442
80.30786133 -3.750431299 6.709296703
80.42131805 -3.749698639 9.671988487
80.34210205 -3.752626419 12.63749886
80.29588318 -3.757062197 15.63178539
80.3747406 -4.031764984 0.8427052498
80.38406372 -4.039682865 3.776895523
80.36363983 -4.031071186 6.7161479
80.43625641 -4.042381763 9.677393913
80.32607269 -4.028065681 12.63954735
80.29554749 -4.03272295 15.6365633
80.33309174 -4.322612762 0.8449901342
80.34725952 -4.315654278 3.778359652
80.40648651 -4.332456112 9.678389549
80.32800293 -4.319170475 12.64448166
80.26976776 -4.321417809 15.63741016
80.31439209 -4.614809036 0.8472582102
80.33252716 -4.607588768 3.780754566
80.32707977 -4.61332655 6.720627785
80.36776733 -4.621882439 9.678630829
80.36450195 -4.612691879 12.65437508
80.27838898 -4.612306118 15.64445496
80.35053253 -4.910788059 0.8494156599
80.34867859 -4.901694775 3.784227371
80.43468475 -4.913161278 6.731499195
80.37963867 -4.914676666 9.684207916
80.37228394 -4.904631138 12.66051388
80.2977829 -4.904153824 15.65360737
80.4175415 -5.209450722 0.851538837
80.33189392 -5.193655014 3.786735535
80.41382599 -5.2045784 6.733883858
80.37858582 -5.206730843 9.688623428
80.31976318 -5.192344666 12.65853405
80.30435944 -5.195320606 15.66076851
80.38270569 -5.470129967 9.693256378
80.35824585 -5.472201824 12.66902637
80.2924881 -5.45623064 15.66432476
80.4443512 -5.752840996 9.70416069
80.33653259 -5.747663021 12.67139149
80.30221558 -5.733419895 15.67215252
80.46018982 -6.046975136 9.710775375
80.37313843 -6.0279603 12.68198776
80.28624725 -6.023267746 15.67606163
80.35621643 -6.318660736 12.68568039
80.30458832 -6.316101551 15.6861763
80.3303833 -6.608637333 12.68833733
80.31011963 -6.608111858 15.69430065
80.6782074 -6.948728561 15.76620293
84.27366638 -7.589564323 13.24745369
84.26067352 -7.879466057 13.25245094
84.31214142 -8.191464424 13.26693726
14.7183857 -4.849182129 1.108474851
-5.009534836 -6.518218994 0.5527895689
-5.037801266 -6.524738789 0.55334723
-5.017239094 -6.482513428 0.820282042
-5.005687237 -6.49015522 1.083172798
-5.067776203 -6.538959503 0.5533342957
-5.043303967 -6.485326767 0.8213294744
-5.030623913 -6.480949402 1.084596276
-5.001008511 -6.478850365 1.346388698
-5.092389107 -6.533829689 0.5546867251
-5.073188305 -6.499506474 0.822008729
-5.056749821 -6.477529526 1.08600533
-5.02996397 -6.489184856 1.348328114
-5.011165142 -6.455086708 1.609660983
-5.001247406 -6.470876694 1.87477994
-5.11742878 -6.524442196 0.5563943386
-5.10149622 -6.505753994 0.8229861259
-5.08412981 -6.479883194 1.087403774
-5.054885387 -6.479847431 1.349610209
-5.038021088 -6.455535889 1.611476541
-5.031782627 -6.488825798 1.878654718
-5.010334969 -6.442640781 2.138816595
-5.144581318 -6.518584251 0.5578855276
-5.127295494 -6.500181198 0.8244029284
-5.112401485 -6.48604393 1.088798046
-5.078503132 -6.464562416 1.350689769
-5.064901829 -6.455885887 1.613293052
-5.071910381 -6.551419258 1.887267351
-5.05460453 -6.526323795 2.152868032
-5.028951645 -6.461284161 2.411959887
-5.00502491 -6.410870075 2.67240572
-5.173048496 -6.524590492 0.5584522486
-5.156104565 -6.502034664 0.8255995512
-5.140732288 -6.492097378 1.090195179
-5.107997894 -6.47654438 1.352701068
-5.091378689 -6.45418787 1.614973664
-5.100849152 -6.553236485 1.889588714
-5.081728935 -6.5264678 2.155115128
-5.073762417 -6.546251774 2.429545164
