# .PCD v0.7 - Point Cloud Data file format
VERSION 0.7
FIELDS x y z
SIZE 4 4 4
TYPE F F F
COUNT 1 1 1
WIDTH 1283
HEIGHT 1
VIEWPOINT 0 0 0 1 0 0 0
POINTS 1283
DATA ascii
20.59373474 23.74786568 3.724907398
20.88289833 23.95625114 4.934316158
21.17767715 24.16003799 6.178088188
16.96800232 20.3457737 0.3696374893
16.75792313 20.08528137 1.351357341
21.08065224 24.11353874 2.584757566
21.7891674 24.70692253 3.841154337
19.92196083 22.87896729 4.765599251
17.15927315 20.39079666 0.3617432714
16.74890709 19.94336128 1.347003698
22.1582737 24.96292686 2.640460014
19.45710182 22.36162949 3.576407909
19.93148994 22.73559952 4.751252651
17.41092682 20.49076462 0.3516814411
16.8235321 19.88718605 1.343911886
19.8439579 22.64038086 2.493060589
19.49811554 22.25077248 3.568967819
21.10311127 23.67644119 4.918182373
14.90568066 18.02947807 0.4404509962
17.034729 19.95094299 1.342234015
19.76260376 22.41399574 2.479869604
19.637537 22.23849869 3.572710276
20.43766212 22.90673828 4.799053192
16.85977173 19.65707397 1.336038351
19.75717545 22.26681519 2.471710682
19.61026955 22.06529236 3.558113575
20.40996552 22.7287674 4.779096603
15.18521023 18.04785919 0.4285805821
17.19652939 19.83443642 1.3357867
19.84919357 22.20205879 2.468940258
19.61158371 21.91935921 3.546689749
20.19433594 22.38173485 4.730541229
17.2191391 19.72953606 1.332133293
19.45830536 21.69956779 2.43804574
21.118536 23.134161 3.694031954
20.57538223 22.58312416 4.774232388
15.44214153 18.04768944 0.4175598621
17.23118401 19.60901642 1.328191638
19.79207802 21.85489655 2.449489832
21.1949482 23.05566597 3.690583229
20.97663307 22.79125595 4.819900513
15.52112865 17.998806 0.4138098061
17.24860001 19.49398804 1.324346662
20.54516792 22.3890686 2.485347271
21.27495575 22.97262573 3.686953545
20.97546196 22.63791656 4.80431366
17.39992714 19.49871826 1.321959615
20.55862045 22.25102997 2.478016853
21.49954796 23.01745033 3.698396444
21.03611565 22.54005623 4.798203945
15.80145073 18.00876808 0.4018954635
21.33895493 22.78956223 2.514430046
22.71791077 23.93352318 3.812566757
21.3895092 22.68076324 2.509095669
28.07201195 28.44363403 4.351658821
16.08734703 18.01958275 0.3897711635
20.48636436 21.74354172 2.450131893
22.83555222 23.71471214 3.800081015
16.15747452 17.96024513 0.3863497674
27.64513779 27.84758949 1.407411933
20.55430794 21.65615845 2.446181297
21.77507019 22.64281082 3.67970252
16.40916061 18.05724525 0.3763335347
28.10123634 28.05983925 1.406432867
20.33665848 21.32413483 2.426376104
21.90979004 22.60559464 3.681858778
16.43701172 17.96639633 0.3744950593
20.56900024 21.37844849 2.431684732
23.1142292 23.48299789 3.792818785
20.66999435 21.38193321 1.32568419
20.61070633 21.27696419 2.426813602
22.24878883 22.59528351 3.693737268
21.64403534 22.02113914 4.785243988
16.72356415 17.96856689 0.3623354137
20.86671066 21.40320396 1.323210359
21.85252953 22.17573547 2.48728466
24.0447998 23.94545937 3.862459183
21.73270798 21.94682693 4.783738613
20.89916611 21.29295731 1.319449306
26.11128998 25.57463837 2.711230516
26.07599449 25.47074699 4.05320549
17.03733063 17.99544716 0.3492173553
20.82959557 21.09840584 1.314817429
24.4209938 24.01023293 2.611192942
26.05562973 25.28946495 4.038989544
28.27412987 27.05005836 5.704537392
20.71157074 20.85832977 1.309621453
24.4278717 23.86083221 2.603578329
25.31106758 24.51569366 3.95318985
28.35269737 26.93000031 5.698147774
29.28063583 27.73079872 1.378247142
24.47364998 23.73585129 2.597705841
25.5942173 24.57933617 3.96885252
28.87532425 27.17038918 5.755707264
21.09221268 20.88593292 1.304611802
26.89093208 25.53349113 2.718161583
26.63972282 25.25673294 4.059250832
28.22367477 26.4597187 5.644648075
17.61730194 17.99099731 0.3246565461
21.01074028 20.67831612 1.299860358
26.69639206 25.12965584 4.052226067
26.6082592 24.98649216 5.396927357
17.71897125 17.95716667 0.3201366067
21.39912987 20.85599899 1.299136162
9.314928055 11.14394093 1.775068879
26.69219398 24.96296883 4.039975643
26.68778229 24.88746834 5.392902851
17.9079895 17.98646545 0.312364012
29.44499397 27.11655426 1.358121276
9.391456604 11.12816525 1.775227666
26.81961632 24.89282036 4.039991856
26.49960709 24.56871414 5.350218296
17.97821999 17.91405487 0.308921665
29.44810867 26.92273331 1.352573752
28.00501823 25.64457703 4.141554832
26.90209007 24.7071991 5.390469074
29.19393539 26.53751945 1.345416665
29.33340454 26.58004951 2.801249981
26.96912575 24.58973503 5.384085178
28.83525658 26.0838604 1.337880492
28.47883415 25.73285675 2.748101473
26.20553017 23.89941978 3.944166422
27.14173317 24.56241035 5.39336586
9.474478722 10.96214008 0.6207081079
26.95314026 24.38718796 2.661528111
26.12971115 23.68475914 3.925862551
27.48484039 24.6648674 5.426427841
9.430124283 10.85926342 0.6219019294
9.574170113 10.88535404 2.342091084
27.529459 24.52866936 5.416986942
9.431413651 10.78854561 0.6213920712
9.565966606 10.80743313 2.336283922
27.39907646 24.26057816 5.383397579
9.438855171 10.71930504 0.6206372976
27.05734062 23.8361454 5.32089901
9.42021656 10.63781929 0.6209004521
9.456841469 10.64048576 1.185611963
28.04152679 24.41286087 5.442158222
9.389976501 10.54817963 0.6216005087
9.673493385 10.67804146 2.331800222
27.29228783 23.68868065 5.324069023
9.37378788 10.46614075 0.6217641234
9.599901199 10.55303955 2.32007575
27.33942223 23.5585022 5.31571579
9.349142075 10.3783989 0.622248888
9.606081963 10.48754406 2.315855026
27.67116928 23.64453697 5.346974373
9.357880592 10.31917858 0.6215196848
9.611920357 10.42556667 2.311882734
9.358304024 10.25069714 0.6210837364
9.60619545 10.35204983 2.306651354
9.360022545 10.1835041 0.6206049919
9.603364944 10.28100204 2.301736116
28.86176491 24.00135612 5.463899136
9.34680748 10.10593033 0.6206887364
9.595318794 10.20663071 2.296393871
29.10747719 24.00652504 5.482123852
9.328322411 10.02508736 0.6209754348
9.300833702 9.979395866 1.170042038
9.609731674 10.14852047 2.293147564
29.343853 24.00340271 5.499024868
9.342090607 9.967544556 0.6200633645
9.392126083 9.954123497 1.718654037
9.591221809 10.06753922 2.286952257
29.35164833 23.84752083 5.486080647
9.332765579 9.897342682 0.620038867
9.268893242 9.830266953 1.166578889
9.582186699 9.997034073 2.281893015
29.21174812 23.58986473 5.453606129
9.331319809 9.833014488 0.6197248101
9.435351372 9.857405663 1.714900255
9.574469566 9.927822113 2.276998997
29.23816681 23.440485 5.442729473
9.327843666 9.764284134 0.6194726229
9.273186684 9.701356888 1.163209915
9.589385033 9.871152878 2.273962498
29.30333138 23.31811905 5.437098026
9.315804482 9.690031052 0.6195467114
9.371987343 9.681667328 1.70590508
9.582625389 9.79990387 2.269023418
29.10148621 23.01477051 5.396365166
9.314971924 9.6238451 0.6192061901
9.583790779 9.734394073 2.264838696
28.99359131 22.77747154 5.368285656
9.320606232 9.565605164 0.6186462045
9.561594009 9.656807899 2.258835077
9.321015358 9.504083633 0.6182866693
9.562274933 9.594939232 2.254906178
9.312662125 9.433768272 0.6182433963
9.564190865 9.530895233 2.250917435
30.29212189 23.16133499 5.497873783
9.310651779 9.368021011 0.6179668307
9.565818787 9.46694088 2.246944189
30.41936684 23.07692337 5.500524998
9.31314373 9.302350044 0.617508471
9.551918983 9.389938354 2.241451502
30.30957603 22.83820915 5.472557068
9.310744286 9.240158081 0.6172736287
9.55313015 9.329577446 2.237730742
30.4760437 22.7792263 5.480433464
9.314554214 9.179097176 0.6167923212
9.555544853 9.267030716 2.233951807
30.36060524 22.54747581 5.452752113
9.551183701 9.203626633 2.229822636
30.69770241 22.59635353 5.482613087
9.282844543 9.035820007 0.6173446774
9.553042412 9.141271591 2.226074219
30.57243919 22.35983276 5.453933716
9.292818069 8.982684135 0.6166608334
12.39220619 10.88481331 1.810556889
9.539676666 9.0727911 2.22124815
30.67731667 22.26076889 5.454134464
9.293819427 8.920966148 0.6163040996
9.529109001 9.003284454 2.216514587
31.3121376 22.49843216 5.522363186
9.293160439 8.861574173 0.6160303354
9.30552578 8.807394981 0.615252316
9.466480255 8.843074799 2.203837156
31.28153992 22.15518761 5.492919922
9.30948925 8.751283646 0.6148116589
9.465423584 8.78372097 2.200238943
9.335073471 8.705458641 0.6135404706
10.36035061 9.3055439 1.140767217
9.460351944 8.719124794 2.196154356
31.34012032 21.86063957 5.474588871
9.377609253 8.669878006 0.6116296649
10.3895607 9.257193565 1.139339089
9.470394135 8.66387558 2.193384171
9.424833298 8.633891106 0.60952878
9.498702049 8.61658287 2.192002058
9.479593277 8.608315468 0.6071733832
9.525100708 8.613925934 1.134097815
9.527231216 8.593819618 1.662164807
9.536195755 8.580791473 2.191767693
9.547719002 8.587287903 0.6042975187
9.582942009 8.586730003 1.132869959
9.604352951 8.581068039 1.663150549
9.611092567 8.563709259 2.194493771
9.657276154 8.590089798 0.5998480916
9.757163048 8.608799934 1.667248845
9.70500946 8.557208061 2.198798895
9.753177643 8.584191322 0.5959177017
10.39662647 8.938264847 1.132103443
9.816327095 8.560094833 2.204534769
9.859983444 8.587033272 0.5915867686
10.37945175 8.863913536 1.130647779
9.588513374 8.389372826 1.655235648
9.916096687 8.558692932 2.209468365
9.949198723 8.575994492 0.5879112482
9.529806137 8.298727036 1.650512338
10.02254295 8.557321548 2.214761496
10.05107784 8.574670792 0.5837678909
9.558988571 8.255338669 1.649414182
10.12606716 8.556689262 2.219970465
10.14786625 8.569817543 0.5798185468
10.21230984 8.545740128 2.2237463
10.25309086 8.565896988 0.5755342245
10.31004429 8.558570862 1.676401258
10.32265377 8.544464111 2.229309797
10.36369991 8.564235687 0.5710447431
10.42965317 8.540593147 2.234582424
10.46086407 8.557606697 0.5670819283
10.77540588 8.687273979 1.69091177
10.54422283 8.543280602 2.240625858
10.56297684 8.549875259 0.5629174113
10.66575432 8.566824913 1.68409431
10.64800453 8.536195755 2.245603323
10.67885399 8.545685768 0.5582143068
10.74971676 8.524131775 2.250229359
10.79136181 8.538865089 0.5536404848
10.87267399 8.522646904 2.256554127
10.98079777 8.518890381 2.262007713
11.00263023 8.52853775 0.5450714827
11.0961256 8.518195152 2.268022776
11.21034241 8.575618744 0.5368800759
11.22223663 8.522324562 2.274880648
11.3027029 8.558175087 0.5330908895
11.31968784 8.507639885 2.279267073
11.44847012 8.567552567 0.5272567272
11.44566154 8.506849289 2.285908699
11.56241512 8.559686661 0.5226420164
11.56646442 8.502583504 2.292121649
11.97319126 8.704098701 0.5066578388
11.695014 8.504664421 2.299095869
12.04678535 8.673248291 0.5035877228
11.80540466 8.493566513 2.304453611
12.04334927 8.603812218 0.5034761429
11.91025162 8.517092705 1.10891974
11.92306519 8.48531723 2.310370207
11.94811916 8.489543915 0.506893456
12.00363159 8.499482155 1.107764482
12.04981422 8.480710983 2.316984892
12.10794067 8.503900528 0.5005337
12.12943649 8.497071266 1.106622577
12.18797302 8.484115601 2.324637651
12.2212286 8.494672775 0.4959612787
12.29996109 8.512001991 1.105427861
12.31012917 8.478931427 2.331022739
12.3467617 8.487194061 0.4909077585
12.44551563 8.513765335 1.10421443
12.44095039 8.473678589 2.337901115
12.48639965 8.482133865 0.4853014946
12.59982681 8.515227318 1.102932811
12.56963158 8.463122368 2.344432831
12.6267004 8.479816437 0.4796817005
12.7168169 8.501513481 1.101701379
12.69712639 8.45454216 2.351022482
12.7653656 8.475767136 0.4741255343
12.84830189 8.456045151 2.359421492
12.89875603 8.468328476 0.4687730968
12.98517036 8.449943542 2.366698027
13.0387392 8.469981194 0.4631893933
13.11411476 8.446273804 2.373674393
13.18021297 8.467920303 0.4575379789
13.27288914 8.489356041 1.096919894
13.29964161 8.480863571 1.740291238
13.25906467 8.445519447 2.381697893
13.31952763 8.460418701 0.4519599974
13.38363647 8.431203842 2.387986422
13.47176838 8.457733154 0.4458849132
13.5375061 8.429016113 2.396494627
13.61636829 8.447050095 0.4400951564
13.70201492 8.426867485 2.405629396
13.75299549 8.439034462 0.4346343875
13.83482361 8.41694355 2.41266036
13.91910362 8.442901611 0.4280375242
13.96225166 8.403862 2.419272423
14.07204247 8.436375618 0.4219395816
14.14432621 8.409633636 2.429834604
14.2251482 8.428874016 0.4158364236
14.30458546 8.404924393 2.438729048
14.3839407 8.422721863 0.4095150828
14.4668684 8.399963379 2.447755575
14.53552628 8.41246891 0.403473407
14.65883064 8.406165123 2.458984852
14.69703293 8.409006119 0.3970591724
14.86820793 8.421861649 2.471642971
14.87721348 8.412112236 0.3899246156
15.04780674 8.406365395 0.3831525743
15.21617985 8.394761086 0.3764591217
54.30719757 23.87208939 5.38752985
15.38210392 8.388617516 0.3698794246
15.55507565 8.380320549 0.3630202413
53.93386459 23.27462387 5.341542721
15.72449303 8.369462013 0.3563002944
54.16781616 23.13544083 5.349572182
15.92951298 8.371135712 0.3482046723
56.17245865 23.67071152 5.487846851
16.10545158 8.364227295 0.3412439227
56.02721405 23.39060593 5.468321323
16.29033661 8.355597496 0.3339308798
16.48908424 8.354842186 0.3260906339
16.68559074 8.347945213 0.3183313608
53.92802811 21.92782021 5.288432598
16.88474846 8.344688416 0.3104787469
17.08164406 8.335236549 0.3027084172
53.81755066 21.22397804 5.255558968
54.16665268 21.12262917 5.272625923
53.70700073 20.32787132 5.216659546
47.4437561 15.78514862 0.9758699536
41.73128891 13.61271858 0.9846285582
41.7153244 13.44683552 0.9830697775
66.31025696 15.67986107 0.8815429807
23.48800087 3.381311893 1.003697395
23.45066452 3.283168077 1.003781557
23.48073196 3.191066504 1.003641963
61.34102249 5.291953087 0.8686514497
61.35992813 5.066155434 0.8687515259
61.33612061 4.837728024 0.869045198
61.32485199 4.621617794 0.8693217039
61.37137985 4.39746666 0.8694450855
96.09313202 3.869638205 0.7508322001
96.05889893 3.521308184 0.7518956065
80.42138672 -5.239115715 0.8517630696
31.50479317 -9.764878273 2.386903524
31.5036869 -9.897748947 2.390838861
31.50588799 -10.02525711 2.394741535
31.50000381 -10.15049171 2.398387909
31.35970879 -18.83958626 2.736613989
31.36356735 -18.9942112 2.744029999
31.36154747 -19.15413666 2.751621246
31.37267113 -19.32230186 2.75990963
-5.040335178 -12.52761364 1.005970955
-5.910515785 -19.48550987 0.9611219168
-5.020785809 -12.39808178 1.474646688
-5.985652924 -19.51076126 0.9648277164
-5.082581043 -12.52366734 1.480929613
-5.05463171 -12.46710873 1.94957459
-5.039137363 -12.53905296 2.428683519
-5.017857075 -12.5424366 2.906911373
-5.002741337 -12.60342693 3.399488211
-6.147322178 -23.28594208 6.095817089
-6.107528687 -23.29376984 6.987586975
-6.057511806 -19.50795364 0.9687224627
-6.00512886 -19.73009491 1.689655423
-5.115950108 -12.58431721 1.959988356
-5.096250534 -12.62032127 2.439893961
-6.28360939 -23.34289551 5.234745026
-6.232105255 -23.27948952 6.101287365
-6.193428516 -23.29691124 6.995549202
-6.151099682 -23.28920937 7.898868084
-6.131437778 -19.52075958 0.9725182652
-6.081480026 -19.75683022 1.694658756
-5.170772552 -12.64182472 1.966644168
-7.671890259 -33.40764999 4.508066654
-6.203373432 -19.51743698 0.9764150977
-6.155510426 -19.76345444 1.699098825
-7.81376791 -33.087883 3.282670259
-7.791968822 -33.39618683 4.515070915
-6.275596619 -19.51584053 0.9803003073
-6.229617596 -19.76981354 1.703541994
-7.933511257 -33.08211517 3.289854765
-7.890697002 -33.21847916 4.505521774
-6.3486619 -19.5199337 0.9841513634
-6.30406189 -19.77788544 1.708046079
-8.044006348 -33.00668335 3.292561769
-8.01379776 -33.2338829 4.515251637
-6.423781395 -19.53762245 0.9879294038
-6.377493382 -19.77776909 1.712319493
-6.808142185 -23.14741898 2.660404444
-6.81176424 -23.48892403 3.5461092
-6.497888088 -19.54711723 0.9917564392
-6.452379704 -19.78728485 1.716889262
-6.877446651 -23.03267288 2.658341169
-6.857784271 -23.19685936 3.522663832
-6.823424339 -23.22947121 4.386582851
-6.570908546 -19.5484314 0.9956282973
-6.527937889 -19.80048752 1.721581936
-6.926558971 -22.78342247 2.647458553
-6.9099617 -22.96191788 3.504864454
-6.868166447 -22.93842697 4.353196144
-5.609491825 -12.6802845 0.5536824465
-6.643680096 -19.54750824 0.9995119572
-6.60393095 -19.81538963 1.726341009
-7.031935215 -22.92502403 2.662111282
-6.94105196 -22.85529709 4.348128319
-5.645507336 -12.60190392 0.5591387153
-6.717415333 -19.55225182 1.003368258
-6.679144382 -19.82408333 1.73092556
-7.091601849 -22.758358 2.65656662
-5.683573246 -12.53921604 0.5639364719
-6.791847229 -19.56067848 1.007208943
-7.169773102 -22.71778488 2.659292698
-5.723185539 -12.48825645 0.5682406425
-6.865079403 -19.58323669 1.010797143
-7.238665581 -22.38684464 1.818690538
-7.248278618 -22.70718575 2.66373539
-5.620551586 -12.59151936 2.473056555
-5.764486313 -12.46318817 0.571384728
-6.937112808 -19.57534218 1.014715195
-7.316075325 -22.37617874 1.823001981
-7.288663864 -22.43561745 2.651118994
-5.668839455 -12.59163857 2.47645092
-5.643896103 -12.58679295 2.958400249
-5.807634354 -12.43562412 0.5747262239
-5.822516441 -12.64623737 1.046145797
-7.393557072 -22.34090805 1.826794982
-7.342870235 -22.25856018 2.644701958
-5.715131283 -12.59394646 2.479917526
-5.693453789 -12.59452629 2.96315217
-5.855136395 -12.43350506 0.5770545602
-5.869020462 -12.63413239 1.04876101
-5.823762417 -12.67998505 1.527538776
-5.798509598 -12.65864182 2.007522583
-5.761835098 -12.5839138 2.482308149
-5.743093967 -12.60207653 2.967907667
-5.899809837 -12.41548443 0.5799970031
-5.914419651 -12.61595821 1.051393986
-5.862830639 -12.62446022 1.528648019
-5.845426083 -12.64840508 2.009993792
-5.810182571 -12.5835247 2.485703707
-5.791493893 -12.6016264 2.971584082
-5.946552753 -12.40910625 0.5824747682
-5.964741707 -12.62517929 1.053927064
-5.9103055 -12.61802673 1.531306267
-5.889515877 -12.62228584 2.01140213
-5.859921455 -12.59080219 2.489907503
-5.837213039 -12.58538437 2.973091841
-5.830720425 -12.67578602 3.477033615
-5.803050518 -12.65946674 3.970419645
-5.995128155 -12.41238499 0.5845711827
-7.310986996 -19.62712479 1.033775091
-5.957771778 -12.61142731 1.533963203
-5.934283733 -12.61413193 2.013866901
-5.909046173 -12.59397602 2.493710518
-5.885602474 -12.58459663 2.976766109
-5.871953011 -12.64620018 3.475764513
-5.846652031 -12.62958241 3.968523979
-5.823287964 -12.62614632 4.470331669
-5.806931019 -12.68092537 4.996716976
-6.045550823 -12.43751907 0.5857089162
-7.384730816 -19.62552261 1.037675142
-7.72098732 -22.07348633 2.658953905
-5.957860947 -12.59501457 2.497312784
-5.933071136 -12.59187698 2.981399298
-5.919527054 -12.63932991 3.478704929
-5.892152786 -12.6250639 3.971809626
-5.867096901 -12.61201859 4.471366405
-5.850355148 -12.64929295 4.992787361
-6.100408554 -12.47182655 0.5866085291
-7.460035324 -19.63150787 1.041554332
-7.845362186 -22.0991478 1.848241448
-7.800689697 -22.05636978 2.663226366
-6.00218153 -12.58458805 2.499568462
-5.9836936 -12.60243607 2.986710787
-5.94244957 -12.63342285 3.978092194
-5.921745777 -12.64508915 4.484468937
-5.895273209 -12.62699699 4.99157238
-6.157082558 -12.51375484 0.5872220993
-7.535803795 -19.63918114 1.045431495
-7.927398205 -22.09352875 1.85297215
-7.881062031 -22.04289627 2.667761564
-6.051035404 -12.58528709 2.503171444
-6.030760765 -12.59333038 2.989300013
-7.61285162 -19.65245628 1.049298763
-8.002897263 -22.05427551 1.856602788
-7.965588093 -22.0506916 2.673770666
-6.100678921 -12.58971596 2.507183313
-6.077797413 -12.58406162 2.991886854
-7.686457157 -19.64780617 1.053213358
-8.116567612 -22.20687103 1.866593838
-8.052171707 -22.06795502 2.680458546
-6.153882504 -12.59934425 2.511939526
-6.127079487 -12.58629417 2.996112108
-7.809305191 -19.70383072 0.3227249086
-7.76283741 -19.63823318 1.057332039
-8.225427628 -22.30914879 1.875231624
-8.152409554 -22.13101387 2.690616369
-6.202493668 -12.59754086 2.515343904
-6.179913044 -12.59369183 3.001289368
-7.887737751 -19.72011566 0.3254941702
-7.839354992 -19.64673996 1.061219573
-8.301425934 -22.26890182 1.878885984
-8.21860981 -22.0459404 2.69028616
-6.247953892 -12.57996655 2.517109632
-6.229311943 -12.59554958 3.00551939
-7.966747761 -19.73805618 0.3281974792
-7.915144444 -19.65105247 1.06511879
-8.37308979 -22.20884514 1.88186574
-8.316555023 -22.1149807 2.700655699
-6.298167229 -12.58561516 2.521332979
-8.03907299 -19.72446632 0.3320731521
-7.992712975 -19.66289902 1.069009066
-8.473320007 -22.28342247 1.889416337
-8.409647942 -22.15824127 2.70928359
-6.348051548 -12.58912849 2.525354624
-8.115274429 -19.72817612 0.3352941275
-8.070853233 -19.67641258 1.072903275
-8.56474781 -22.31462097 1.89552474
-8.495911598 -22.16797829 2.715607405
-8.457221031 -22.35501289 4.404304504
-8.195101738 -19.7471962 0.3379428983
-8.147388458 -19.68181801 1.076813698
-8.657752037 -22.35131454 1.901849031
-8.594759941 -22.23390198 2.725909472
-8.570195198 -22.48407936 4.429704666
-8.225337029 -19.70921135 1.080510616
-8.747126579 -22.37008667 1.907581091
-8.685718536 -22.28086281 2.734643459
-8.679615974 -22.4209938 3.583403349
-8.691795349 -22.64745522 4.460124493
-8.352638245 -19.78904343 0.3429285288
-8.304887772 -19.74215126 1.084215403
-8.871440887 -22.55897141 1.919017434
-8.823913574 -22.53371048 2.75798893
-8.783969879 -22.52356529 3.600482464
-8.823451996 -22.86919785 4.498673439
-8.38561821 -19.77868843 1.087931037
-8.980327606 -22.67523956 1.927994967
-8.894313812 -22.48454285 2.760035515
-8.887298584 -22.6179409 3.616771698
-8.898659706 -22.83535957 4.500777245
-8.802060127 -21.05069351 0.3034802377
-9.097377777 -22.82217407 1.938115954
-9.026316643 -22.69936752 2.780884504
-9.033652306 -22.89400291 3.652634621
-8.825106621 -20.7654686 0.3178296089
-8.554848671 -19.81621361 1.096206665
-6.759819508 -12.67164421 1.582938194
-11.61253452 -33.12777328 3.533473969
-11.60137272 -33.31167221 4.781313896
-8.815567017 -20.42203903 0.3334711194
-6.807579994 -12.67233944 1.585816979
-6.939760685 -13.30802822 2.11965847
-11.70944023 -33.23609543 4.782840252
-8.825118065 -20.14775276 0.3466937542
-6.983150959 -12.95487118 1.102754116
-6.812144279 -12.48795033 1.582188129
-6.872124672 -12.81913853 2.088045597
-11.80548763 -33.13848495 4.781507969
-8.85718441 -19.9685173 0.3564344943
-7.022521973 -12.90776348 1.105383873
-6.84126997 -12.40644169 1.582213998
-6.895298004 -12.70838833 2.083528519
-6.89786768 -12.8173542 2.587554932
-8.933403969 -19.9634037 0.3599339426
-6.954534054 -12.45648766 1.107634187
-6.894051552 -12.4197998 1.585670829
-6.879173756 -12.4551239 2.068463326
-6.932625771 -12.84194374 3.095124483
-6.971241474 -13.09885597 3.647134304
-8.982542038 -19.87006569 0.3663746119
-6.971115112 -12.33022881 1.110093594
-6.930139542 -12.37743759 1.586948633
-6.884042263 -12.2807579 2.05919838
-6.913290501 -12.4786253 2.558539867
-6.942148685 -12.6880703 3.076946735
-6.956105232 -12.83216286 3.603495598
-9.010912895 -19.67238235 0.3767752647
-6.986350536 -12.20208359 1.112504959
-6.947009087 -12.25316906 1.585342169
-6.919919014 -12.23008347 2.05889225
-6.952112675 -12.44579887 2.558649063
-6.975712776 -12.62190056 3.071707726
-7.041507721 -12.96647167 3.632954121
-9.060455322 -19.55771255 0.3841974437
-7.020715714 -12.13903332 1.115068078
-6.993588448 -12.2345705 1.587759495
-6.941950798 -12.11892033 2.054309845
-6.954987049 -12.25772476 2.542134523
-7.046199799 -12.68916607 3.086177349
-6.992903233 -12.56974125 3.565594196
-7.030298233 -12.80194092 4.119407654
-9.114192963 -19.47475243 0.3903093636
-7.101167202 -12.24565315 1.117838264
-7.028614521 -12.17335796 1.588584423
-6.962181568 -12.00392151 2.049401283
-6.972915649 -12.13131714 2.532305479
-7.050805092 -12.50532627 3.063937664
-7.055754185 -12.60778046 3.577722549
-7.084995747 -12.81546021 4.127868652
-9.196455956 -19.49562836 0.3927873969
-7.126093864 -12.15786266 1.12022543
-7.052530289 -12.08184528 1.588102818
-7.07732439 -12.24953747 2.070905685
-7.017297745 -12.11501503 2.534365416
-7.001984596 -12.13678169 3.014262438
-7.07439661 -12.4882803 3.560714722
-7.099741459 -12.6775198 4.10288763
-9.288722038 -19.55079842 0.3940804005
-7.170388699 -12.1496315 1.122593641
-7.097763062 -12.06928921 1.590575218
-7.124563217 -12.25090599 2.074282169
-7.027442455 -11.9738903 2.522643566
-7.06667757 -12.19481468 3.0271492
-7.060112476 -12.25922775 3.523234844
-7.108492851 -12.52076721 4.073671341
-9.369065285 -19.57584381 0.3962590694
-7.251479149 -12.26177883 1.125317693
-7.192590237 -12.24193478 1.599947929
-7.098996162 -11.98246861 2.057787418
-7.106375694 -12.0838747 2.538683891
-7.162708282 -12.37345409 3.057670355
-7.112241268 -12.26905537 3.529946566
-7.130834579 -12.42706299 4.058090687
-9.452642441 -19.59763336 0.3987094462
-7.335620403 -12.38119793 1.12810266
-7.171604156 -11.99437332 1.593474507
-7.144432545 -11.97157764 2.060383081
-7.20106411 -12.25537395 2.561448097
-7.121751308 -12.12501812 3.508252144
-7.144505978 -12.29499722 4.034221172
-9.524029732 -19.57690048 0.4026076496
-7.270689487 -11.98767757 1.129751801
-7.205998898 -11.94491768 1.594523072
-7.192589283 -11.97011662 2.063694239
-7.292709351 -12.40275383 2.581846476
-7.246021271 -12.31445312 3.057923794
-7.184787273 -12.17438507 3.52231884
-7.178390026 -12.23833179 4.027084351
-9.610766411 -19.60763931 0.4047476053
-7.288345814 -11.89074135 1.131869555
-7.255800247 -11.94909191 1.597635269
-7.227950573 -11.93273926 2.064148664
-7.28387928 -12.27239132 3.056199074
-7.214035988 -12.11244011 3.515544653
-7.195372105 -12.12327957 4.006910801
-9.675743103 -19.57785225 0.4087741971
-7.340943813 -11.90427303 1.13437295
-7.279052258 -11.87133408 1.597418904
-7.26478529 -11.89268875 2.064569473
-7.344050407 -12.23418903 2.571087122
-7.255611897 -12.01228523 3.021796227
-7.247362137 -12.05733871 3.510280371
-7.230947971 -12.08412647 4.003381729
-9.748802185 -19.56207657 0.4124720395
-7.409965515 -11.97117424 1.137037873
-7.309934616 -11.88121414 2.06714654
-7.38922739 -12.22683716 2.574101925
-7.311813831 -12.036726 3.029918194
-7.267071724 -11.95682144 3.496545076
-7.264744282 -12.0310545 3.997019529
-9.833099365 -19.56976318 0.4155324399
-7.538292885 -12.22891235 1.140316725
-7.370891571 -11.85405064 1.60264802
-7.326218605 -11.7740984 2.062469959
-7.369790554 -11.98748589 2.551413298
-7.376718998 -12.08938599 3.042306185
-7.300692081 -11.90540123 3.491939068
-7.322595596 -12.05222988 4.007599831
-9.915730476 -19.58395004 0.4182126522
-7.528131962 -12.03525066 1.14222455
-7.407556534 -11.80722332 1.603904366
-7.360470772 -11.72806931 2.062407017
-7.454031944 -12.10300541 2.56847167
-7.373250484 -11.90606403 3.019618034
-7.37762785 -11.99907494 3.514487982
-7.413676262 -12.19186401 4.044610977
-9.994984627 -19.59892654 0.4207076728
-7.515646458 -11.84633827 1.143952608
-7.469212532 -11.85709572 1.608708739
-7.395786762 -11.6940794 2.063082933
-7.471354961 -12.00594997 2.561350346
-7.409285069 -11.8719902 3.018801451
-7.408891201 -11.94805241 3.509752274
-7.395896912 -11.97619152 4.001435757
-10.07615185 -19.6067543 0.4235941172
-7.56673336 -11.85321617 1.146448612
-7.486830235 -11.76563072 1.607875705
-7.449801445 -11.7125988 2.067957878
-7.486709595 -11.97208595 3.038190126
-7.446728706 -11.91130543 3.507950068
-7.443645477 -11.9713192 4.005991459
-7.928534031 -12.73801422 0.6523477435
-7.610915661 -11.83062744 1.148960233
-7.525272369 -11.72609901 1.609401584
-7.508612156 -11.7377882 2.073548079
-7.49726963 -11.7744875 2.543146849
-7.491152287 -11.82101917 3.020228624
-7.479543209 -11.85118771 3.50200963
-7.540608883 -12.11676884 4.044884205
-7.972158909 -12.70281887 0.6556839347
-7.659965515 -11.82309055 1.151526928
-7.580056667 -11.73780346 1.612998247
-7.573755264 -11.78170586 2.080618382
-7.568452835 -11.8371315 2.554541111
-7.53710413 -11.80405045 3.02247858
-7.514345169 -11.79851246 3.497464418
-7.590023041 -12.10688782 4.048748016
-8.021904945 -12.68645096 0.6583923101
-7.719064713 -11.84574604 1.154221654
-7.628765583 -11.73028183 1.615825653
-7.599793434 -11.70391846 2.078286409
-7.577116966 -11.70457458 2.543645144
-7.584205151 -11.79068089 3.025295973
-7.550625324 -11.75137997 3.493965149
-7.583059788 -11.91987705 4.012412071
-10.47216129 -19.84331703 0.4284498096
-7.731444836 -11.75730991 1.155940771
-7.668993473 -11.71907806 1.618059278
-7.629030228 -11.66692352 2.078400612
-7.620357037 -11.70281029 2.547098875
-7.6240201 -11.77746964 3.027463198
-7.59174633 -11.75016403 3.498135567
-7.609083652 -11.87002754 4.006011963
-10.55108929 -19.8505249 0.4312085807
-7.769764423 -11.72542477 1.158260942
-7.723426342 -11.7430191 1.62189734
-7.663376331 -11.62387562 2.078565121
-7.716106415 -11.84475803 2.567529202
-7.641358376 -11.75219536 3.503733873
-7.661655903 -11.88741398 4.015516758
-10.64610386 -19.89212227 0.4330174923
-7.815680504 -11.71613312 1.160680294
-7.760430813 -11.70729446 1.623428822
-7.731176853 -11.68093586 2.086572647
-7.743792057 -11.78709221 2.564817429
-7.707629681 -11.74090862 3.031000853
-7.684222221 -11.7334795 3.5054214
-7.712356091 -11.89082909 4.022183418
-10.71456432 -19.855896 0.4373163581
-7.850472927 -11.67454147 1.16293776
-7.794006348 -11.6620121 1.624554157
-7.758313179 -11.6168251 2.08509326
-7.809668064 -11.83596992 2.574635506
-7.832542419 -11.96588707 3.070163488
-7.732642174 -11.73141479 3.510309219
-7.751394272 -11.85881329 4.02078867
-10.81567955 -19.90114784 0.4391666651
-7.91078186 -11.70648479 1.165564179
-7.829283714 -11.62231445 1.625902653
-7.800624371 -11.59794521 2.087166309
-7.803193569 -11.6719923 2.559795141
-7.818667889 -11.77796459 3.046142817
-7.770990372 -11.69934082 3.509495497
-7.78935194 -11.81664753 4.017380238
-10.94936943 -20.03634834 0.4381800592
-7.973574638 -11.73737812 1.168324709
-7.906759739 -11.69682407 1.632217646
-7.849622726 -11.59134102 2.090398073
-7.845285892 -11.64459229 2.560982704
-7.843134403 -11.69806099 3.038873911
-7.826681614 -11.71105671 3.517353535
-7.839056969 -11.80951881 4.022036076
-11.03176117 -20.03672028 0.4413132966
-8.029047012 -11.75370789 1.170895457
-8.012843132 -11.85005283 1.641927719
-7.899772644 -11.59472275 2.094259977
-7.88789463 -11.61892891 2.562380552
-7.880758762 -11.65739441 3.03763032
-7.862892151 -11.67312527 3.515455961
-7.892300606 -11.81960869 4.03040123
-11.11126137 -20.03997993 0.4441923201
-8.050510406 -11.68220901 1.172842979
-8.123020172 -12.02498627 1.652341723
-7.959851265 -11.63251495 2.100707531
-8.034218788 -11.90012455 2.599311113
-7.924973488 -11.64992714 3.041043758
-7.89932251 -11.64330673 3.514857769
-7.942162037 -11.8265934 4.037800312
-11.17867565 -19.99843788 0.4486201406
-8.10875988 -11.70570374 1.175458789
-8.075452805 -11.75955009 1.643924952
-8.009596825 -11.63358879 2.104432583
-8.092000961 -11.92781162 2.606667995
-7.987782001 -11.69450474 3.052548409
-7.955546856 -11.66266346 3.524031162
-7.968967438 -11.76071167 4.028701305
-11.28363705 -20.04716682 0.4503852427
-8.152776718 -11.68311024 1.177926183
-8.112847328 -11.71820736 1.645384789
-8.056808472 -11.62054443 2.107223034
-8.100366592 -11.80407333 2.596665382
-8.047960281 -11.71669483 3.061127186
-8.056678772 -11.79950047 3.556258678
-8.027144432 -11.77679634 4.038896084
-11.35026455 -20.00319099 0.4548638165
-8.214907646 -11.70906734 1.180699229
-8.197804451 -11.80609322 1.652453184
-8.118459702 -11.64662361 2.113184929
-8.13180542 -11.74578476 2.594335318
-8.111757278 -11.74790287 3.071166277
-8.15753746 -11.9320488 3.587826014
-8.139684677 -11.94965935 4.085270405
-11.45144081 -20.05059052 0.4565168321
-8.297000885 -11.79356861 1.183748007
-8.400156975 -12.21258354 1.673352361
-8.165647507 -11.63959885 2.116313934
-8.206926346 -11.81315994 2.60666728
-8.163363457 -11.75179386 3.07674861
-8.200908661 -11.91156101 3.58953476
-8.177110672 -11.91264248 4.083000183
-11.58954144 -20.19273949 0.4552814066
-8.343285561 -11.78880978 1.186102033
-8.284860611 -11.76908493 1.657087922
-8.216278076 -11.64816093 2.12053895
-8.255410194 -11.80755329 2.610397816
-8.23163414 -11.79998016 3.089305878
-8.192731857 -11.75895023 3.565250397
-8.242744446 -11.95250511 4.098679543
-11.68964863 -20.24426079 0.4566822052
-8.381721497 -11.75691032 1.188393593
-8.315389633 -11.72319698 1.658040524
-8.2635355 -11.64077091 2.123670101
-8.257498741 -11.67905998 2.599501133
-8.265324593 -11.76165295 3.088096619
-8.232713699 -11.73098564 3.565485239
-8.259383202 -11.86661243 4.084724903
-11.77421474 -20.24363708 0.4598278701
-8.447552681 -11.80216026 1.191104412
-8.37446022 -11.74538422 1.662165165
-8.337184906 -11.70852566 2.132782936
-8.30198288 -11.67038822 2.602646351
-8.293275833 -11.70204163 3.083792448
-8.284990311 -11.74238777 3.57315135
-8.319048882 -11.88958454 4.096560478
-11.84783554 -20.22554207 0.463337481
-8.503515244 -11.81459713 1.193721056
-8.447471619 -11.80914688 1.668011069
-8.394091606 -11.72485733 2.137915134
-8.38729763 -11.76083088 2.617913723
-8.339256287 -11.69681931 3.087801933
-8.371926308 -11.83723831 3.597516537
-8.382947922 -11.92960453 4.112143993
-11.959198 -20.2911377 0.4644822478
-8.577356339 -11.87139988 1.196682572
-8.504911423 -11.82518768 1.671913981
-8.46280098 -11.77065182 2.145506859
-8.412604332 -11.70170689 2.61506319
-8.38243866 -11.67764568 3.089888096
-8.434059143 -11.86556816 3.608937502
-8.45361805 -11.97938347 4.130438805
-12.06435108 -20.3287735 0.4666308761
-8.665062904 -11.96125031 1.19992733
-8.57949543 -11.88369083 1.677755833
-8.516487122 -11.77717972 2.149893761
-8.494411469 -11.7739439 2.62848711
-8.504299164 -11.85909462 3.123815775
-8.562989235 -12.06402874 3.653942347
-8.5227108 -12.01698589 4.146302223
-12.15638828 -20.34335136 0.4693135619
-8.818139076 -12.20353508 1.204558015
-8.64337635 -11.90754986 1.682225823
-8.610250473 -11.87701702 2.162255764
-8.555485725 -11.79863262 2.636015177
-8.494109154 -11.69682407 3.103525877
-8.616222382 -12.05952549 3.659401894
-8.607737541 -12.10061932 4.172802925
-12.22428226 -20.29838181 0.4737539589
-8.893363953 -12.25706863 1.207617998
-8.673721313 -11.854249 1.683032393
-8.639829636 -11.82194424 2.16157937
-8.615310669 -11.81935692 2.643107891
-8.687336922 -12.05178356 3.165355444
-8.686890602 -12.10506916 3.674505234
-8.761155128 -12.35445404 4.239762306
-12.34106636 -20.37135315 0.4747079313
-8.939956665 -12.24001694 1.210112572
-8.767389297 -11.95621395 1.690960526
-8.745174408 -11.95329094 2.176501989
-8.676832199 -11.843503 2.650658846
-8.706507683 -11.96903229 3.157534838
-8.814552307 -12.29074764 3.717505693
-8.853889465 -12.45144558 4.269807339
-12.46775913 -20.46588516 0.4750474393
-8.873295784 -12.08536911 1.700210333
-8.804389 -11.96975136 2.181868315
-8.811768532 -12.04571438 2.679988384
-8.819449425 -12.11706257 3.186674356
-8.909461021 -12.39187622 3.743908882
-8.998682022 -12.67465973 4.330041885
-12.56243896 -20.48248482 0.4776764512
-8.943950653 -12.12728882 1.705483675
-8.92202282 -12.12585354 2.199048042
-8.955018997 -12.2636528 2.711419106
-8.987948418 -12.45064926 3.762010574
-12.65735531 -20.49868011 0.4803170264
-9.010857582 -12.26807976 2.716824293
-12.74375916 -20.49428749 0.4835493863
-12.84703064 -20.52803421 0.485681504
-31.23831749 -63.57209015 4.146451473
-18.48198509 -34.0559082 4.082383633
-12.94663048 -20.55216789 0.4880925715
-31.29146767 -62.44714737 1.70750761
-18.51271057 -33.79245758 4.070939541
-13.07979679 -20.650774 0.4883911312
-18.54126358 -33.39906311 2.738583565
-18.51783943 -33.47441864 4.054692268
-13.15811825 -20.62466812 0.4922345877
-14.23805046 -23.35583496 2.265142918
-14.18236065 -23.33147049 3.190239429
-13.23839092 -20.6127243 0.4955123365
-14.30446053 -23.28892136 2.26797533
-14.26190758 -23.28276062 3.193846941
-14.29143429 -23.43955994 4.143608093
-13.34072208 -20.63877869 0.4978742898
-14.26798725 -22.98313522 2.259519577
-14.31184769 -23.16831017 3.191752195
-14.31437874 -23.27436447 4.131801605
-13.44710159 -20.6626606 0.5004530549
-19.34323502 -33.58276367 1.465485334
-14.32552719 -22.88885689 2.261253119
-14.28864765 -22.89403152 3.175679684
-14.34883213 -23.11449432 4.12153244
-13.54327202 -20.67329216 0.5032452345
-14.36163425 -22.73810196 2.260504723
-14.32840347 -22.76161003 3.171892881
-14.37067223 -22.94035912 4.108928204
-13.67073154 -20.7594738 0.5038021803
-14.4205246 -22.66010475 2.262661219
-14.43424606 -22.77399826 3.180788517
-14.44211578 -22.87647057 4.110204697
-13.77354145 -20.78183365 0.5062801242
-14.49582005 -22.60719299 2.266363144
-14.47123146 -22.63776779 3.176621437
-14.58439732 -22.97652054 4.131834984
-13.8700676 -20.78028488 0.5095652938
-14.55807686 -22.52694511 2.268698215
-14.5354147 -22.56109619 3.177681446
-14.65488625 -22.89919662 4.131954193
-13.96727753 -20.78914642 0.5124080777
-15.06075859 -23.14800453 1.379647136
-14.64633369 -22.49149132 2.273581505
-14.64021873 -22.57071686 3.186402798
-14.7658329 -22.91885376 4.143990993
-14.10640144 -20.89290428 0.5125365257
-15.14886475 -23.11651421 1.384258747
-14.74537849 -22.49925613 2.280016899
-14.73921013 -22.56729889 3.194011211
-14.89160252 -22.96850395 4.159948826
-14.18668365 -20.86489677 0.5163764954
-14.82774544 -22.46149445 2.284491539
-14.77351761 -22.43981743 3.190150499
-14.77329254 -22.52015114 4.111486912
-14.3065815 -20.92626381 0.5176655054
-14.95068073 -22.5169735 2.293404579
-14.85395622 -22.39818573 3.194361687
-10.36692238 -13.23923302 2.923862934
-14.41563797 -20.95476151 0.519993782
-15.0092659 -22.43010139 2.29540205
-14.96501541 -22.41889191 3.204212427
-10.31410503 -13.01269245 2.900063276
-14.49102783 -20.90586281 0.5245215893
-10.68685532 -13.41183281 1.281178474
-15.10386944 -22.41644669 2.301150322
-10.52607346 -13.26525402 2.383102179
-10.34562778 -12.94811726 2.897711515
-14.60410881 -20.94060707 0.526681304
-10.62346935 -13.15706253 1.281047821
-15.2025919 -22.4003582 2.307118177
-10.37621593 -12.83633041 2.349247217
-10.40274525 -12.9416008 2.902618408
-10.60795307 -13.4014473 3.528445721
-14.72120476 -20.98195267 0.5286735296
-10.55318737 -12.89883995 1.280622602
-10.52545929 -12.96712208 1.822281122
-10.3935194 -12.75153828 2.346293688
-10.57773685 -13.16910362 2.938130856
-10.51068306 -13.08270741 3.481156588
-10.41594601 -12.94089985 4.010798931
-14.82862854 -21.00320053 0.5311946869
-10.59298134 -12.85814476 1.282988191
-10.56103325 -12.91750431 1.823569655
-10.43020725 -12.7058773 2.346892357
-10.58630562 -13.06427574 2.930313826
-10.4023428 -12.74720478 3.430738449
-10.50488281 -12.99687767 4.030412674
-14.96419621 -21.06807327 0.5327439904
-10.69624996 -12.93976307 1.286997199
-10.66773415 -13.00632381 1.832135439
-10.40655518 -12.54310036 2.336713076
-10.44815254 -12.66834641 2.884455204
-10.47865391 -12.77896786 3.442943096
-10.53727913 -12.9402771 4.026343346
-15.08631706 -21.11479187 0.5346199274
-10.69668388 -12.8176651 1.288397789
-10.50381088 -12.5668745 1.812998652
-10.43186569 -12.47147369 2.335100174
-10.43070507 -12.51839161 2.870457888
-10.50516796 -12.70715809 3.437775373
-10.48922729 -12.72148991 3.98827529
-15.177104 -21.09178925 0.5384381413
-10.68272209 -12.67579651 1.289331555
-10.53771973 -12.51747704 1.814195156
-10.49876595 -12.4858532 2.341201305
-10.57067108 -12.66696644 2.896177053
-10.5033884 -12.5874567 3.423992157
-10.55476952 -12.73139286 3.998242855
-10.79759312 -13.24811459 4.685125828
-15.31487083 -21.18385506 0.5388613939
-10.73046112 -12.65719795 1.291813612
-10.59705353 -12.52222919 1.818086624
-10.5495739 -12.47471905 2.344724894
-10.53840542 -12.50196648 2.879543543
-10.55720997 -12.5812788 3.429412127
-10.49627113 -12.5087986 3.95832181
-10.80599022 -13.15527821 4.669917107
-15.41364765 -21.17401505 0.5423423052
-10.6535778 -12.40115356 1.291029096
-10.63440323 -12.47964191 1.819643617
-10.59803009 -12.45334721 2.347549915
-10.56976128 -12.4424057 2.877727509
-10.62541199 -12.59635925 3.438897133
-10.60065269 -12.59333897 3.984244347
-10.83839607 -13.09143734 4.663432121
-15.51821327 -21.18340111 0.545178473
-10.67224979 -12.32512093 1.292766809
-10.63979053 -12.37236977 1.817886829
-10.64831448 -12.43531036 2.350700855
-10.59096813 -12.3700428 2.873894215
-10.645051 -12.51387978 3.43183589
-10.60898495 -12.49504757 3.971136808
-10.86436272 -13.02196693 4.655035019
-15.6662674 -21.28032875 0.5456720591
-10.71062183 -12.28597069 1.295024514
-10.6865654 -12.35379219 1.82052505
-10.63504505 -12.299613 2.342787027
-10.63720226 -12.34490108 2.876369953
-10.62959766 -12.37825871 3.414781809
-10.6612339 -12.48002434 3.975870848
-10.84895611 -12.88152313 4.627978802
-15.75994587 -21.26764297 0.5490660667
-10.75363827 -12.25547028 1.297402859
-10.75381184 -12.3670845 1.825103641
-10.69247246 -12.2954216 2.347233057
-10.64786434 -12.25977993 2.87049818
-10.69845676 -12.39459515 3.424552679
-10.67052937 -12.38525963 3.9634583
-10.87112617 -12.80703068 4.618202209
-15.91695881 -21.36809921 0.5496551991
-10.90050602 -12.41184807 1.302620649
-10.65875816 -12.12505531 2.335936308
-10.65649223 -12.16651154 2.863780499
-10.71162987 -12.30825043 3.416382313
-10.65765381 -12.25090027 3.942435265
-10.87892056 -12.70683575 4.601782322
-16.08169937 -21.47991753 0.5499894023
-10.95174503 -12.39465904 1.305234194
-10.74907017 -12.14131451 1.820397496
-10.73987007 -12.16428852 2.344507217
-10.74234295 -12.21416569 2.876104832
-10.72618961 -12.22544384 3.408792257
-10.71672249 -12.24943447 3.950113297
-10.96565247 -12.75223637 4.622867107
-16.21384811 -21.53171158 0.5518171787
-10.96360493 -12.30762863 1.306755304
-10.81890202 -12.15939808 1.82524538
-10.787323 -12.14221287 2.347273588
-10.77449989 -12.16420746 2.875246525
-10.76329327 -12.18417454 3.408493757
-10.76539326 -12.22881031 3.95368433
-10.99346256 -12.68957615 4.616130352
-16.34550476 -21.58112526 0.5537124276
-11.02939606 -12.31624603 1.309764743
-10.8860054 -12.17193031 1.829812884
-10.83274841 -12.11649418 2.349701643
-10.82584953 -12.14881897 2.879096031
-10.80984497 -12.16005707 3.411235332
-10.80732059 -12.19598961 3.954633474
-10.99912262 -12.58768749 4.599202156
-16.47759247 -21.62070656 0.5560099483
-11.07839298 -12.29509068 1.312306404
-10.92658806 -12.13728523 1.83175838
-10.91056538 -12.14780712 2.357636213
-10.89706135 -12.16303539 2.887320757
-10.85049152 -12.12544727 3.4121387
-10.97914982 -12.39419746 4.0061059
-11.11622429 -12.6802187 4.633264065
-16.5580101 -21.57889938 0.5601142645
-11.1136055 -12.24472713 1.314515591
-10.95634365 -12.0786953 1.832544804
-10.96918201 -12.13936424 2.362026215
-10.88251209 -12.03162098 2.875308514
-10.9519186 -12.19246101 3.431508064
-11.02391815 -12.35930824 4.007205009
-11.03875732 -12.43220234 4.578212738
-11.45390606 -12.68321419 0.7756333351
-11.04643726 -12.02465248 1.313759804
-10.98352528 -12.02136993 1.833192706
-11.04947853 -12.17341518 2.370320559
-10.92855644 -12.00718784 2.877951145
-10.97490883 -12.12652969 3.426900387
-11.2115736 -12.57969666 4.064040661
-11.20016575 -12.6067915 4.63343811
-11.50017357 -12.65375328 0.7781975269
-11.14824677 -12.09474182 1.317778945
-11.03960037 -12.01404476 1.836676836
-11.08097458 -12.12266445 2.370398283
-11.01138878 -12.04614544 2.889372349
-10.98764229 -12.04348946 3.419207335
-11.28701496 -12.60150909 4.077431202
-11.16367054 -12.43377209 4.5978055
-17.06529045 -21.90027428 0.56178689
-11.20777512 -12.09204483 1.320601225
-11.07950401 -11.97894001 1.838582516
-11.15357018 -12.14232254 2.377363682
-11.04946804 -12.00754356 2.890114307
-11.04269314 -12.03393745 3.424681664
-11.27383137 -12.47011852 4.057029724
-11.20525455 -12.3978672 4.598065376
-17.22486115 -21.98673248 0.5628795028
-11.21997356 -12.01491451 1.322007895
-11.14677334 -11.99009895 1.843153477
-11.13587189 -12.01374722 2.369547129
-11.05913067 -11.92093563 2.884180546
-11.11480331 -12.05311584 3.43537879
-11.19992352 -12.24207211 4.014658928
-11.29980183 -12.45275593 4.622301579
-17.34812927 -22.01998901 0.5650774837
-11.26288128 -11.98445988 1.324345469
-11.15765285 -11.91141796 1.842347503
-11.18390846 -11.99194527 2.372451782
-11.16568279 -11.99829197 2.901102066
-11.1385479 -11.9950943 3.431823015
-11.21275997 -12.15877342 4.004685879
-11.36776066 -12.46653652 4.635326385
-17.45808411 -22.02121353 0.5681803226
-11.43748093 -12.17094994 1.330503225
-11.21257877 -11.90161419 1.845722198
-11.24009705 -11.98363209 2.376706839
-11.20633411 -11.96909809 2.902899981
-11.19055939 -11.97982121 3.436371088
-11.21707153 -12.06204605 3.991673946
-11.50787067 -12.59598351 4.679617882
-17.58370781 -22.03825378 0.5710709095
-11.36502934 -11.95042038 1.329485536
-11.2664814 -11.889884 1.848996639
-11.37271214 -12.10122108 2.393513203
-11.21234417 -11.87245083 2.895847321
-11.22830486 -11.94063187 3.436605215
-11.22686481 -11.97556496 3.980890751
-11.4271183 -12.34833717 4.62438488
-17.68881607 -22.02993774 0.5743873715
-11.45281982 -11.99266624 1.333129764
-11.33724308 -11.90039921 1.853794813
-11.28471375 -11.89093971 2.904678345
-11.28142643 -11.92192459 3.440956831
-11.25140381 -11.91438293 3.975737095
-11.48134041 -12.33330536 4.63040638
-17.82600021 -22.08135605 0.5761803389
-11.50509548 -11.97671413 1.335736513
-11.39741611 -11.90314293 1.857759714
-11.41932964 -11.97423744 2.391180515
-11.34275913 -11.88538742 2.910165071
-11.33624077 -11.91588497 3.446920872
-11.3216114 -11.92865944 3.98755002
-11.61426353 -12.45277596 4.671961784
-17.95280075 -22.105896 0.5787485838
-11.57328987 -11.98597145 1.338812947
-11.44410706 -11.8787899 1.860334039
-11.47467232 -11.96324158 2.395272255
-11.41847801 -11.91306305 2.92009449
-11.39955711 -11.91831779 3.454859734
-11.36837482 -11.90410423 3.990684271
-18.08182716 -22.12390518 0.5816234946
-11.62989521 -11.97631073 1.341547728
-11.56708527 -11.97613144 1.87019372
-11.52685547 -11.94695282 2.398850918
-11.48949432 -11.92238331 2.928113222
-11.43378162 -11.87346935 3.45414114
-11.41609859 -11.8810463 3.994191885
-11.60404587 -12.22218609 4.631057739
-18.22974396 -22.17924118 0.5835077763
-11.71669865 -12.00884056 1.345236063
-11.66429329 -12.02574062 1.87747097
-9.639812469 -8.846959114 2.089621067
-11.61862755 -12.02862263 2.949733496
-11.47107887 -11.82879162 3.453839064
-11.57000065 -12.02297688 4.035653591
-18.36278725 -22.20095825 0.5863080025
-11.80050755 -12.04067516 1.348789334
-11.74255657 -12.0492897 1.883022189
-9.637452126 -8.768108368 2.085594416
-9.658682823 -8.827937126 2.496953726
-11.80330944 -12.2566328 3.540822029
-11.59515572 -11.96262455 4.030851364
-9.680832863 -8.612031937 0.4932317436
-9.657505035 -8.601263046 0.8899434805
-9.645701408 -8.611804962 1.284933567
-11.77039051 -11.99343204 1.883782625
-9.642601967 -8.705586433 2.082999229
-9.641771317 -8.730232239 2.487569571
-11.86504936 -12.25214767 3.547911406
-11.70609093 -12.04301071 4.057748795
-18.65641785 -22.3182373 0.5896663666
-9.686457634 -8.602021217 1.286923051
-11.86182117 -12.04132938 1.890660405
-9.632884979 -8.616929054 2.077892065
-9.635602951 -8.646698952 2.480415821
-11.92244244 -12.24555111 3.554261208
-11.79242992 -12.07828903 4.074937344
-18.78339577 -22.33553314 0.5924240351
-33.94940567 -45.51367188 2.023728132
-9.67602253 -8.585615158 1.682607174
-9.628046989 -8.536819458 2.07361722
-9.63051033 -8.569414139 2.473871946
-11.95323563 -12.19240475 3.552339792
-11.93970585 -12.20722771 4.113780975
-18.88527298 -22.31389236 0.5960285068
-33.59933853 -44.6330452 2.016718864
-9.612910271 -8.441851616 2.06776166
-9.630951881 -8.497843742 2.468359232
-12.06565285 -12.2650547 3.574054956
-11.95758724 -12.13432217 4.10632658
-18.99161339 -22.29847908 0.5994889736
-33.76452255 -44.53766251 2.025330544
-9.613632202 -8.372067451 2.064469337
-9.622249603 -8.41311264 2.460884333
-12.13750648 -12.27429771 3.583963871
-12.02664948 -12.14033318 4.117100716
-19.18400002 -22.41034889 0.6002135277
-34.15446091 -44.7771225 2.04082942
-19.14237595 -22.58312607 2.565428972
-9.612847328 -8.300725937 2.06098175
-9.608647346 -8.321939468 2.452410698
-19.38069534 -22.52614021 0.6008805037
-34.12307358 -44.38819885 2.043391466
-19.36882591 -22.74378395 2.583287477
-12.25625038 -12.17999554 2.47178483
-19.60660744 -22.68210983 0.6007257104
-32.08299255 -41.05510712 1.983789086
-31.55130386 -40.58132935 3.716143847
-31.49975395 -40.61111069 5.471515656
-19.75671005 -22.72476387 0.6029933691
-31.94841576 -40.54618073 1.982815027
-31.41008759 -40.06356812 3.697212458
-31.74960136 -40.66731644 5.495553017
-19.9980278 -22.88869476 0.6028934121
-32.27241898 -40.70646286 1.996049523
-31.59794617 -40.03140259 3.708962917
-31.65796852 -40.22253418 5.46655941
-32.17567444 -41.08533859 7.34823513
-20.52864647 -23.47209358 0.5939665437
