# .PCD v0.7 - Point Cloud Data file format
VERSION 0.7
FIELDS x y z
SIZE 4 4 4
TYPE F F F
COUNT 1 1 1
WIDTH 1266
HEIGHT 1
VIEWPOINT 0 0 0 1 0 0 0
POINTS 1266
DATA ascii
54.3035202 4.252705574 4.942123413
84.30922699 5.756934166 0.7877603173
88.8116684 5.908169746 13.75821209
84.29766083 5.449335098 0.7882263064
54.8898201 3.907829046 2.934176445
88.71118164 5.610527992 10.47359371
88.56634521 5.591531754 13.72278023
84.32497406 5.143857002 0.7886101604
54.82355881 3.711167097 2.932064772
88.79845428 5.29433012 10.48132801
88.60769653 5.27433157 13.7267704
77.61003113 4.536016464 0.8129144311
54.98874664 3.515197039 2.937281609
88.6142807 4.965694904 10.46164799
88.66178894 4.957492828 13.73272228
77.61423492 4.252924919 0.8134462833
88.62776184 4.646454811 10.46223259
88.61183929 4.636146069 13.72462463
77.62542725 3.970169544 0.8140058517
77.62624359 3.961932182 3.648721218
88.64012909 4.327166557 10.46288013
88.56472778 4.315347195 13.71713257
77.64363098 3.687606573 0.8145925403
77.62439728 3.679255247 3.64896059
88.57588196 3.996918201 13.71784401
77.60488129 3.403253078 0.8154305816
77.62955475 3.396891832 3.649505854
88.57009888 3.677966595 13.71644402
77.6127243 3.134651899 0.8161177635
77.64173126 3.114729404 3.650357723
88.67011261 3.38506794 10.46515179
88.58695221 3.359755278 13.71836376
77.62802124 2.852093697 0.8168663383
77.61294556 2.831556797 3.650008202
88.6780777 3.065620422 10.46604538
88.57857513 3.056807518 13.71704483
77.61006165 2.582919121 0.817738831
77.61885834 2.563455343 3.650800705
88.68461609 2.76216197 10.46695137
88.60515594 2.738731861 13.72071362
81.23428345 2.571690083 15.740345
77.63742065 2.300549984 0.8185469508
77.62413025 2.281224251 3.651688814
81.22857666 2.312989712 12.71014309
81.19185638 2.293059111 15.73306751
77.59562683 2.031206369 0.8195969462
77.64021301 2.013273478 3.652960539
81.3092041 2.04431653 6.736541271
81.34143066 2.040352583 9.721715927
81.25263214 2.020203352 12.71384716
81.15658569 2.000231504 15.7272501
77.63108063 1.748840213 0.8204779029
77.63157654 1.730826855 3.653578281
81.30047607 1.764426351 6.736735344
81.34476471 1.746313691 9.722762108
81.24780273 1.741649866 12.71375465
81.17926788 1.722832441 15.73165035
77.60754395 1.46586144 0.8216143847
65.74803162 1.380256772 3.280338049
81.29490662 1.469939709 6.737303734
81.34707642 1.452285647 9.723864555
81.22627258 1.448385358 12.7115984
81.20111847 1.430666566 15.73616219
77.61302948 1.183140755 0.822701931
81.30827332 1.175545335 6.739254951
81.34836578 1.158244491 9.72502327
81.20768738 1.155314445 12.71004295
81.19830322 1.138299704 15.73664093
77.63153076 0.9003884196 0.8237971663
81.28070068 0.8810468316 6.738609791
81.34862518 0.8642282486 9.726241112
81.22771454 0.8623175621 12.71397305
81.17082214 0.8459906578 15.73309135
77.58704376 0.6177053452 0.8251578212
81.27604675 0.5866811275 6.739614487
81.34786224 0.5701888204 9.727515221
81.25860596 0.5691590905 12.71959114
81.11472321 0.5539485216 15.72482777
77.59365845 0.3491641581 0.8263328075
77.61768341 0.3336946368 3.658808947
81.30628967 0.2921079397 6.743065834
81.27854156 0.2913471162 9.721899033
81.22309113 0.2762874961 12.71630383
81.17992401 0.2760228515 15.73767376
77.6394043 0.08013250679 0.8274223208
77.63131714 0.06542737037 3.660568476
81.27181244 0.01269808412 6.742255211
81.31573486 0.01182304509 9.727259636
81.23625183 -0.00224467786 12.71979427
81.19295502 -0.00180992682 15.74171448
77.61225128 -0.1882438213 0.8288038969
77.60009003 -0.2023355514 3.660989046
81.2882843 -0.2672082782 6.744949341
81.25650787 -0.2666292489 9.722959518
81.23264313 -0.280652225 12.72116184
81.19697571 -0.2942396104 15.74451828
77.61196136 -0.4710520208 0.8302140832
77.6676712 -0.4857129455 3.66468811
81.26791382 -0.5465943217 6.745303631
81.30750275 -0.5612998009 9.730119705
81.24395752 -0.5593182445 12.72475338
81.18842316 -0.5718886852 15.74525928
77.62699127 -0.7400591373 0.8315508366
77.61862946 -0.7530776858 3.6647048
81.30218506 -0.8417640328 6.749509335
81.32993317 -0.8410648108 9.734426498
81.23027039 -0.8522374034 12.72521782
81.18650818 -0.8642461896 15.74748993
77.60478973 -1.022467375 0.8331342936
77.64031982 -1.035932541 3.667122602
81.31183624 -1.121847987 6.752096176
81.2834549 -1.134050965 9.731981277
81.27138519 -1.131756663 12.73326492
81.18788147 -1.142117977 15.75037861
77.62158203 -1.30584681 0.8346413374
81.30418396 -1.416343808 6.753756523
81.31549835 -1.428940058 9.73769474
81.24382019 -1.424383759 12.73220921
81.20368958 -1.435061693 15.75613117
77.60940552 -1.588468194 0.8362954855
61.92447662 -1.105155706 3.172827959
81.30748749 -1.711138129 6.756272316
81.30674744 -1.722866297 9.739414215
81.6073761 -1.728938818 12.78504562
81.57302856 -1.739159226 15.82330513
77.62870789 -1.858003139 0.8378145695
81.69121552 -2.015503645 9.781224251
81.60544586 -2.023538113 12.78791523
81.57150269 -2.018367767 15.82636166
77.59515381 -2.125743389 0.8395506144
52.85217667 -1.209853292 2.888139725
81.64657593 -2.298780918 6.783746243
81.55722809 -2.297129869 15.82742405
81.71665955 -2.577046156 0.8281684518
52.94872284 -1.400323033 2.892626286
81.56898499 -2.591655731 15.83340931
81.76596832 -2.876818419 0.8299218416
52.51696014 -1.577955842 2.880460501
81.57971191 -2.886303425 15.83945084
81.74230194 -3.173520088 0.8319613934
81.58494568 -3.172451735 12.79922295
81.5776062 -3.180502176 15.84350395
81.75156403 -3.471864939 0.8339518309
53.09719467 -1.998348236 2.902206421
81.70716858 -3.480399132 9.799002647
81.61756134 -3.469128609 12.80781746
81.55872345 -3.47390008 15.84488678
53.48247528 -2.206924915 2.916140556
81.76043701 -3.749829292 9.807811737
81.66578674 -3.752221346 12.81854153
81.54357147 -3.752779722 15.84690094
81.66954041 -4.041051865 3.817225695
81.71976471 -4.043858051 9.807554245
81.62997437 -4.0308671 12.81788731
81.57865143 -4.03456974 15.85783958
81.63272858 -4.321293354 3.818708897
81.77734375 -4.343780518 9.817502975
81.63187408 -4.326463223 12.82283974
81.57646942 -4.329154015 15.86279964
81.68577576 -4.622092724 3.823292255
81.75843048 -4.639264584 9.819796562
81.60110474 -4.620085716 12.82349491
81.60077667 -4.625567913 15.87259674
81.66598511 -4.918423176 3.825638533
81.63426208 -4.922011852 6.811044693
81.73950958 -4.919911385 9.82202816
81.61281586 -4.916531563 12.83019924
81.5847168 -4.919504166 15.87562466
81.65710449 -5.215514183 3.828426123
81.71858215 -5.21523428 9.824433327
81.62850952 -5.198684692 12.83738422
81.58444214 -5.199864864 15.88132191
81.69774628 -5.495747089 9.826771736
81.62632751 -5.494540691 12.8425684
81.56750488 -5.479103565 15.88433647
81.67598724 -5.776185989 9.82916069
81.63612366 -5.776663303 12.84931755
81.58108521 -5.760761738 15.89286995
81.75122833 -6.079421043 9.841897964
81.62525177 -6.057289124 12.8533926
81.58856201 -6.056934834 15.90090275
81.65164185 -6.356009007 12.86311054
81.61464691 -6.35491991 15.91241074
81.62567902 -6.65045023 12.86579323
85.54992676 -7.293511391 13.41461849
85.56010437 -7.605190277 13.42300129
85.52975464 -7.913115978 13.42598534
85.55350494 -8.226610184 13.43667412
-5.003823757 -6.549859524 0.5499844551
-5.029772282 -6.544679165 0.5514113307
-5.018837452 -6.549484253 0.8171921968
-5.001729012 -6.523610115 1.082532644
-5.058150291 -6.551125526 0.5519748926
-5.046410084 -6.552028656 0.8183226585
-5.028316975 -6.528395176 1.083862066
-5.083632469 -6.549929619 0.5530433059
-5.071897984 -6.550830841 0.8195307851
-5.055355072 -6.53504324 1.085189581
-5.02480793 -6.522925377 1.348740935
-5.008692265 -6.508596897 1.612472773
-5.11249733 -6.564244747 0.5529686809
-5.096553326 -6.545637131 0.8208853602
-5.082092762 -6.533492565 1.086605668
-5.05060482 -6.52366066 1.350288868
-5.032487392 -6.493424416 1.61321342
-5.026508331 -6.528585434 1.881843925
-5.00623703 -6.488068104 2.144148827
-5.14020443 -6.56648016 0.5538263917
-5.126749992 -6.559609413 0.8215811849
-5.1062994 -6.520116806 1.088040829
-5.07979393 -6.533804417 1.352240562
-5.059902191 -6.495747566 1.615172863
-5.051991463 -6.521120548 1.883060575
-5.033603668 -6.490328789 2.146662474
-5.020876884 -6.487222672 2.415378094
-5.003618717 -6.469244957 2.683655977
-5.013475895 -5.822846413 0.3667678833
-5.166210651 -6.560823917 0.5552544594
-5.152732849 -6.553948879 0.8230078816
-5.132578373 -6.516428947 1.089457393
-5.104431152 -6.522342682 1.353462934
-5.089441776 -6.507724285 1.617815495
-5.077858925 -6.51551342 1.884481072
-5.063047886 -6.502180576 2.150552988
-5.048250198 -6.48933363 2.418168545
-5.027721882 -6.455986977 2.683417082
-5.01668644 -6.46265316 2.960252285
-5.048417568 -5.868080616 0.3625607193
-5.195288658 -6.568696022 0.5556885004
-5.1804533 -6.555996895 0.8241445422
-5.162782192 -6.530213356 1.090851545
-5.130291939 -6.516656399 1.354882717
-5.116106033 -6.505938053 1.619506121
-5.104124546 -6.511761189 1.886106253
-5.090514183 -6.504230499 2.153071165
-5.075657845 -6.491343498 2.420960188
-5.05256176 -6.446480274 2.683999538
-5.043959618 -6.464560032 2.963585138
-5.024306774 -6.431018353 3.234116793
-5.077841282 -5.887969494 0.3611130118
-5.223540783 -6.572567463 0.5564089417
-5.202857018 -6.534562111 0.8261440396
-5.192218304 -6.53997612 1.09225595
-5.157440186 -6.516732216 1.356503367
-5.144509792 -6.511846542 1.621745467
-5.13295269 -6.519571781 1.888970256
-5.114635468 -6.490695477 2.153384447
-5.10393095 -6.497102737 2.424442768
-5.079003334 -6.444542885 2.686231852
-5.068831921 -6.454974651 2.964032173
-5.051867485 -6.43465519 3.238262892
-5.10284853 -5.888380527 0.3617783189
-5.253660679 -6.584103107 0.5565673113
-5.231470108 -6.540315628 0.8271363974
-5.219040871 -6.537931442 1.093674779
-5.186826706 -6.526453972 1.358464241
-5.167703629 -6.494290829 1.622337699
-5.160548687 -6.521447182 1.891216874
-5.142115116 -6.492553711 2.155902624
-5.130567074 -6.495057583 2.426547766
-5.109213352 -6.459712982 2.692186117
-5.09365797 -6.445306301 2.964476347
-5.079068184 -6.436306477 3.241862059
-5.121851444 -5.863554955 0.3651762903
-5.279265404 -6.576110363 0.5581377745
-5.259227753 -6.542068958 0.8282738924
-5.242208004 -6.520214081 1.095103621
-5.215402126 -6.532165051 1.360293031
-5.19525671 -6.496110439 1.624302745
-5.188622475 -6.525158405 1.893672466
-5.170940876 -6.500104904 2.159252405
-5.157212734 -6.492915154 2.428653002
-5.136148453 -6.459480762 2.694835424
-5.120112896 -6.443134785 2.966845274
-5.105482101 -6.434098721 3.244364023
-5.151518345 -5.883127213 0.3637408018
-5.303895473 -6.564151287 0.5599863529
-5.289348125 -6.553437233 0.829059422
-5.271304131 -6.52771616 1.096514463
-5.241296291 -6.526091099 1.361713052
-5.225554466 -6.509487629 1.627098441
-5.211364746 -6.505506992 1.893637657
-5.199393272 -6.505613327 2.162328482
-5.183861256 -6.490677834 2.430757999
-5.161808968 -6.453423977 2.696242571
-5.148269176 -6.448444366 2.971142769
-5.130226612 -6.424287319 3.24466753
-5.182772636 -5.908368111 0.3616853058
-5.330368042 -6.559861183 0.5612716079
-5.314835072 -6.545266628 0.8305527568
-5.2987113 -6.533473969 1.097858787
-5.265316963 -6.512148857 1.362855792
-5.25375843 -6.519169331 1.629552007
-5.238992214 -6.507090092 1.895884871
-5.228357792 -6.512940407 2.1656847
-5.211890221 -6.500169277 2.434869289
-5.188765526 -6.452996731 2.698892117
-5.178212643 -6.461214066 2.977373838
-5.158315182 -6.435332775 3.250947714
-5.19804287 -5.873954773 0.366055429
-5.358275414 -6.561285973 0.5621370673
-5.337075233 -6.529564857 0.8322527409
-5.328900814 -6.544641495 1.099276185
-5.293610096 -6.521757126 1.364755034
-5.282405376 -6.524549484 1.631802797
-5.266655922 -6.508568287 1.898133636
-5.24971199 -6.493489265 2.165086508
-5.240396023 -6.505402565 2.438362598
-5.214010239 -6.450880527 2.701056957
-5.207852364 -6.47796011 2.984505892
-5.183468819 -6.42721653 3.251799345
-5.228494167 -5.895125866 0.3644263148
-5.384918213 -6.562928677 0.5629328489
-5.366361618 -6.536739349 0.8331837058
-5.3538661 -6.534341335 1.100696564
-5.321372986 -6.523173809 1.366450667
-5.307332039 -6.514312744 1.632941723
-5.29492712 -6.517997265 1.901147962
-5.277797222 -6.496767998 2.167888641
-5.267130375 -6.50286293 2.440470934
-5.241444111 -6.452165604 2.704122543
-5.229586124 -6.454593182 2.981565714
-5.212087154 -6.433991909 3.257054567
-5.249175072 -5.8776474 0.3669722378
-5.411894321 -6.560285091 0.5640785098
-5.395223141 -6.541863441 0.8341873288
-5.380257607 -6.529773235 1.10211575
-5.349167347 -6.524487972 1.368147612
-5.333170414 -6.507863998 1.634357095
-5.321732044 -6.515403271 1.902982593
-5.306869984 -6.503787518 2.171249866
-5.291078091 -6.488742352 2.440495253
-5.271657944 -6.464759827 2.709684134
-5.25613451 -6.451929569 2.98393774
-5.238997459 -6.433172226 3.260108471
-5.270759106 -5.863955975 0.3690962493
-5.439886093 -6.561404705 0.5649474263
-5.42464304 -6.548811913 0.8351248503
-5.408132076 -6.530922413 1.103536725
-5.37503767 -6.517944813 1.369564295
-5.363361359 -6.518740177 1.637031436
-5.347574711 -6.508852959 1.904397845
-5.336490154 -6.512614727 2.174893141
-5.318722248 -6.489843845 2.443296432
-5.297803879 -6.460126877 2.711506605
-5.283144474 -6.451056004 2.986793756
-5.263673306 -6.42290926 3.260406256
-5.30299139 -5.890568256 0.3668569922
-5.466890335 -6.558559895 0.5660937428
-5.450083256 -6.540176392 0.8366136551
-5.438551426 -6.541646481 1.104965091
-5.400885105 -6.511312008 1.370979428
-5.394135475 -6.531430244 1.639850855
-5.376326561 -6.513781071 1.907070994
-5.360874653 -6.500199318 2.175470114
-5.348306179 -6.498484612 2.447490931
-5.323933125 -6.455402851 2.713327408
-5.312030792 -6.457618237 2.991588116
-5.293327332 -6.433103561 3.266770363
-5.332327366 -5.905515194 0.3658717871
-5.497256756 -6.562986374 0.566759944
-5.478319168 -6.536907673 0.8379665017
-5.467542648 -6.546444893 1.106393814
-5.429226398 -6.514260769 1.372748613
-5.420033455 -6.52467823 1.641268253
-5.404640675 -6.516670704 1.909536481
-5.386181831 -6.491539955 2.176602364
-5.378937721 -6.510826588 2.452386141
-5.351822853 -6.452141762 2.715635061
-5.338629246 -6.454655647 2.993961573
-5.319832802 -6.430117607 3.269274235
-5.34672308 -5.860535145 0.3713693917
-5.527681828 -6.567290306 0.5674288869
-5.506560802 -6.533530712 0.8393192291
-5.498404026 -6.552717209 1.107898116
-5.459920883 -6.52062273 1.374733448
-5.446184635 -6.513632774 1.642472148
-5.434288025 -6.519108772 1.912074685
-5.413729668 -6.486285686 2.17836237
-5.407049179 -6.507438183 2.454568148
-5.386493206 -6.475305557 2.723783016
-5.363651276 -6.439967155 2.993494272
-5.349495888 -6.434149265 3.274057627
-5.368669033 -5.848448277 0.3732762635
-5.554747581 -6.564127922 0.5685773492
-5.535616398 -6.53811121 0.840331316
-5.520694733 -6.532194614 1.109301209
-5.488100052 -6.517206192 1.376362085
-5.475613117 -6.5201931 1.644876242
-5.463470936 -6.519505501 1.914403796
-5.446305275 -6.500078201 2.182923794
-5.429885864 -6.489051819 2.453885555
-5.418107033 -6.491087914 2.730200529
-5.391666889 -6.442453861 2.997321844
-5.378414154 -6.44026947 3.279326677
-5.401198387 -5.878752232 0.3705807328
-5.578372478 -6.553537846 0.5702009797
-5.564499855 -6.546788692 0.8411413431
-5.546355724 -6.529317379 1.110651731
-5.513697147 -6.514389515 1.377849102
-5.500699043 -6.515435696 1.64636147
-5.487004757 -6.508971691 1.915324092
-5.472849369 -6.501047611 2.185386181
-5.458388329 -6.497600555 2.458019257
-5.443082333 -6.486288071 2.73195672
-5.418932915 -6.447062969 3.001566887
-5.400800705 -6.426167011 3.278443575
-5.431874275 -5.897102833 0.3691964746
-5.603030682 -6.546713829 0.5715488791
-5.590223312 -6.54380846 0.8423551321
-5.574385643 -6.529843807 1.112078786
-5.539301395 -6.511484146 1.379336119
-5.531801701 -6.527554512 1.649196863
-5.513623714 -6.509878159 1.917512298
-5.499424934 -6.501920223 2.18784976
-5.485201359 -6.494269371 2.460129023
-5.465536118 -6.471952915 2.731621265
-5.449524403 -6.458712578 3.007829428
-5.427333832 -6.422790051 3.280947447
-5.462149143 -5.913410664 0.3680253625
-5.631157875 -6.547115326 0.5724223256
-5.616152287 -6.536527634 0.8437720537
-5.6084342 -6.55143404 1.113545537
-5.567809582 -6.513901711 1.381112456
-5.558748245 -6.524166584 1.650896549
-5.540506363 -6.506489277 1.919347882
-5.524701118 -6.492785931 2.188978434
-5.514080524 -6.498440742 2.463638783
-5.491238594 -6.464740753 2.733026028
-5.477198124 -6.458996773 3.011177778
-5.458824158 -6.437884331 3.288990021
-5.461912155 -5.824550629 0.3781371117
-5.662651062 -6.558909893 0.5724838972
-5.643159389 -6.532999039 0.8450552225
-5.628329754 -6.522889614 1.114921093
-5.597988129 -6.52198267 1.383110642
-5.582997322 -6.511078358 1.65188086
-5.572735786 -6.522158623 1.923307657
-5.553649426 -6.496918678 2.192076445
-5.545113564 -6.510090828 2.468553305
-5.517436028 -6.459323406 2.734847784
-5.501333237 -6.446073532 3.011119127
-5.486424446 -6.438006878 3.292604923
-5.489271641 -5.831168175 0.3779833019
-5.689749241 -6.555259228 0.5736321211
-5.674654961 -6.54472065 0.8458141088
-5.65641737 -6.523106098 1.116350055
-5.627147198 -6.526099205 1.384965301
-5.609916687 -6.507502556 1.653578281
-5.60185051 -6.526210785 1.925997376
-5.58425808 -6.506658554 2.196022987
-5.569883823 -6.498859882 2.469262362
-5.549377441 -6.47453928 2.741281271
-5.528501987 -6.444290638 3.01398015
-5.514054775 -6.438024521 3.296221256
-5.510995865 -5.818616867 0.379875809
-5.715872288 -6.543478012 0.5753902197
-5.701713562 -6.540980816 0.8470992446
-5.68453598 -6.523216248 1.117780328
-5.655246258 -6.526263237 1.386674404
-5.637942791 -6.507662296 1.655562758
-5.625536919 -6.511033535 1.926557779
-5.612248898 -6.506751537 2.198562384
-5.599975586 -6.506486893 2.47348094
-5.576683044 -6.472679138 2.743944407
-5.563001633 -6.468556881 3.023668051
-5.54118824 -6.436088562 3.299283266
-5.559784889 -5.895484924 0.3721799552
-5.74870348 -6.558738232 0.5751917958
-5.73467207 -6.552071095 0.8479372263
-5.714963436 -6.530887604 1.119231343
-5.679993629 -6.514814854 1.387938023
-5.66711235 -6.511546135 1.657836437
-5.655992031 -6.514491558 1.929319739
-5.638063908 -6.49913168 2.199971437
-5.627972603 -6.506425381 2.47629714
-5.603135109 -6.462814331 2.744997263
-5.593158245 -6.471759796 3.028068304
-5.571470261 -6.445143223 3.305677652
-5.594555855 -5.920383453 0.3700751662
-5.778175354 -6.562408447 0.5758048892
-5.759460449 -6.540462494 0.8494819403
-5.743162155 -6.530777454 1.120665193
-5.711681843 -6.522052288 1.390016913
-5.691806793 -6.500013828 1.658957005
-5.686883926 -6.523940086 1.932655096
-5.666257858 -6.494832516 2.202015638
-5.65818882 -6.513819695 2.480521679
-5.630982876 -6.462632179 2.748080015
-5.619403839 -6.465908527 3.029959679
-5.601314068 -6.452228069 3.311520815
-5.608852863 -5.886945248 0.3741509318
-5.808878899 -6.569777489 0.5761530399
-5.788778782 -6.54827261 0.8503126502
-5.771971703 -6.53247261 1.122105718
-5.742020607 -6.533768654 1.392109156
-5.71987915 -6.499864578 1.660942674
-5.716169834 -6.527544022 1.935352564
-5.691309929 -6.489313126 2.203634977
-5.685150146 -6.509760857 2.482636452
-5.659771442 -6.47024107 2.752776623
-5.64380455 -6.458494186 3.03129077
-5.628558636 -6.449965954 3.314587355
-5.64860487 -5.930941105 0.3699629903
-5.834776878 -6.565999031 0.5772337914
-5.817097187 -6.547933578 0.8514726758
-5.794202805 -6.517262936 1.123422861
-5.769089222 -6.529675007 1.393672943
-5.747274876 -6.501913548 1.663004756
-5.744212151 -6.531431198 1.937981725
-5.721616268 -6.4965868 2.2073102
-5.707439423 -6.494682789 2.482563972
-5.691027641 -6.481092453 2.758388996
-5.670015812 -6.452461243 3.033179045
-5.657775402 -6.459059715 3.320922375
-5.677834034 -5.944781303 0.3689673543
-5.860777855 -6.557917595 0.5786513686
-5.84774065 -6.559334755 0.8521826863
-5.82302618 -6.518760681 1.124863386
-5.797809124 -6.535434246 1.395545006
-5.775999069 -6.503459454 1.665138841
-5.767778873 -6.515796661 1.938533425
-5.753020287 -6.511714458 2.21205616
-5.735491753 -6.494215012 2.485381603
-5.716041088 -6.475362778 2.760143518
-5.69658947 -6.452312469 3.036464453
-5.683990955 -6.452903748 3.322878838
-5.701054573 -5.935398102 0.3704683781
-5.887883186 -6.557759285 0.5794653893
-5.87614584 -6.558774471 0.8533466458
-5.85672617 -6.53539896 1.12635982
-5.821921349 -6.521601677 1.396728277
-5.806540012 -6.510607719 1.66771245
-5.796447754 -6.521389008 1.941379309
-5.780602932 -6.509275913 2.214318037
-5.765880108 -6.501166344 2.489613771
-5.738343239 -6.456048489 2.759014368
-5.728407383 -6.464651108 3.043248892
-5.710741043 -6.448494434 3.325390339
-5.724855423 -5.927826881 0.3717652857
-5.920006275 -6.5684762 0.5795576572
-5.902124882 -6.550495148 0.8547621965
-5.883235455 -6.529039383 1.127777934
-5.851399422 -6.52483654 1.398597121
-5.833555222 -6.506219387 1.669411778
-5.823501587 -6.516970158 1.943220139
-5.80583334 -6.499177456 2.215440035
-5.796345234 -6.507995129 2.493849993
-5.768018246 -6.460958481 2.763366938
-5.755227089 -6.460168839 3.045628548
-5.738611221 -6.447660446 3.329016447
-5.744891167 -5.908833981 0.3742688894
-5.950985909 -6.575269222 0.5799188018
-5.931795597 -6.553527355 0.8558021784
-5.914669514 -6.53780365 1.129254818
-5.882144928 -6.531764507 1.400622129
-5.860575676 -6.501731396 1.671110988
-5.854756832 -6.52572155 1.9465729
-5.835198402 -6.502205849 2.218556643
-5.820989132 -6.495920181 2.494548321
-5.799502373 -6.471347332 2.768990278
-5.783189297 -6.459293842 3.048988104
-5.76933527 -6.455897331 3.335432053
-5.751595497 -5.850144386 0.3809885681
-5.978275299 -6.570570946 0.5810733438
-5.962766171 -6.560241222 0.8567203879
-5.938706875 -6.523635864 1.130642176
-5.911734581 -6.534764767 1.402496219
-5.891265869 -6.508533478 1.673691273
-5.881244183 -6.519196987 1.948198676
-5.863405228 -6.501347542 2.221104145
-5.849156857 -6.495017529 2.497370243
-5.828732967 -6.474148273 2.772927046
-5.807691574 -6.447212219 3.049404144
-5.7967062 -6.453008175 3.338503122
-5.777004719 -5.848052502 0.3816658258
-6.006827354 -6.56955719 0.5819645524
-5.992546082 -6.563036919 0.8577655554
-5.97213316 -6.53786087 1.132148147
-5.938261032 -6.528153419 1.403984189
-5.917700768 -6.501938343 1.675244212
-5.908326149 -6.5144701 1.950039864
-5.895899773 -6.51356554 2.225654602
-5.876139164 -6.490261555 2.499483347
-5.855635643 -6.469385147 2.775173187
-5.838010311 -6.453526974 3.054728031
-5.822349072 -6.444523811 3.339899063
-5.821065903 -5.90048027 0.3765332699
-6.036688805 -6.57221365 0.5825951695
-6.01725626 -6.550564289 0.8593023419
-6.000592709 -6.536775112 1.133592486
-5.964767456 -6.521448135 1.405470729
-5.947874546 -6.50661087 1.677682042
-5.937887669 -6.517199516 1.952749014
-5.924202442 -6.512475967 2.228206396
-5.906774998 -6.49663496 2.503727198
-5.882534504 -6.464522839 2.777418852
-5.868404865 -6.459715843 3.060055494
-5.851475239 -6.446923733 3.344645739
-5.851887226 -5.913181305 0.375621587
-6.069188118 -6.582304001 0.5827057958
-6.043206215 -6.541791916 0.8607141972
-6.034223557 -6.550730705 1.135108709
-5.99444294 -6.5241189 1.407348275
-5.976842403 -6.507380486 1.679826498
-5.96750164 -6.5198102 1.955460548
-5.947548866 -6.496246338 2.22846508
-5.93748188 -6.502885342 2.507974386
-5.910033703 -6.46142149 2.780087471
-5.894067287 -6.451035976 3.061451674
-5.879467487 -6.445554256 3.348276615
-5.868394852 -5.884416103 0.3791080117
-6.096549988 -6.577176094 0.5838625431
-6.073043823 -6.544265747 0.8617611527
-6.060177803 -6.541845798 1.136520386
-6.024806499 -6.528565407 1.409306526
-6.003931999 -6.502367496 1.681527376
-5.998428822 -6.526074409 1.958609819
-5.975842953 -6.494958878 2.231015682
-5.965774059 -6.501539707 2.510801554
-5.937544346 -6.458215237 2.782756329
-5.919698715 -6.442266464 3.062845707
-5.909872532 -6.451374531 3.354145527
-5.901950359 -5.904410362 0.3774030507
-6.12655592 -6.579478741 0.5844997168
-6.104904652 -6.552283764 0.8626297712
-6.085443974 -6.530981064 1.13792026
-6.057184696 -6.53855896 1.411505461
-6.031655788 -6.499145985 1.683376074
-6.026871204 -6.524681568 1.960890055
-6.007961273 -6.504812717 2.235291004
-5.994091034 -6.500084877 2.513629436
-5.971888542 -6.475292683 2.790096283
-5.946529865 -6.437083721 3.065222979
-5.937927246 -6.449782372 3.357778788
-5.9363451 -5.926125526 0.37550807
-6.152598381 -6.570380211 0.5859153867
-6.134191036 -6.552628994 0.8637418747
-6.11464119 -6.531352043 1.139376879
-6.08506918 -6.53520298 1.413152814
-6.063308239 -6.507125854 1.686119914
-6.053393841 -6.517541885 1.962515354
-6.037619591 -6.50703907 2.238420725
-6.022425652 -6.498524189 2.516458035
-6.001996517 -6.479259491 2.794469118
-5.977069378 -6.44282341 3.070556641
-5.962340832 -6.437160969 3.358051777
-5.966860771 -5.93645525 0.3748136163
-6.182658672 -6.572459698 0.5865545869
-6.163504601 -6.552863598 0.864855051
-6.145219803 -6.535375595 1.140856028
-6.109640598 -6.522318363 1.414400578
-6.093070984 -6.509327412 1.68841958
-6.081197739 -6.514063358 1.964576602
-6.064733505 -6.501668453 2.240400076
-6.052066803 -6.500573635 2.52000165
-6.021386147 -6.451678276 2.791613817
-6.005179405 -6.441099644 3.073920965
-5.994096279 -6.446276188 3.365047216
-5.983843327 -5.909260273 0.3780889213
-6.214127541 -6.578172684 0.5869385004
-6.186065197 -6.534180164 0.8665603399
-6.178562641 -6.546804905 1.142380595
-6.140185356 -6.526297092 1.416367054
-6.119550705 -6.502010822 1.689971924
-6.113637447 -6.523604393 1.968173265
-6.090528965 -6.492463112 2.2418015
-6.083050251 -6.506221771 2.524261713
-6.05341959 -6.460980415 2.797263145
-6.033308506 -6.439266682 3.077285767
-6.026576996 -6.457069397 3.372608423
-5.997912407 -5.874559879 0.3821465969
-6.245661259 -6.583760262 0.5873255134
-6.216072083 -6.536084652 0.8676143289
-6.205869675 -6.541174412 1.143811464
-6.170785904 -6.530152798 1.418336153
-6.148029804 -6.500231266 1.691973567
-6.144839287 -6.52926445 1.971335411
-6.119600773 -6.492494106 2.244645119
-6.111480236 -6.504322052 2.527094126
-6.082965851 -6.462768555 2.801213264
-6.056340218 -6.422690868 3.076699972
-6.059795856 -6.469536781 3.380736589
-6.034701347 -5.901386261 0.3796743453
-6.277273655 -6.589215279 0.587716341
-6.250276089 -6.549123764 0.8683202863
-6.237999916 -6.548583984 1.145321369
-6.20076704 -6.532006264 1.420227289
-6.175168991 -6.49459362 1.693674564
-6.172749519 -6.5254426 1.973401189
-6.152706623 -6.50358963 2.249224901
-6.135970116 -6.491190434 2.527779579
-6.117126465 -6.477331638 2.808149815
-6.087037086 -6.427971363 3.08204031
-6.088676453 -6.469182968 3.384939671
-6.058381557 -5.892650127 0.3809596598
-6.303349018 -6.579590797 0.5891316533
-6.281811714 -6.554522038 0.8692646027
-6.263242245 -6.53711462 1.146717429
-6.226659298 -6.522485256 1.421632767
-6.207780838 -6.503839493 1.696582198
-6.199985981 -6.519646645 1.975246429
-6.185248375 -6.512681961 2.253520727
-6.165737629 -6.492786884 2.531327963
-6.148122787 -6.48254776 2.812959909
-6.123663425 -6.449551582 3.091835737
-6.111165524 -6.450626373 3.383524895
-6.091940403 -5.909874916 0.3794874251
-6.33080864 -6.573606014 0.590290308
-6.309180737 -6.548567295 0.8705578446
-6.291256905 -6.533046246 1.148159385
-6.255296707 -6.520368576 1.423362374
-6.240494251 -6.512946606 1.699494839
-6.231329918 -6.52494669 1.978415132
-6.209724426 -6.499337196 2.254343033
-6.199595451 -6.505354404 2.537030935
-6.172530174 -6.469264984 2.813502073
-6.159160614 -6.46731472 3.100650787
-6.140692234 -6.451876163 3.388289213
-6.133507729 -5.94738245 0.3758619428
-6.361114025 -6.574977875 0.5909402966
-6.336546421 -6.54251194 0.871850431
-6.322112083 -6.536353111 1.149650931
-6.28395319 -6.51814127 1.425092578
-6.270508766 -6.514442444 1.701805592
-6.261358261 -6.526390553 1.981144905
-6.236197472 -6.491479874 2.25603199
-6.232213974 -6.514082432 2.54202199
-6.203600407 -6.474247932 2.818315029
-6.192822456 -6.479455948 3.107987881
-6.173540115 -6.462026119 3.395868063
-6.147254944 -5.912329674 0.3799002469
-6.392179489 -6.578091621 0.591465354
-6.368210793 -6.547550201 0.8728004098
-6.351594925 -6.535798073 1.15111959
-6.315462112 -6.523278713 1.427152634
-6.295638084 -6.502758026 1.703054547
-6.2942276 -6.535157204 1.984762311
-6.268201351 -6.498352528 2.260044336
-6.259429455 -6.507921696 2.544142246
-6.234742641 -6.479101658 2.8231318
-6.212516308 -6.45327425 3.104922056
-6.205826759 -6.470232487 3.402889252
-6.186972141 -5.943963051 0.3768791854
-6.42242384 -6.574997902 0.5924423337
-6.402844429 -6.559910774 0.8735275269
-6.377495766 -6.525803566 1.152523637
-6.348474979 -6.5320158 1.429381728
-6.324984074 -6.502168655 1.7052145
-6.320137978 -6.525200367 1.986167073
-6.300982952 -6.506942749 2.264351606
-6.283867359 -6.494296074 2.544822454
-6.265949249 -6.483826637 2.827951193
-6.242219925 -6.454277515 3.109287977
-6.234199047 -6.467506409 3.406535625
-6.22180748 -5.962449551 0.3752394021
-6.448452473 -6.564865112 0.5938528776
-6.435973644 -6.564168453 0.874556005
-6.407732964 -6.526894569 1.154006362
-6.378696442 -6.533159256 1.431283236
-6.355080605 -6.503323078 1.707528353
-6.350152969 -6.522071838 1.988527775
-6.334568977 -6.517239094 2.268954754
-6.313833714 -6.495301723 2.548379898
-6.294363022 -6.476954937 2.830272913
-6.275978088 -6.461912155 3.115710735
-6.258546829 -6.453890324 3.406800985
-6.232077599 -5.915640354 0.3804990351
-6.478884697 -6.565765858 0.5945079327
-6.469351292 -6.572512627 0.8754057884
-6.43948698 -6.531582355 1.155518889
-6.406610012 -6.524368286 1.432839632
-6.389564037 -6.515504837 1.710762382
-6.378893852 -6.519331455 1.990818977
-6.363135338 -6.510270119 2.271008492
-6.342437267 -6.492511272 2.551218271
-6.318683147 -6.463186741 2.83080864
-6.309238434 -6.471712589 3.122565031
-6.286911964 -6.450958729 3.41044569
-6.257607937 -5.914070606 0.3809412122
-6.510843277 -6.570249557 0.5949140787
-6.489608765 -6.551548958 0.8770778775
-6.477238655 -6.550998211 1.157148242
-6.437059402 -6.529507637 1.43484056
-6.418316841 -6.512694359 1.712774992
-6.408376217 -6.518331051 1.993333578
-6.390545368 -6.50790596 2.273505211
-6.378180981 -6.507947445 2.55766511
-6.347295284 -6.464426041 2.834704161
-6.336440086 -6.469229698 3.125875473
-6.319414616 -6.458669186 3.417477131
-6.287356377 -5.919298172 0.3806707263
-6.540069103 -6.571425438 0.5955029726
-6.518562794 -6.548537254 0.8782622218
-6.502642632 -6.542942524 1.158497691
-6.470345974 -6.53772068 1.437082767
-6.444327354 -6.506583214 1.71441102
-6.440244675 -6.526976585 1.996894479
-6.42071867 -6.508601665 2.276657104
-6.408462524 -6.512757301 2.561882734
-6.380078793 -6.472313404 2.84038949
-6.360729218 -6.455295563 3.126271963
-6.347947598 -6.459601402 3.422184467
-6.310664177 -5.912006378 0.3816971779
-6.569119453 -6.568266869 0.5964131355
-6.549256325 -6.553349018 0.8791570663
-6.531586647 -6.539828777 1.159960508
-6.502434254 -6.54631424 1.439259529
-6.470876217 -6.498005867 1.715962052
-6.469078064 -6.523890972 1.999189496
-6.450372219 -6.511539459 2.280033588
-6.431396008 -6.494978428 2.561834812
-6.412382603 -6.482401848 2.846439362
-6.387924671 -6.452620506 3.129580975
-6.377806664 -6.459898949 3.426963091
-6.350117683 -5.936730385 0.3793648481
-6.59512043 -6.557623386 0.597819984
-6.585674763 -6.564355373 0.8799781203
-6.567928314 -6.550864697 1.161615849
-6.531178474 -6.538907528 1.440903068
-6.506185532 -6.507284641 1.719125152
-6.494948864 -6.513322353 2.000589371
-6.481921196 -6.511465073 2.283259153
-6.46577692 -6.502161026 2.566917896
-6.442297459 -6.478595734 2.84962225
-6.42342186 -6.463191032 3.137014151
-6.403343678 -6.445275784 3.42729044
-6.383183956 -5.948913097 0.3783322275
-6.62725687 -6.561616898 0.5982339978
-6.613976955 -6.559134007 0.8812215924
-6.596951962 -6.547500134 1.163082123
-6.554047585 -6.520841122 1.441964149
-6.539556503 -6.515090466 1.722069025
-6.526034832 -6.515545368 2.003556013
-6.511476994 -6.509960651 2.286123514
-6.497480392 -6.506081581 2.571210861
-6.463643551 -6.457085133 2.848430395
-6.453419685 -6.463347912 3.141393185
-6.433226109 -6.445349216 3.432069302
-6.403133869 -5.929801941 0.3805864751
-6.659462452 -6.565476418 0.5986512303
-6.63762331 -6.542751312 0.8827875257
-6.629333019 -6.555636406 1.164574265
-6.587567806 -6.528535843 1.444217205
-6.569434643 -6.517769337 1.72448194
-6.559448719 -6.523150444 2.007199049
-6.538050652 -6.501019955 2.287813425
-6.527958393 -6.510408401 2.575437307
-6.493706226 -6.4572258 2.852402687
-6.482732296 -6.461587429 3.145275116
-6.461867332 -6.445839882 3.43678093
-6.436707497 -5.945898533 0.3791103959
-6.691728592 -6.5692029 0.5990713239
-6.666940212 -6.543399334 0.8837977648
-6.653736591 -6.540989876 1.165945053
-6.619879723 -6.536635399 1.446404457
-6.59604454 -6.50874567 1.726034522
-6.589131355 -6.521440983 2.009721756
-6.569368362 -6.507149696 2.291784286
-6.559792042 -6.514067173 2.579736471
-6.525492191 -6.465014935 2.858031511
-6.504919529 -6.445914268 3.145096064
-6.494718552 -6.452783585 3.443828583
-6.452625275 -5.917495251 0.3823211789
-6.724061966 -6.572793961 0.5994946361
-6.699171543 -6.547056198 0.884773612
-6.680440426 -6.531777859 1.167362213
-6.65045929 -6.536689281 1.448321462
-6.62263298 -6.499624729 1.727585316
-6.619085789 -6.52382946 2.012625933
-6.600530624 -6.508949757 2.295240402
-6.585632801 -6.503070831 2.581132889
-6.557156086 -6.468512058 2.862871408
-6.534967899 -6.445739269 3.149476528
-6.530578136 -6.466678143 3.453146935
-6.483537197 -5.923718452 0.3818757534
-6.751672268 -6.565269947 0.6006553173
-6.736747265 -6.559185028 0.885559082
-6.712667942 -6.535322666 1.168896437
-6.679508209 -6.532942772 1.450067163
-6.657008171 -6.508751392 1.730695605
-6.645471096 -6.510349274 2.013867855
-6.634818554 -6.51790905 2.299877405
-6.617537975 -6.506484509 2.585435152
-6.590165615 -6.471324444 2.867783785
-6.570065022 -6.45382309 3.156426191
-6.553322315 -6.448529243 3.452266455
-6.514909267 -5.927470684 0.3816897869
-6.785700321 -6.572262287 0.6008381844
-6.763521671 -6.549732685 0.886909306
-6.742563248 -6.533232212 1.170381665
-6.709069252 -6.526690483 1.451796055
-6.687549114 -6.508569717 1.733028769
-6.68068409 -6.521082401 2.017973423
-6.666623116 -6.517056942 2.303113937
-6.652583599 -6.517005444 2.591195822
-6.613580704 -6.454770088 2.867874861
-6.601725578 -6.456952572 3.16181159
-6.583402634 -6.447995186 3.457054138
-6.55855608 -5.964864254 0.3779357374
-6.819813251 -6.579108715 0.6010253429
-6.795443535 -6.555382729 0.8877714276
-6.786185265 -6.562137604 1.172168732
-6.741633892 -6.534274101 1.453995228
-6.722890377 -6.519237995 1.736304283
-6.711278915 -6.52071476 2.020727396
-6.689612865 -6.502676964 2.303848743
-6.686193466 -6.523753166 2.596233845
-6.64637661 -6.463846684 2.873948097
-6.632917404 -6.462298393 3.167630434
-6.617256165 -6.456169605 3.464681387
-6.581637859 -5.952487469 0.3794164956
-6.854012966 -6.585809231 0.6012166739
-6.822220325 -6.545718193 0.8891208768
-6.804044724 -6.532352924 1.173390508
-6.773165703 -6.535661697 1.456005931
-6.746333599 -6.50235939 1.737227798
-6.74697876 -6.535365105 2.025225878
-6.721721172 -6.505792141 2.307607174
-6.718326092 -6.526746273 2.600547075
-6.679780483 -6.470419407 2.879662275
-6.660117626 -6.454489708 3.170017481
-6.648191452 -6.457140923 3.470041275
-6.598903656 -5.927344799 0.3822279572
-6.886657715 -6.588722229 0.6016545296
-6.86340332 -6.564542294 0.8897163868
-6.829930782 -6.520777702 1.174787045
-6.807174683 -6.542401791 1.458282232
-6.775352478 -6.498168468 1.739249468
-6.778989792 -6.534152985 2.028055191
-6.755485535 -6.512393475 2.311960936
-6.741057396 -6.507987022 2.600483894
-6.713776588 -6.474480629 2.885017157
-6.693206787 -6.456662655 3.175478458
-6.678412437 -6.456223488 3.474835157
-6.632985592 -5.936011791 0.3814814985
-6.914386272 -6.580603123 0.6028192043
-6.895191193 -6.565554619 0.8907613158
-6.861548901 -6.521865368 1.176311851
-6.832762718 -6.526527882 1.459574223
-6.807631969 -6.50114584 1.74190259
-6.808936119 -6.531574726 2.030588865
-6.784209251 -6.503798485 2.314016342
-6.770057201 -6.503548622 2.603337526
-6.747348785 -6.48075819 2.890739441
-6.72507143 -6.459271908 3.180873156
-6.705593586 -6.448156834 3.47735548
-6.664781094 -5.945612907 0.3806113303
-6.945443153 -6.579633236 0.6035013199
-6.921554089 -6.557946682 0.8919913769
-6.894880772 -6.526457787 1.177877188
-6.862280846 -6.526307583 1.461430788
-6.84243536 -6.509438515 1.745033264
-6.837268353 -6.52525568 2.032667875
-6.816802979 -6.51071167 2.318306208
-6.802262306 -6.506183624 2.607653379
-6.769417763 -6.464280128 2.890755892
-6.753361702 -6.45702219 3.184695959
-6.735084057 -6.445250034 3.481581926
-6.69197607 -5.941899776 0.3811373115
-6.974851608 -6.57491684 0.6044248939
-6.950881004 -6.553274632 0.8931896091
-6.930799961 -6.536356926 1.179504275
-6.893128395 -6.525377274 1.463358641
-6.871554375 -6.504876137 1.747059107
-6.869234562 -6.530278683 2.036044598
-6.844258785 -6.502474308 2.320292473
-6.836148262 -6.512265682 2.6127038
-6.800680161 -6.464961529 2.89517951
-6.78374958 -6.455839634 3.189090967
-6.770822525 -6.456242561 3.490362883
-6.73445034 -5.970502377 0.378257513
-7.011044502 -6.58454895 0.6043905616
-6.981518745 -6.547883034 0.8944579363
-6.964289188 -6.540657997 1.181077123
-6.927361965 -6.531579494 1.465645313
-6.898178101 -6.49476862 1.748607755
-6.904686451 -6.535773754 2.039792299
-6.878255367 -6.508533478 2.324656725
-6.865237236 -6.507457733 2.615561008
-6.836489677 -6.47203207 2.901412249
-6.810675621 -6.443348408 3.190541744
-6.802757263 -6.458323956 3.496301889
-6.756140232 -5.951575279 0.3803655207
-7.038811684 -6.575971127 0.6055555344
-7.015980244 -6.553828239 0.8953582048
-6.993605614 -6.535763264 1.182553291
-6.959598541 -6.529780865 1.467647076
-6.933167458 -6.5026474 1.751747131
-6.936430454 -6.536303043 2.042788744
-6.916117191 -6.519223213 2.329988718
-6.892692566 -6.498964787 2.617684841
-6.868675709 -6.474214077 2.906275988
-6.841892719 -6.443690777 3.195440054
-6.830000401 -6.449793816 3.498823643
-6.783959866 -5.951663494 0.380454123
-7.064836502 -6.563688755 0.6069568992
-7.048369408 -6.558431149 0.8962420821
-7.030636787 -6.547019482 1.184213042
-6.994375229 -6.5399189 1.470050335
-6.964869976 -6.50315094 1.754252791
-6.964021206 -6.52769804 2.044641972
-6.944843769 -6.516613483 2.332802057
-6.923436642 -6.497505188 2.621275187
-6.898815155 -6.475097656 2.910637617
-6.874295235 -6.449787617 3.201780319
-6.857222557 -6.44116354 3.501343966
-6.823413372 -5.97258091 0.3783499897
-7.101654053 -6.577116489 0.6066241264
-7.076933384 -6.551467419 0.8974928856
-7.065202713 -6.55269146 1.185816884
-7.022001743 -6.531232357 1.471626043
-7.006836891 -6.525150776 1.758679509
-6.99114418 -6.521409035 2.046653509
-6.975726604 -6.515065193 2.33598423
-6.959200859 -6.506608486 2.62706995
-6.925348759 -6.464622974 2.912457228
-6.906429768 -6.451625824 3.207186937
-6.892460346 -6.449836731 3.509568691
-6.847333908 -5.961097717 0.3796372116
-7.132922173 -6.575387955 0.6073149443
-7.106363297 -6.546194077 0.8986942768
-7.098982334 -6.556413174 1.18740344
-7.051331997 -6.526051521 1.473381519
-7.041282177 -6.530752182 1.761674166
-7.022963524 -6.521576405 2.049652576
-7.00241375 -6.504453182 2.337673664
-6.995074749 -6.515548706 2.632870197
-6.95931673 -6.469955921 2.918197632
-6.934522152 -6.44455719 3.210077047
-6.924564362 -6.451402187 3.515515089
-6.882647991 -5.972753525 0.3784838021
-7.173007965 -6.591460228 0.6068264842
-7.142825127 -6.555174351 0.8995093107
-7.13020134 -6.554596901 1.188928723
-7.088486195 -6.536947727 1.475955606
-7.069757938 -6.523625851 1.763548374
-7.059122086 -6.5305686 2.053803682
-7.035028934 -6.506238461 2.341454744
-7.027673244 -6.51722765 2.637203932
-6.990019321 -6.468085766 2.922197104
-6.961778641 -6.435633183 3.212462425
-6.95835495 -6.45629549 3.522606373
-6.910996437 -5.96998167 0.378834039
-7.204396725 -6.589447498 0.6075227261
-7.175853729 -6.556819439 0.9005212188
-7.15969038 -6.549060822 1.190411925
-7.11788559 -6.531509399 1.477713823
-7.099971771 -6.519978046 1.765743971
-7.088467598 -6.525089264 2.056117296
-7.067703724 -6.507882595 2.345238447
-7.05692482 -6.511678219 2.640067101
-7.027488232 -6.480174541 2.929690361
-6.992345333 -6.433598042 3.216863871
-6.988937855 -6.454115868 3.527415037
-6.928668499 -5.945728302 0.3814277947
-7.239385128 -6.594450951 0.6077510715
-7.213392735 -6.567274094 0.9012976885
-7.196282864 -6.557747841 1.192071438
-7.147294044 -6.525952816 1.479472041
-7.139837265 -6.535906792 1.769713402
-7.116951466 -6.517707348 2.058200121
-7.098697662 -6.505835056 2.348424911
-7.089612484 -6.513090611 2.644404411
-7.058296204 -6.478029728 2.933694363
-7.027135849 -6.440156937 3.223790169
-7.017889977 -6.448353767 3.5310812
-6.953395844 -5.935652733 0.3825218379
-7.272654533 -6.59573698 0.608217001
-7.240291119 -6.556112766 0.9026476145
-7.22136116 -6.543012619 1.19344461
-7.174934387 -6.516701698 1.4810462
-7.174568653 -6.54091835 1.772721529
-7.148935795 -6.517347813 2.061206102
-7.135822773 -6.516085148 2.353713751
-7.12752676 -6.524960518 2.650957584
-7.083162308 -6.463470459 2.934639215
-7.058634281 -6.439594746 3.228700399
-7.05018425 -6.449378967 3.537035704
-6.975375175 -5.920168877 0.3841722012
-7.315019131 -6.614682674 0.6075186729
-7.27437067 -6.559128284 0.9036191702
-7.267094612 -6.569262028 1.195338488
-7.207906723 -6.518072605 1.483172178
-7.204047203 -6.535072327 1.774762034
-7.183604717 -6.522194862 2.064907551
-7.15816021 -6.496034145 2.353900194
-7.163835526 -6.533127785 2.656779051
-7.115712643 -6.464594841 2.93951869
-7.092729092 -6.444116116 3.235128641
-7.090919495 -6.467496395 3.548717499
-6.996384621 -5.902839661 0.3860047162
-7.344821453 -6.608544827 0.6084582806
-7.304888725 -6.554871082 0.9047806859
-7.289476395 -6.548939705 1.196642518
-7.243639946 -6.524653912 1.485579014
-7.231735229 -6.525549412 1.776477337
-7.223695278 -6.537544727 2.070003271
-7.192759037 -6.50068903 2.358292341
-7.194993973 -6.530569077 2.660387754
-7.150910378 -6.470827103 2.945714235
-7.120047569 -6.434602737 3.237515211
-7.121685028 -6.464775562 3.553534031
-7.053052902 -5.954399109 0.3805957139
-7.372786999 -6.598744869 0.6096292138
-7.343655586 -6.566492081 0.905525744
-7.319069386 -6.542784214 1.198128939
-7.280365467 -6.532855511 1.488083005
-7.26751852 -6.531923294 1.779654741
-7.257666111 -6.540292263 2.073482275
-7.230994701 -6.512252331 2.363892794
-7.220885754 -6.517344952 2.661777735
-7.189689159 -6.483881474 2.953666687
-7.150788784 -6.431921959 3.241923571
-7.155883789 -6.4687953 3.560644627
-7.091673374 -5.970350266 0.3789125085
-7.399815559 -6.587067604 0.6109144688
-7.377023697 -6.56728363 0.9065530896
-7.35050106 -6.540067196 1.199662328
-7.309902668 -6.526668549 1.489845753
-7.299754143 -6.531041145 1.782184482
-7.285393715 -6.530500889 2.075338364
-7.271143913 -6.527166367 2.370102406
-7.252062798 -6.514549255 2.665386677
-7.217183113 -6.474102974 2.955925226
-7.190247536 -6.446398258 3.251396418
-7.181576729 -6.455531597 3.562023401
-7.098870754 -5.926221848 0.3835235834
-7.435163021 -6.591202736 0.6111590862
-7.410444736 -6.567933083 0.9075827599
-7.38751173 -6.547857761 1.20134151
-7.335770607 -6.513267994 1.491233587
-7.330210686 -6.526478291 1.784389615
-7.320361614 -6.534739017 2.079053879
-7.297924042 -6.515491009 2.371792555
-7.286837101 -6.518627644 2.670478582
-7.243769646 -6.462481976 2.957742691
-7.228101254 -6.457235336 3.259863377
-7.21413517 -6.455857277 3.567989826
-7.105799675 -5.882125854 0.3881198764
-7.466850758 -6.588123322 0.611867547
-7.434576035 -6.550760269 0.9090675712
-7.427422523 -6.560788155 1.203099251
-7.378224373 -6.531659126 1.494309783
-7.366199493 -6.532400131 1.787576675
-7.35448885 -6.537062168 2.082540035
-7.32558012 -6.505473614 2.373782635
-7.319891453 -6.519057274 2.674832344
-7.278339863 -6.466388226 2.96351099
-7.258155823 -6.452390671 3.263773918
-7.249347687 -6.461167812 3.575680733
-7.136931419 -5.883698463 0.3879113495
-7.496682167 -6.581389904 0.6128063202
-7.468034267 -6.551159382 0.9100983143
-7.456214428 -6.552335262 1.204566121
-7.413410664 -6.535701752 1.496640563
-7.393013477 -6.520512104 1.789128542
-7.389599323 -6.540996075 2.086262226
-7.362344742 -6.512887955 2.378795624
-7.3548069 -6.522832394 2.679930687
-7.31567049 -6.475341797 2.97060132
-7.283790588 -6.438826084 3.265148163
-7.288145542 -6.473134041 3.585673094
-7.171905518 -5.892143726 0.3869696259
-7.534087181 -6.588605881 0.612829566
-7.501542568 -6.55141449 0.9111312032
-7.488773346 -6.550821304 1.20613265
-7.446798801 -6.536057472 1.498785496
-7.423524857 -6.515573502 1.791335225
-7.422932625 -6.541261196 2.089520693
-7.397373676 -6.516633034 2.383207798
-7.37885046 -6.505563736 2.68057394
-7.348600864 -6.475470543 2.975497961
-7.317407131 -6.440620422 3.271087885
-7.315619469 -6.462802887 3.588200331
-7.214610577 -5.914415359 0.3845644295
-7.562059402 -6.578104973 0.6139979959
-7.53986454 -6.560316086 0.9119448662
-7.527066708 -6.559731483 1.207853079
-7.479297161 -6.534506798 1.500837922
-7.461552143 -6.524581909 1.794858575
-7.448859215 -6.527349949 2.090909719
-7.43339777 -6.521969318 2.38792634
-7.411083698 -6.503857136 2.684559584
-7.379759312 -6.472007275 2.979515791
-7.352883816 -6.445691586 3.278046131
-7.348390102 -6.462557793 3.594176531
-7.268066883 -5.95567131 0.3801535666
-7.593843937 -6.574505329 0.6147096753
-7.572547913 -6.558511257 0.9130278826
-7.559737682 -6.557924747 1.209424615
-7.507089138 -6.524029732 1.502415299
-7.499693871 -6.533411503 1.798387647
-7.482244968 -6.527352333 2.094170094
-7.463920593 -6.516681194 2.390828609
-7.443351746 -6.502013206 2.688546658
-7.409116268 -6.464966774 2.982653856
-7.389341831 -6.452316284 3.285516262
-7.381210327 -6.462169647 3.6001544
-7.289995193 -5.939154148 0.3817967474
-7.629517078 -6.577764988 0.6149688363
-7.605264187 -6.556571007 0.9141122103
-7.594368935 -6.559485435 1.211049676
-7.544403076 -6.530997276 1.504946947
-7.534139633 -6.535058498 1.801260948
-7.517565727 -6.530707359 2.097901821
-7.489765644 -6.502569199 2.392212391
-7.480309486 -6.508686543 2.694397926
-7.442154884 -6.464689732 2.987554789
-7.439557552 -6.484366417 3.300620079
-7.414971828 -6.46333313 3.606709957
-7.308942318 -5.917348862 0.3839836419
-7.663320065 -6.577378273 0.6154574752
-7.636077881 -6.550993443 0.9152848125
-7.63583231 -6.573148251 1.212862134
-7.580857277 -6.536041737 1.507387638
-7.559079647 -6.519069195 1.802481294
-7.552961826 -6.533902168 2.101636887
-7.522161484 -6.500527859 2.395721197
-7.515491486 -6.511734962 2.699508429
-7.478013039 -6.469424248 2.993780851
-7.458888531 -6.458240032 3.29843545
-7.452414036 -6.471097469 3.615572453
-7.360033035 -5.952762604 0.380148679
-7.704985619 -6.590777397 0.6150462031
-7.675684929 -6.561000347 0.9160699844
-7.652111053 -6.541200638 1.213986635
-7.61545372 -6.537428379 1.509639382
-7.594551086 -6.522191048 1.805522799
-7.585552692 -6.531722546 2.104669094
-7.559350014 -6.507013321 2.400753736
-7.548855305 -6.51117897 2.703875303
-7.520488262 -6.485983849 3.00310111
-7.488228798 -6.450771332 3.301844358
-7.48722744 -6.473633289 3.622710943
-7.369132042 -5.913428783 0.3841536045
-7.727127552 -6.569218159 0.6168902516
-7.71345377 -6.567334652 0.9169468284
-7.695669174 -6.558035851 1.215859413
-7.642331123 -6.524703503 1.511121392
-7.62912178 -6.523414612 1.808401227
-7.619148254 -6.53113842 2.107938766
-7.593761444 -6.50813818 2.404876471
-7.580373287 -6.507035732 2.707497597
-7.556555748 -6.490367413 3.009337187
-7.526852608 -6.460150242 3.310348272
-7.511098862 -6.455841541 3.622931957
-7.384930134 -5.886212826 0.3868745267
-7.764996529 -6.575350285 0.6169347763
-7.747362137 -6.566542625 0.9179976583
-7.731505871 -6.56073904 1.217521667
-7.670149326 -6.513623238 1.512697816
-7.665705204 -6.527962685 1.811615705
-7.64988327 -6.525207996 2.110502481
-7.63304472 -6.517743587 2.410527229
-7.617630005 -6.513070107 2.713362932
-7.58609581 -6.482638836 3.012482643
-7.56558466 -6.469350338 3.318857431
-7.545975685 -6.458105087 3.630073071
-7.418501377 -5.890021801 0.3863232732
-8.547671318 -7.876079559 0.5333897471
-7.781312943 -6.565608025 0.9190502763
-7.754508018 -6.540714264 1.218826771
-7.705820084 -6.516341209 1.515049934
-7.701388836 -6.5306077 1.814667106
-7.690373421 -6.536457062 2.115428686
