# .PCD v0.7 - Point Cloud Data file format
VERSION 0.7
FIELDS x y z
SIZE 4 4 4
TYPE F F F
COUNT 1 1 1
WIDTH 1304
HEIGHT 1
VIEWPOINT 0 0 0 1 0 0 0
POINTS 1304
DATA ascii
37.2573967 3.841158152 3.501154423
59.92787552 6.780883789 7.278383255
59.9577713 6.828180313 9.425388336
59.90960693 6.866137028 11.58237171
59.90491867 6.910515308 13.77286434
49.06703949 5.092520714 0.9077816606
36.72795105 3.611112833 2.169704676
37.50702286 3.74017787 3.522109032
59.93512726 6.559135914 7.282869816
59.99057388 6.609605312 9.432863235
59.91170883 6.654537678 11.58445168
59.93038177 6.701975822 13.77916718
37.45722961 3.541591406 0.8832575083
36.76118088 3.485129595 2.174253225
37.14044571 3.563457966 3.498167992
52.69924927 5.472031116 6.50188303
52.68279266 5.508393764 8.382138252
52.62228012 5.549229145 10.27241993
52.62566376 5.589301109 12.19650364
52.6035614 5.62709856 14.1438427
49.07585144 4.746389389 0.9180607796
37.00243759 3.383109808 2.186694384
37.27635956 3.448078632 3.510919571
52.71263885 5.287425518 6.50658989
52.69220734 5.32345438 8.385998726
52.63950729 5.365502834 10.27726841
52.62343979 5.403312683 12.19700336
52.62069321 5.443641186 14.1484108
49.09127045 4.574693203 0.9232423902
36.96537018 3.248259306 2.188650608
37.57121277 3.343166351 3.535499811
52.7214241 5.102377415 6.510874748
52.68917084 5.137171268 8.388162613
52.65710449 5.172590733 10.28240108
52.63127136 5.209412098 12.19989109
52.61791992 5.257833481 14.14809799
49.09706497 4.393344402 0.9286629558
36.88211441 3.108732224 2.188867092
49.04653168 4.466754913 4.378614426
52.73845291 4.909000874 6.516305447
52.70119858 4.952780247 8.39260006
52.65736771 4.987023354 10.28444386
52.66072845 5.027291775 12.20756435
52.6260643 5.073431492 14.15072632
49.09046173 4.228092194 0.9335401058
37.25945282 3.018388987 2.20663023
49.0606041 4.295322895 4.383523941
52.73704529 4.732319355 6.51946497
52.71259308 4.768326283 8.397047997
52.65994644 4.811114788 10.28691864
52.66723251 4.851893902 12.21033287
52.63355637 4.889066696 14.15335941
49.08615494 4.054582119 0.9386872649
37.10771942 2.871642828 2.204286575
49.0791626 4.133019924 4.388617039
52.73201752 4.546062469 6.522481441
52.73908997 4.585525513 8.403777122
52.67263031 4.627161026 10.29144287
52.67016983 4.666937828 12.21254253
52.6461792 4.705307484 14.15746975
49.11109161 3.884121656 0.9439319968
49.10217667 3.918478251 2.666780472
49.09404755 3.961747408 4.393687248
52.75403214 4.362671852 6.528515816
52.73738098 4.399809361 8.406535149
52.69839096 4.444525719 10.29845047
52.67246246 4.482001781 12.21475983
52.65623093 4.521352768 14.16109753
49.13145447 3.713126659 0.9491753578
49.10654831 3.746101618 2.671550035
49.08450699 3.788107157 4.397014618
52.77737808 4.179406643 6.534774303
52.73107147 4.213786125 8.408727646
52.7019577 4.259689331 10.30157852
52.68188477 4.297881126 12.21866989
52.66756821 4.337583065 14.16522217
49.13329315 3.540450335 0.9543664455
49.12225723 3.574817181 2.676785231
49.10017776 3.616967916 4.402245522
52.78821564 3.994914532 6.539751053
52.75958633 4.031211376 8.416053772
52.71075821 4.075418949 10.30577374
52.71012115 4.115633488 12.22681141
52.67247391 4.153213978 14.16788483
49.14324188 3.359915257 0.959854126
49.14805984 3.395806074 2.682673931
49.11200714 3.436887503 4.40745306
52.78532791 3.799998522 6.543503761
52.76853561 3.837508917 8.42082119
52.70597458 3.880750656 10.30777931
52.72293472 3.922622204 12.23186588
52.68716049 3.960623741 14.17328739
49.15779495 3.188461542 0.9651076794
49.15856934 3.224045992 2.687773466
49.12644196 3.265677929 4.412700176
52.79285431 3.615354538 6.548277378
52.78390884 3.65370059 8.426455498
52.71932983 3.697038174 10.31305218
52.72065353 3.737580299 12.2336874
52.70425797 3.777472258 14.17939949
49.16576385 3.016457558 0.9703481197
33.44652557 1.793746233 2.083492994
49.13233566 3.09375 4.417368889
52.73036957 3.425046206 6.54548502
52.68349457 3.469538927 8.415250778
52.64181519 3.50575757 10.30202484
52.63787079 3.545861006 12.21817112
52.61762238 3.594699621 14.15921974
49.17446899 2.853176594 0.9753395319
24.58058739 0.9929266572 1.742355227
49.15353012 2.923067331 4.423220634
52.82112122 3.256573439 6.559295654
52.78046036 3.29259038 8.432896614
52.75127411 3.33936286 10.32475758
52.7290535 3.378121614 12.24044895
52.70881271 3.417956114 14.18449402
49.17926788 2.681059599 0.980584383
24.61086082 0.9089524746 1.745923996
49.13373184 2.757915258 4.425872803
52.83863831 3.072784424 6.565392971
52.8097229 3.10994339 8.440841675
52.75095749 3.154610872 10.32792568
52.74240112 3.194604397 12.24609756
52.72788239 3.235016108 14.1916132
49.17748642 2.508492947 0.9858129025
33.0378685 1.413254976 2.077295065
33.281147 1.46047616 3.254982233
52.8356781 2.887524128 6.569329739
52.82255173 2.925971031 8.446510315
52.75588989 2.970341682 10.33216572
52.75901413 3.011306524 12.25260258
52.7385788 3.051460981 14.19677353
49.1950531 2.337296247 0.9911291003
33.08947754 1.300945282 2.082565784
24.17466354 0.7293841243 2.582030773
52.8400116 2.702847958 6.574141026
52.83473969 2.742005587 8.452185631
52.77588272 2.787207603 10.33925343
52.7515831 2.826334715 12.25402927
52.74864197 2.8678267 14.20194626
49.21002579 2.165918112 0.9964454174
24.10559082 0.6184262633 1.733365417
24.14617157 0.6429473162 2.582118511
52.85757828 2.519083738 6.580481052
52.83443832 2.557173014 8.456152916
52.78737259 2.603429556 10.3449316
52.74739838 2.641669273 12.25631046
52.75806427 2.684190989 14.20712376
49.22240067 1.994333506 1.001762509
25.47092056 0.6198558211 1.789342523
24.14723587 0.5585231781 2.584425449
52.87648773 2.335410357 6.5870471
52.8290062 2.381338596 8.459265709
52.80215836 2.419911385 10.3513279
52.78549194 2.459807873 12.26793003
52.77211761 2.510082006 14.21350288
49.22372055 1.830756664 1.00677681
25.49990654 0.5323783755 1.793036461
24.42080688 0.4896559417 2.607060432
52.88036728 2.160005808 6.591814041
52.85510254 2.198231459 8.467262268
52.79027176 2.243951082 10.35282135
52.81465149 2.286439419 12.27758026
52.77255249 2.325881481 14.21672916
49.23292542 1.659032464 1.012099266
24.25336075 0.3774324656 1.74633038
52.89008713 1.975718975 6.597527981
52.87659836 2.014811516 8.474692345
52.80183029 2.060237169 10.35887814
52.80076981 2.101325035 12.27818489
52.78781509 2.142606735 14.22390175
24.76859283 0.2997998595 0.9032049775
24.24759293 0.2923641205 1.748559833
24.24804688 0.3145480156 2.598671436
52.89519501 1.791223645 6.60281229
52.88561249 1.830614328 8.480410576
52.82258224 1.877019882 10.36672497
52.82527542 1.918375731 12.28729057
52.80244064 1.95928514 14.23108387
49.26153564 1.315987468 1.022825837
24.28743935 0.2094519436 1.752615333
24.57867813 0.2452628464 2.625733614
52.91156769 1.607290149 6.609415054
52.89002228 1.64622128 8.485562325
52.83916473 1.684275627 10.37415504
52.81010056 1.733364224 12.28790569
52.81449127 1.775770545 14.23778248
49.27129745 1.135625124 1.028449774
24.33915329 0.1225277856 1.757292151
24.75785065 0.1628442109 2.641664505
52.9515152 1.41507113 6.618940353
52.90008926 1.452856064 8.491871834
52.85896301 1.491645217 10.38230896
52.81612015 1.540271401 12.29348946
52.82432938 1.582948565 14.24428177
53.3074913 1.10698843 1.05422461
24.32266235 0.03263032436 1.759271502
24.16351128 0.04870585352 2.599653959
53.27480698 1.233979583 6.65979147
53.28912354 1.274958968 8.55352211
53.23950958 1.323202372 10.45588684
53.21191406 1.363791466 12.38418102
53.20330429 1.406129956 14.34503555
53.40809631 0.9242122769 1.060506582
24.01011467 -0.06320978701 1.749278784
24.1864109 -0.03481889516 2.603778601
53.28525162 1.04849577 6.666022301
53.31135559 1.089945316 8.561621666
53.22621536 1.137092948 10.45809937
53.22602463 1.178913593 12.39166451
53.21146774 1.221105576 14.35130882
53.42410278 0.7382062078 1.066378117
24.05860138 -0.1412965506 1.753607988
24.19706154 -0.1188680381 2.607012033
53.32476425 0.9138194919 8.568286896
53.26734161 0.9529919028 10.47032547
53.21606445 0.9931260347 12.39404678
53.22454071 1.045515776 14.35878086
24.2387886 -0.2202014029 1.763389349
24.41076088 -0.1971214265 2.625561237
53.32200623 0.7278270125 8.572943687
53.28201675 0.7771244049 10.4776268
53.24307251 0.8608421087 14.36803246
53.45595551 0.3752730489 1.077871203
24.31283188 -0.3029514253 1.768939137
24.42871857 -0.2775470614 2.629295111
53.32650757 0.5420870781 8.578762054
53.28844452 0.5916796923 10.48379517
53.22996902 0.6750893593 14.36938953
53.47605515 0.1891240478 1.083805919
24.49847412 -0.3838549256 1.779036403
53.31152725 0.2655542791 4.812590599
53.35212326 0.3568967879 8.587768555
53.28063965 0.396569252 10.48775768
53.24140167 0.4901034236 14.37717724
53.47565842 -0.00684128236 1.089932799
53.35578156 0.04039396346 2.95257473
53.31682587 0.07974145561 4.818576336
53.35335541 0.1710151583 8.593315125
53.28377533 0.211076811 10.49358368
53.25606537 0.3051644266 14.38596344
53.40630722 -0.1850478798 1.095089197
53.34451294 -0.1458803862 2.957854986
53.34540558 -0.1057124212 4.826381683
53.34221268 -0.05598475412 6.704182148
53.36382675 -0.01467293873 8.600317001
53.28222275 0.03478095308 10.49840832
53.28141403 0.07708312571 12.43305874
53.27395248 0.120184347 14.39575005
53.39044189 -0.3715007603 1.100845456
53.3564949 -0.3225064874 2.963824749
53.37524796 -0.2820303738 4.834058285
53.3521347 -0.2417664379 6.710916042
53.3735733 -0.191154629 8.607035637
53.31163788 -0.1503514796 10.50927162
53.29104233 -0.1082418859 12.44060707
53.2872467 -0.05567765981 14.4042654
5.243303299 -0.8870666027 0.4528434873
53.39987946 -0.5484027863 1.106468558
53.34996033 -0.5086411834 2.969361305
53.35071945 -0.4683082402 4.837954044
53.36533737 -0.4182764292 6.71780777
53.37486649 -0.3770422041 8.612894058
53.34823227 -0.3263111115 10.52129269
53.30387878 -0.2842819095 12.44872475
53.29225159 -0.240987286 14.41109943
5.231385708 -0.9062790275 0.4542134106
53.40877914 -0.7439665198 1.112687588
53.28084946 -0.7042281032 2.972655535
53.36342239 -0.6542334557 4.844732285
53.37997818 -0.6134302616 6.725516319
53.39134979 -0.5721554756 8.621378899
53.35279465 -0.5212917328 10.52816677
53.33178711 -0.4788568616 12.46086216
53.2946701 -0.435638994 14.41773987
5.221394539 -0.9254100919 0.4554543197
5.265808105 -0.920707047 0.6367894411
53.42496872 -0.9303033948 1.118672252
53.36490631 -0.8899932504 2.981976032
53.37147903 -0.8495227695 4.851509571
53.36609268 -0.7994379997 6.729843616
53.41110611 -0.758047998 8.630159378
53.34876633 -0.7163291574 10.53361034
53.35116196 -0.6736654639 12.47129917
53.32935333 -0.6208358407 14.43252468
5.209342003 -0.9435423017 0.4567916393
53.43246841 -1.126013875 1.124911547
53.38835144 -1.076172352 2.98885107
53.41077423 -1.035647392 4.860435486
53.37138748 -0.9947024584 6.736685753
53.42625046 -0.9440748692 8.638371468
53.36375427 -0.9020760655 10.54236507
53.35034943 -0.8593186736 12.47717476
53.33043671 -0.8063581586 14.43889141
5.219189167 -0.9609336257 0.4567064345
53.44739532 -1.303222656 1.130622149
53.39917374 -1.262408853 2.995242357
53.40155792 -1.221785426 4.865724087
53.37811279 -1.171394706 6.743168354
53.42886734 -1.130182981 8.644848824
53.37818146 -1.07861197 10.55083656
53.35678864 -1.035705566 12.48447704
53.35025406 -0.9918969274 14.45022869
5.238946438 -0.9794509411 0.4560213089
53.46163559 -1.48985827 1.136638403
24.44572449 -1.152238369 1.800979018
53.38780975 -1.398520947 4.870416641
53.40998077 -1.357653499 6.752840519
53.43083954 -1.316311717 8.651333809
53.39583206 -1.264567614 10.5603323
53.35274887 -1.221390009 12.48993969
53.35585785 -1.177531838 14.45810318
53.47121429 -1.676488519 1.142637014
24.01700211 -1.231618285 1.785911918
53.39926147 -1.584776759 4.877394199
53.41138077 -1.543807507 6.759194374
53.4479866 -1.502612829 8.660158157
53.39316559 -1.450473547 10.5662365
53.37346649 -1.407266974 12.50098133
53.35694504 -1.363179564 14.46499348
53.45615387 -1.862812638 1.148485184
23.9136982 -1.313605666 1.784326792
53.42202377 -1.771314621 4.885299206
53.40418625 -1.729830623 6.76466608
53.46448135 -1.689066529 8.668994904
53.38967133 -1.645637393 10.57244301
53.38376617 -1.593194246 12.50989151
53.37868881 -1.549049854 14.47735405
53.472229 -2.059029102 1.154853225
23.87795258 -1.400457144 1.785694122
53.45788574 -1.967612863 4.894585609
53.41997528 -1.925596237 6.773112774
53.48802567 -1.885077715 8.679305077
53.40512085 -1.841133118 10.58226299
53.37561035 -1.78817749 12.51524448
53.39955521 -1.744445443 14.49002552
53.46158981 -2.254768133 1.161053538
24.06573677 -1.488335967 1.796301723
24.27150917 -1.474718213 2.65529418
53.44299316 -2.121647835 6.782462597
53.47944641 -2.071289778 8.684659004
53.4279747 -2.027647972 10.59324455
53.3865242 -1.974247098 12.52460194
53.40833664 -1.930417418 14.4994278
53.49875259 -2.433122635 1.167003512
23.90974808 -1.563792706 1.792381763
24.06795311 -1.549664021 2.64234376
53.44995117 -2.298865557 6.789446354
53.48236084 -2.248419762 8.691476822
53.45438766 -2.205128908 10.60466385
53.40488052 -2.151274443 12.53539085
53.40513992 -2.106963158 14.50556183
53.45736694 -2.609248877 1.17240715
23.89919281 -1.646920204 1.79470861
23.95187187 -1.625930667 2.63612175
53.48810577 -2.47705555 6.800012112
53.50217438 -2.435408831 8.701231003
53.45268631 -2.382012367 10.61103725
53.42038345 -2.337680817 12.5460577
53.40490723 -2.292892694 14.51299191
53.51100159 -2.797832251 1.178808808
23.77052879 -1.725886822 1.792057514
24.02472687 -1.711950779 2.644645452
53.47963333 -2.663334846 6.80575037
53.51342392 -2.622324467 8.709827423
53.45004272 -2.568231583 10.61771393
53.45475006 -2.524832726 12.56103706
53.42145157 -2.479328871 14.52491283
53.4920311 -2.984035969 1.184697151
23.66955376 -1.805043697 1.790566206
23.66685677 -1.782497287 2.619867563
53.4824295 -2.850035429 6.812837601
53.52599335 -2.809385538 8.718727112
53.47034454 -2.755245924 10.62874031
53.45137405 -2.71096468 12.56785679
53.43153381 -2.665710688 14.53534985
24.39737129 -1.936847568 0.9714679122
23.74201393 -1.890739679 1.79643631
23.67738533 -1.865548372 2.623593807
53.49053192 -3.037017584 6.820605755
53.52605057 -2.996119738 8.725879669
53.47032547 -2.941700697 10.6361599
53.44343948 -2.896976948 12.57382393
53.45257568 -2.85261035 14.54878712
53.55602264 -3.360856295 1.197279096
23.76026917 -1.974508286 1.800029397
24.1557579 -1.969380856 2.663684845
53.49201965 -3.223797798 6.827710152
53.53730774 -3.183358431 8.734799385
53.49324417 -3.129137754 10.64793301
53.4660759 -3.084209681 12.58668804
53.44779587 -3.03870225 14.55575657
53.55905533 -3.548247576 1.203375816
23.6345253 -2.051439762 1.797490478
24.07400131 -2.049874783 2.660348654
53.51271057 -3.411570787 6.837068081
53.53605652 -3.370158672 8.741968155
53.48799515 -3.315546274 10.65464687
53.47634888 -3.271108866 12.59697819
53.46172714 -3.225630522 14.56772232
53.56542969 -3.735924482 1.209513664
23.59833145 -2.132165432 1.798773885
24.10748291 -2.135711432 2.665997267
53.5109024 -3.598369122 6.843966961
53.54995346 -3.557789326 8.751497269
53.48158646 -3.51123333 10.66166592
53.48987198 -3.458322287 12.60814476
53.48272705 -3.413025379 14.5816927
53.59657288 -3.934464693 1.216169357
23.68332863 -2.223585844 1.805416584
53.54492188 -3.838721037 4.966855526
53.50989151 -3.794692278 6.851401329
53.59030533 -3.756324768 8.765454292
53.5019455 -3.708352089 10.67377472
53.49243164 -3.65444541 12.61746407
53.49091721 -3.609340668 14.59298325
54.88265991 -4.208958626 1.233033776
23.73206711 -2.313487291 1.810535312
57.45864868 -4.264386177 5.280085564
57.44041061 -4.218001842 7.30501318
57.4693718 -4.173777103 9.351578712
57.41811371 -4.114330769 11.40608501
57.40582275 -4.066230297 13.49248505
57.39883804 -4.017436028 15.61163044
54.03246689 -4.346931934 1.232317567
23.85052681 -2.404024601 1.818552971
57.47592545 -4.466483116 5.288892746
57.44364166 -4.419102669 7.313282013
57.48035431 -4.375357628 9.361580849
57.43679047 -4.316087246 11.4183588
57.42616653 -4.267938137 13.50628185
57.40725327 -4.218294144 15.62357903
53.98814774 -4.53326273 1.238146663
24.11446571 -2.500864983 1.832773685
57.46264267 -4.666814327 5.295372963
57.44815445 -4.620341778 7.32178545
57.50908661 -4.568179607 9.373923302
57.43514252 -4.516727448 11.42700863
57.44454956 -4.459712982 13.51933765
57.41372299 -4.4091506 15.63471699
54.01366806 -4.714821815 1.244259238
30.89809227 -3.05345726 2.130413055
57.50507736 -4.86089325 5.305910587
57.46456528 -4.812513351 7.331330776
57.52138138 -4.760146618 9.38392067
57.44528198 -4.708238125 11.43752766
57.46619415 -4.651879311 13.53326797
57.43115234 -4.60086441 15.6488657
54.10440063 -4.901479721 1.25094986
30.38248444 -3.118731499 2.111586332
57.50707626 -5.052451611 5.313335896
57.46844864 -5.003959656 7.339531422
57.53105927 -4.952125549 9.393634796
57.46654892 -4.900650978 11.45024109
57.46964645 -4.843055725 13.54332161
57.4382782 -4.79205513 15.66052437
54.30416107 -5.097228527 1.258618474
30.31107521 -3.214509249 2.112067223
23.81853294 -2.700363159 2.66512394
57.48753738 -5.196688175 7.349551678
57.53219604 -5.143604755 9.402176857
57.4852066 -5.09313345 11.46260262
57.47245789 -5.034273148 13.55338383
57.2477417 -4.969367981 15.62114525
17.65951538 -2.388688326 0.3257664144
56.34197235 -5.48209095 1.283795476
25.28634262 -2.933185339 1.896156311
23.76517296 -2.792181253 2.66461587
57.50862885 -5.430128098 7.361567497
57.53334427 -5.375516415 9.412622452
57.49010086 -5.32506752 11.47445869
57.48495483 -5.266587734 13.56778622
56.88924789 -5.172837257 15.54046345
17.59877014 -2.442349434 0.3291252851
56.3882103 -5.674023151 1.290421247
25.1180706 -3.003451347 1.89179194
23.7526207 -2.870376587 2.666705132
24.91412926 -2.946712732 3.639079094
57.54884338 -5.568421364 9.423551559
57.49753571 -5.517054558 11.4850235
57.49024582 -5.458316326 13.57873631
56.84428787 -5.358524323 15.53906918
17.54555511 -2.499408484 0.3323668838
56.43976212 -5.866809845 1.297118902
25.03283691 -3.084251165 1.891222239
23.76563454 -2.950725555 2.670841217
24.94453621 -3.032373667 3.646076441
57.5825119 -5.773143291 9.437779427
57.49165726 -5.718167305 11.49373531
57.49983215 -5.660617352 13.5913229
56.83062363 -5.556529045 15.54651546
17.58939934 -2.568398476 0.3331790864
56.40122604 -6.071662903 1.303677559
24.92107201 -3.166492939 1.889635801
22.48487663 -2.923260212 2.572626829
22.7432518 -2.928244591 3.397407293
57.59479904 -5.98648262 9.449392319
57.51157761 -5.931703091 11.50789547
57.5135994 -5.873528004 13.6055479
17.70261002 -2.644586086 0.3322137594
56.42166519 -6.282022953 1.310792565
24.93834305 -3.260161161 1.893762469
22.56842613 -3.014098883 2.582577467
24.46066284 -3.171503782 3.598377228
24.65915298 -3.169858456 4.50037241
57.54732513 -6.136891842 11.52466679
57.51880264 -6.085907936 13.61805248
17.58707619 -2.695202827 0.3370375633
56.41443634 -6.4799757 1.317338705
22.64010048 -3.100441694 2.591473579
24.39492798 -3.251197577 3.594564915
57.59045029 -6.40093565 9.468172073
57.55493164 -6.339803219 11.53633785
57.52616882 -6.288597107 13.63067722
17.61886406 -2.757481337 0.3379832804
30.9746418 -4.073771954 1.082096457
29.98648834 -3.943410158 2.125251532
22.64201164 -3.180345297 2.594848871
57.60249329 -6.594549179 9.479161263
57.55400085 -6.542041779 11.54655743
57.53863907 -6.49197197 13.64461517
56.6117363 -6.888645649 1.332182288
22.85176277 -3.300290585 1.809966087
22.67536736 -3.263582945 2.600765228
23.18992233 -3.294329643 3.462953568
57.61083984 -6.798164368 9.490198135
57.55342865 -6.734326839 11.55645847
57.54370117 -6.684681416 13.65649891
56.53279877 -7.079748154 1.338098645
22.81533432 -3.376947403 1.811333299
23.88632202 -3.469697475 2.700877666
23.2799263 -3.385656595 3.477017879
23.69562912 -3.410580635 4.371092319
23.11155891 -3.325442076 5.116306305
57.53923416 -6.886694908 13.66698456
16.92932129 -2.864241123 0.3609059751
56.5227623 -7.278274536 1.344694614
22.82828712 -3.4589293 1.814929605
23.30435562 -3.489366055 2.657660961
23.24909782 -3.464352369 3.477169514
23.80233192 -3.50578475 4.391366482
57.58323669 -7.142951965 11.58354473
57.54958725 -7.090448856 13.68095875
17.01373863 -2.934220076 0.3605582416
56.80007172 -7.510316372 1.354171753
22.90446091 -3.548380613 1.821400166
23.13454247 -3.552204847 2.647435188
23.25156593 -3.546692848 3.481206894
57.64529037 -7.411276817 9.525461197
23.11267471 -3.488483667 5.125264168
57.58055115 -7.296695232 13.69973087
16.72678947 -2.959172249 0.3695085049
56.86993408 -7.71958828 1.361637712
22.87513542 -3.625874043 1.823132396
22.6933403 -3.581850767 2.61532855
23.30899239 -3.635561705 3.491658688
24.13441849 -3.712448597 4.450185299
23.21240616 -3.581560612 5.148462772
57.59525681 -7.501457214 13.71503735
16.88419342 -3.038358688 0.3673361242
58.10611343 -8.073497772 1.381050944
23.08154106 -3.732108831 1.835576177
22.52334785 -3.641440392 2.605002165
23.42131233 -3.731525421 3.508544207
24.05926514 -3.788715601 4.443112373
23.09701538 -3.649806023 5.131302357
57.59952927 -7.705287933 13.72818279
16.91237259 -3.101904869 0.3683975041
58.3643837 -8.312150955 1.390672445
23.07933998 -3.81358099 1.838594317
22.65588188 -3.737751484 2.619107485
23.36959457 -3.807956934 3.506421566
23.81704903 -3.843877077 4.410648823
23.20389175 -3.744534254 5.15599966
16.76988029 -3.14289856 0.3736753762
58.12393951 -8.487761497 1.395162463
23.11647797 -3.900201321 1.843426108
22.79789925 -3.836303234 2.634049177
23.28609657 -3.88003087 3.500617743
23.20201302 -3.850038767 4.32136488
22.91248322 -3.789889336 5.105736732
16.89274025 -3.21934557 0.3723998368
55.90874863 -8.397092819 1.378733277
23.24043083 -3.998737812 1.852262855
22.73593521 -3.908946514 2.632508993
23.46239662 -3.985744238 3.525137186
23.02452278 -3.909053326 4.298623562
22.94078445 -3.874693632 5.115733624
16.92815781 -3.284415245 0.3732880652
56.8569603 -8.72619915 1.395617485
23.28677368 -4.087614536 1.857585669
22.54534149 -3.963756323 2.620519876
23.26021385 -4.041697979 3.505530357
22.33340836 -3.897994041 4.197444916
22.89082146 -3.949355364 5.111020088
58.32235336 -9.135277748 1.418343902
23.48116684 -4.197668552 1.869761944
22.57973289 -4.048653603 2.626826048
23.34721756 -4.136344433 3.519733191
22.25779915 -3.96684885 4.190143108
24.07156372 -4.191933155 5.339045048
16.93494606 -3.406014204 0.3766347468
24.01041985 -4.376979828 1.050179958
23.41996765 -4.272415161 1.870195985
22.22108459 -4.077692509 2.601093769
23.54988289 -4.248137474 3.547561646
22.27988434 -4.049042702 4.197813034
23.34499359 -4.175535202 5.206592083
17.69911957 -3.582131863 0.3599227667
23.97833824 -4.457786083 1.052746058
23.3486557 -4.345296383 1.870161653
22.12485886 -4.142706394 2.596734285
23.2015934 -4.281188965 3.510833025
22.20968437 -4.11812067 4.191396236
23.99059868 -4.351323605 5.333922386
16.74920654 -3.498107672 0.3846089542
98.15658569 -15.80795193 1.884963393
23.08154297 -4.388204575 1.861021042
21.77610397 -4.169229031 2.571683168
23.79650688 -4.452599525 3.584894896
23.153368 -4.31333971 5.180270672
17.68008041 -3.705602646 0.3640390933
98.13154602 -16.1544857 1.896684885
22.8440361 -4.433871269 1.85320437
21.76575661 -4.249199867 2.574501276
23.08454895 -4.428686142 3.505351782
22.53001213 -4.3250103 4.249415874
23.15187454 -4.399703979 5.185307503
17.64013863 -3.765556574 0.3669080436
22.80319786 -4.513103485 1.854702473
21.78131866 -4.329375267 2.57930088
23.10452652 -4.518329144 3.512104988
23.77904129 -4.603852272 4.446361542
23.22257233 -4.493200779 5.203883171
17.73660088 -3.844773769 0.3664369583
97.26963043 -16.73373985 1.911441922
22.69173431 -4.576620102 1.852730513
22.56546211 -4.537483692 2.647665739
23.23858833 -4.622350693 3.532170057
23.48244476 -4.641560078 4.405508041
23.39900208 -4.608189583 5.242945671
17.72430229 -3.906311989 0.368555218
97.30046844 -17.08740997 1.923806071
22.66091919 -4.652789593 1.854542494
22.57079697 -4.615088463 2.651627302
21.6529026 -4.445962906 3.348898172
23.47471237 -4.724265099 4.409147739
23.55104637 -4.71224165 5.276974201
24.45788574 -5.037917137 1.942685604
22.40220642 -4.667626381 2.641411304
21.72437096 -4.535477161 3.36140728
23.74363518 -4.853060246 4.455575466
23.51772308 -4.791001797 5.27602005
18.56147003 -4.181624889 0.3525825143
23.25606537 -4.918160439 1.889308095
22.50463867 -4.765590191 2.653641462
21.69365883 -4.608127594 3.361854553
23.7351532 -4.936715126 4.459253311
23.33298111 -4.84403038 5.246179104
18.56767273 -4.249574661 0.3543452919
23.49756432 -5.044310093 1.904184699
22.35730362 -4.820598602 2.645181894
22.72920227 -4.866648674 3.489057779
23.81987381 -5.036588669 4.4774189
23.29341316 -4.920893669 5.244090557
18.54413033 -4.312173843 0.3567985594
23.50840759 -5.13080883 1.908156991
22.31778336 -4.893942356 2.645678043
22.75405121 -4.952760696 3.496375799
23.89055252 -5.134699821 4.493495464
23.4200592 -5.026825428 5.273882866
97.46685028 -18.86747551 1.986418962
98.29652405 -18.93824768 5.48756361
22.30279732 -4.975585938 2.64842701
23.57987404 -5.184651852 3.599252701
22.47836304 -4.965359211 4.27931118
23.33463478 -5.099891663 5.263409138
98.30039215 -19.39364243 2.009636402
24.0742569 -5.410531521 1.942450047
22.2823658 -5.052206039 2.650555372
23.04418945 -5.174554825 3.540106535
22.49986076 -5.054350853 4.287828445
23.27103424 -5.172213078 5.256866455
98.27835846 -19.7447319 2.021747351
98.32094574 -19.6703701 5.518800735
22.52408028 -5.178556442 2.67466855
22.87074471 -5.224937916 3.523901463
22.50816917 -5.137064457 4.294104576
97.56419373 -19.9608345 2.025108337
98.34790802 -20.01350403 5.534156322
22.54208755 -5.263456345 2.680113077
22.99370384 -5.331274033 3.543189287
22.44121742 -5.201459408 4.288442612
98.38935852 -20.36008072 5.55029583
22.60162163 -5.352711201 2.688889265
98.31547546 -20.17837906 12.58858109
22.29065323 -5.249197006 4.269736767
98.38303375 -20.71562576 5.564953327
23.52268791 -5.615086555 2.770330429
98.35108948 -20.5239048 12.61177731
98.68811035 -20.50586891 16.22667885
96.87281036 -20.86284828 2.052680254
98.45013428 -21.10462189 5.584028721
23.65736008 -5.732246399 2.786117077
98.36476898 -20.90139198 12.63452625
24.33328819 -5.828325748 4.600262165
98.40619659 -21.47144127 5.597791195
23.69001198 -5.829349518 2.79335165
98.38090515 -21.27999687 12.65777016
24.30302429 -5.914868832 4.60145998
98.44664764 -21.83851242 5.615008354
23.81870461 -5.942832947 2.808566332
98.36619568 -21.63493919 12.6764679
24.31398582 -6.005569935 4.608897686
98.46805573 -22.28619766 2.112067938
98.4857254 -22.20616913 5.632258892
23.82608223 -6.031266689 2.813544989
98.38517761 -21.99747849 12.69941521
98.74055481 -21.98755455 16.32956696
98.4942627 -22.6519413 2.125145674
98.45903778 -22.5601902 5.646365166
23.8506546 -6.123649597 2.820023775
98.42610168 -22.36553192 12.72521687
98.74580383 -22.34892845 16.35407639
98.50739288 -23.01554489 2.138093472
98.49931335 -22.92949295 5.663864136
23.93128586 -6.228835583 2.831332684
98.47533417 -22.73622704 12.75222588
98.74972534 -22.71060562 16.3786068
98.51137543 -23.37772942 2.150959969
98.5187149 -23.29496384 5.680429935
98.51661682 -23.19160461 9.21932888
98.46505737 -23.09448242 12.77219868
98.79090881 -23.08114052 16.4092598
98.54521942 -23.74738884 2.164284468
98.53679657 -23.66074562 5.697021484
98.50726318 -23.55088806 9.237066269
98.46894836 -23.45648003 12.79407978
98.81911469 -23.44968987 16.43811798
98.55819702 -24.11302185 2.177368164
98.55348206 -24.0270195 5.713643074
98.54703522 -23.92220879 9.259163857
98.48313904 -23.82138252 12.81740093
98.82863617 -23.81464005 16.46425629
98.58538818 -24.48264694 2.190696716
98.56882477 -24.3936882 5.730292797
98.56991577 -24.29031181 9.279955864
98.51914215 -24.19224358 12.84358883
98.83486176 -24.1795311 16.49011421
98.57232666 -24.84339523 2.203500748
98.59833527 -24.7644577 5.747750282
98.572052 -24.65428352 9.299107552
98.51127625 -24.55338669 12.86460114
98.83781433 -24.54428864 16.51569557
98.61228943 -25.21775055 2.217113972
98.61481476 -25.13290977 5.764653206
98.60379028 -25.02613258 9.320962906
98.56188965 -24.92939377 12.89298248
98.88362122 -24.91999435 16.54833794
98.58490753 -25.57612038 2.229794741
98.62604523 -25.5007515 5.781385899
98.63027954 -25.39748573 9.342514038
98.54551697 -25.2898159 12.9133358
98.90494537 -25.29072189 16.57734108
98.62599945 -25.95236588 2.243525267
98.61654663 -25.86406517 5.79716301
98.60897064 -25.75767708 9.360066414
98.56443787 -25.6595726 12.93821907
98.91529083 -25.65944862 16.60484314
98.68115234 -26.33313942 2.257519245
98.65987396 -26.24157333 5.815724373
98.62496948 -26.12784958 9.381001472
98.57810974 -26.02877426 12.96265602
98.92425537 -26.02859688 16.63237
98.67680359 -26.69942856 2.270679235
98.67855835 -26.61360168 5.833134651
98.66272736 -26.5044899 9.403987885
98.58850861 -26.39788246 12.98688507
98.96820831 -26.40748405 16.66575813
98.68267822 -27.06911659 2.284040928
98.73060608 -26.99529457 5.852357864
98.66749573 -26.89174652 9.425239563
98.66854858 -26.78606033 13.01995182
98.9571991 -26.7729435 16.69058037
98.68253326 -27.45637321 2.298025608
98.70619965 -27.27046967 9.448630333
98.67144012 -27.17336082 13.04483891
98.98683167 -27.14983177 16.72218895
98.74432373 -27.82424164 2.311676979
85.25996399 -24.07271957 5.190184116
98.73577118 -27.64759827 9.471375465
98.67647552 -27.52514839 13.06784821
99.00740814 -27.52509499 16.75259781
98.75371552 -28.19725418 2.325243473
98.75328827 -28.00392342 9.492204666
98.72146606 -27.90702629 13.09721088
99.01131439 -27.89676857 16.78057671
63.3339653 -18.64540482 1.782380104
84.70855713 -24.55866432 5.190709591
98.74064636 -28.38973999 9.512561798
98.73055267 -28.2798996 13.12230396
99.02903748 -28.27299881 16.81104851
63.11069107 -18.83241463 1.787944674
98.73525238 -28.75965118 9.532682419
99.02710724 -28.66315651 16.83999062
98.76294708 -29.13977242 9.555891991
99.07614136 -29.04997063 16.87607574
18.93737984 -6.488889217 0.4056369364
98.8427887 -29.53590965 9.583904266
98.78431702 -29.42986679 13.2033968
99.08001709 -29.42486 16.90509605
98.82433319 -30.10015488 2.394913912
98.78340149 -29.89254189 9.599679947
98.77810669 -29.80168533 13.22740841
99.07106018 -29.79683876 16.93229103
17.91044044 -6.322055817 0.4299724698
98.87168884 -30.29345322 9.628792763
98.83901978 -30.19416618 13.26009655
103.2568817 -32.19474411 2.495747566
103.1523209 -31.95794106 10.03388596
103.1999741 -31.87859726 13.83674145
103.2692413 -32.59228897 2.510405302
84.36873627 -27.3615036 5.308035374
103.2788391 -33.17858887 10.11323738
103.1842804 -33.05458069 13.9150486
102.9412689 -33.3732605 13.91127682
101.7799606 -33.41726303 13.79163742
100.7199402 -33.46627808 13.68320847
99.04045105 -33.59703445 2.524835348
99.70345306 -33.61429977 9.88131237
99.75899506 -33.54036713 13.58713436
99.0090332 -33.97018814 2.538517714
98.9823761 -33.87076187 6.183129787
99.02039337 -33.77327347 9.841718674
98.95331573 -33.65936661 13.51072598
99.03686523 -34.36395645 2.553300619
99.03272247 -34.27182388 6.204451561
99.09300232 -34.1815834 9.871243477
98.99137878 -34.05560684 13.54281616
98.99452972 -34.64388657 6.221037865
99.02057648 -34.54213333 9.887639046
98.99781799 -34.44227219 13.57105827
99.06285858 -35.03408051 6.242650986
99.09722137 -35.43317795 6.263462067
99.13264465 -35.94502258 2.612797022
99.05090332 -35.80499649 6.279922962
99.11495209 -35.73538971 9.966487885
99.09424591 -35.63520813 13.66717052
99.12875366 -36.31370163 2.626586199
99.07467651 -36.20244217 6.300382614
99.1344986 -36.13127899 9.992032051
99.11194611 -36.01070023 13.69639492
99.16616058 -36.71763992 2.641931534
99.14373779 -36.50511551 10.01559925
99.07341003 -36.38652039 13.71992397
99.16812134 -37.10997009 2.656681538
99.14753723 -37.00992584 6.343089581
99.14266205 -36.91530609 10.04078197
99.11558533 -36.79223251 13.75421715
99.18746948 -37.32376099 10.06922913
99.11988068 -37.2050209 13.78525829
25.43217278 -10.34658813 3.17403841
35.45090103 -14.28197384 1.47220552
35.46655273 -14.25452232 2.796645164
25.50698853 -10.47577381 3.187391996
35.14982986 -14.3086338 1.471694946
35.22912979 -14.30566406 2.790257454
25.38375473 -10.53069782 3.182146311
35.26930618 -14.24685669 5.444514751
34.84154892 -14.3304491 1.470973015
34.91212082 -14.3176899 2.778923512
25.53949928 -10.69181633 3.203270197
34.94948578 -14.26543713 5.41286087
105.9824753 -41.30209732 18.84507561
34.53029633 -14.34211349 1.469859004
34.60796356 -14.33956242 2.768593311
25.5160656 -10.78508472 3.207528114
34.60826111 -14.26660728 5.377727032
105.0684738 -41.37414169 18.72681236
34.22631454 -14.36148834 1.469081402
26.41365051 -11.26406288 2.304931879
34.29571533 -14.31659412 4.048510075
34.30945587 -14.28895473 5.348637104
104.0559311 -41.40159607 18.59134483
33.91705322 -14.37667751 1.468126178
23.67762375 -10.2861824 2.152621984
26.72797966 -11.46417618 3.33583045
34.00537109 -14.30721855 5.318746567
26.41223717 -11.28817654 5.316256046
33.60438538 -14.38838577 1.467029572
23.60936546 -10.35456562 2.153563023
23.65269661 -10.34444714 3.04876399
33.71265793 -14.3279171 5.290267944
26.43774605 -11.40487671 5.330299377
33.30451584 -14.40991116 1.466378212
23.71697235 -10.49861717 2.164965153
23.59736252 -10.42273903 3.049943924
23.1218338 -10.20846558 3.883397818
25.3484211 -11.07980251 5.152942657
32.99014282 -14.42333698 1.465355039
23.73496246 -10.6023941 2.170974016
23.68566132 -10.55940914 3.064951658
23.05229759 -10.27877045 3.881770372
25.2573719 -11.14574051 5.146661758
32.71596527 -14.43777561 1.464574099
24.89329147 -11.17223072 2.243462801
23.64407921 -10.63397503 3.06690526
23.13092613 -10.40023327 3.899353743
102.8012009 -42.99282455 18.56625175
24.1178894 -10.7526865 5.895211697
28.61307335 -12.95539665 0.3034133315
32.43466949 -14.44747734 1.463583946
23.78056717 -10.81039524 2.183420658
23.54338455 -10.68392372 3.063166142
23.7865181 -10.7617178 3.994833231
24.44888687 -11.01209831 5.025090218
16.53969955 -7.9374547 0.5094043612
32.14392471 -14.4579649 1.462585568
24.52066803 -11.21929741 2.232083082
23.57683182 -10.79443455 3.072734118
23.84133339 -10.88204765 4.00996685
24.45308685 -11.11391258 5.03514719
28.64414787 -13.20449066 0.3087335825
31.8627243 -14.47047424 1.461718082
24.44944 -11.28989124 2.233127356
23.24477768 -10.75064468 3.046842337
23.80418396 -10.96426773 4.012740135
26.20730782 -11.95405293 5.349939346
16.58441734 -8.096972466 0.5121244192
31.60515213 -14.49780464 1.461541176
23.65681458 -11.05559254 2.191622257
22.87865067 -10.69453812 3.01780653
22.89803505 -10.68026829 3.897904634
40.16934204 -18.01572227 7.796907902
25.12631226 -11.58138371 6.153629303
40.50222397 -18.06650543 11.03932571
40.48707962 -18.01745415 12.66281891
16.55431747 -8.156085014 0.5144017339
31.33315468 -14.51702976 1.460991621
23.63028908 -11.14689541 2.195434809
23.0197258 -10.85486221 3.038198709
22.8926754 -10.77731991 3.905177832
39.81536102 -18.03755188 7.751503468
25.10804558 -11.68241501 6.161610126
40.14782715 -18.09013557 10.97114563
40.13331985 -18.04154587 12.58314991
28.37388992 -13.45950985 0.3223905563
31.06327057 -14.53524399 1.460421085
24.43574142 -11.6026268 2.249028921
22.89705658 -10.90155411 3.032860756
22.78685188 -10.83086491 3.898796558
23.79549789 -11.24650097 4.959416866
24.99215317 -11.741292 6.148741245
39.79738617 -18.112957 10.90379524
39.78172684 -18.06405449 12.50392437
28.36358833 -13.56158829 0.325173527
30.79716492 -14.53395653 1.459121943
24.40918922 -11.68246841 2.25227046
22.92365837 -10.99901676 3.041221619
22.77160835 -10.90943432 3.903645754
23.75343895 -11.31705856 4.960555077
24.16109657 -11.46613789 5.979888916
39.48150635 -18.12379074 10.84197903
39.44854736 -18.06752968 12.42647648
28.34117889 -13.67034626 0.3284439147
30.5284481 -14.54257774 1.458200216
22.69508553 -11.02019787 2.154434919
22.98269272 -11.12091827 3.05347681
22.66546822 -10.95731449 3.896845341
24.48207855 -11.73856163 5.098384857
24.11633873 -11.54699612 5.981421947
39.14915085 -18.14171028 10.77787113
39.12554932 -18.08966446 12.35416794
28.33110237 -13.78488159 0.3315131962
30.29649734 -14.56595039 1.458028436
22.69227409 -11.11401653 2.159316301
22.89212799 -11.17648125 3.051021814
22.60274124 -11.02403164 3.896003246
24.42922974 -11.81728554 5.098964214
24.08923721 -11.63564682 5.986819267
38.84385681 -18.16942024 10.72052002
38.80818939 -18.11213303 12.28335857
28.30238914 -13.89117432 0.3348815739
30.01562309 -14.56548882 1.456712484
22.63090515 -11.18149853 2.16067481
22.86677933 -11.26592827 3.05535531
22.64651299 -11.13865948 3.909861803
22.28283119 -10.9516983 4.729253292
24.047369 -11.72279072 5.989664078
24.18391609 -11.7589159 6.985328197
38.48587799 -18.13022614 12.2109127
28.24970055 -13.98647118 0.338626951
29.78723907 -14.59348679 1.456751227
22.33517075 -11.141325 2.147765636
23.26133347 -11.54276085 3.101161003
22.7547226 -11.28816605 3.933119297
22.27775002 -11.04313183 4.737521648
38.12053299 -18.21567535 9.052149773
38.18321609 -18.20401764 10.59356976
38.15689468 -18.14312553 12.13630676
26.25820351 -13.1755085 0.3729791641
29.5311985 -14.59453392 1.455621839
22.35353088 -11.24429131 2.153953791
23.22381783 -11.62375069 3.104143381
22.70002174 -11.35427189 3.933142662
22.20591736 -11.1041441 4.733999252
23.22468185 -11.54327965 5.833285332
37.87313461 -18.21514511 10.53349876
37.84235382 -18.16036034 12.06581783
28.21026421 -14.20805073 0.3450607359
29.28758049 -14.60592079 1.454958439
22.14889145 -11.24358463 2.146500349
23.93002701 -12.04617119 3.18120575
22.93659592 -11.56038857 3.974055529
22.2951355 -11.23953724 4.759183884
23.03370476 -11.55322361 5.802916527
37.60808182 -18.25297737 10.48591614
37.53170013 -18.17719841 11.99630928
28.15830421 -14.3038187 0.3487778902
29.05870056 -14.62262058 1.454576015
22.11794281 -11.32329655 2.149682522
23.94481659 -12.15491486 3.189707279
22.59350586 -11.4969902 3.934463978
22.20843506 -11.29365444 4.753107071
22.99052048 -11.63082409 5.804710388
24.12993622 -12.13700676 7.023543358
37.2301445 -18.1961956 11.92935562
28.14567566 -14.41844749 0.3518789709
28.81743431 -14.6318531 1.453852892
22.3716526 -11.53839493 2.170478582
22.77675056 -11.70317268 3.079256296
22.21707153 -11.41521835 3.890035152
22.35549355 -11.4577446 4.788876534
22.97191811 -11.71996689 5.811936855
23.99122238 -12.17448616 7.001084328
36.93767166 -18.21738815 11.86495876
28.12719345 -14.53051853 0.3550699949
28.6197052 -14.66037846 1.454086304
22.37747574 -11.63703728 2.17604351
22.73508072 -11.78076363 3.081829548
22.17992592 -11.49252605 3.892896891
22.65137863 -11.69431686 4.851552963
24.3670578 -12.48104954 6.12914896
23.84549713 -12.20782471 6.976772308
36.6263237 -18.22769928 11.79473305
28.07593536 -14.62681961 0.3587611318
28.6056385 -14.77670288 1.458584309
22.33254051 -11.7115097 2.178484678
22.68776703 -11.85559845 3.083856106
22.29980087 -11.64550877 3.917839527
22.66652298 -11.79876995 4.864073753
24.35746002 -12.58614922 6.139832973
23.59796906 -12.19153786 6.925931931
35.58906174 -17.88937759 11.50570393
28.03986359 -14.73667431 0.3623599708
28.59046555 -14.89894772 1.463316798
22.40208435 -11.84665203 2.188359022
22.85133743 -12.03800106 3.107657194
22.40625 -11.79815197 3.941459417
35.21688461 -17.99147415 7.137334824
23.63584709 -12.34675503 5.993786335
35.37656784 -17.98622894 10.01109409
35.31150818 -17.9161377 11.44597626
24.07039833 -12.88800812 0.4251788557
28.59449768 -15.03100872 1.468526959
22.23630905 -11.86676884 2.183533907
23.21403313 -12.32019997 3.151898623
22.20908356 -11.80308628 3.922379017
24.87042618 -13.08353043 5.283320904
23.59872246 -12.43066597 5.997620106
24.42153168 -12.8063736 7.169699192
35.00128174 -17.9250679 11.37621307
23.96593094 -12.9404974 0.4292384684
24.0478363 -12.88900471 1.364373922
22.02076721 -11.85618305 2.175262928
21.39860535 -11.5201664 2.973563194
22.11367035 -11.85220718 3.917203665
23.2238102 -12.37770557 4.995976925
23.3642292 -12.41731644 5.95784235
34.73077393 -17.98199081 9.88409996
23.6603756 -12.51171112 7.960870266
23.96486092 -13.04483509 0.4317442179
23.98080063 -12.96022224 1.366891742
21.9965477 -11.94004345 2.179023981
21.34516335 -11.58664036 2.974697113
22.22053909 -12.00186443 3.94072485
23.03122711 -12.38275528 4.971386909
23.27767944 -12.47583961 5.950740337
23.43828583 -12.53036213 6.94024086
23.5929985 -12.58105373 7.956052303
27.89165115 -15.15700531 0.3763362169
28.62672043 -15.42168427 1.484070539
21.97378731 -12.02477169 2.182900429
21.30929375 -11.66185856 2.977653265
22.22562981 -12.10150814 3.949912786
22.80362701 -12.36887169 4.940333366
23.24886703 -12.56292439 5.95649004
23.17579079 -12.50116158 6.885109901
23.60656166 -12.69060135 7.975934982
27.86667633 -15.26707458 0.379607141
28.59896278 -15.53325653 1.488363266
21.98804283 -12.12855434 2.189161062
21.3423748 -11.77220058 2.987742901
23.33569908 -12.76319981 4.116816521
22.91971207 -12.52766132 4.97190237
23.08670044 -12.58265877 5.93259716
23.03371811 -12.53081226 6.861540794
23.74372292 -12.86289215 8.033696175
27.86966324 -15.39190388 0.3824701607
28.60985374 -15.66501141 1.493625998
21.996521 -12.22982025 2.195092916
21.38911247 -11.89018154 2.9993155
23.04664421 -12.71768379 4.084496975
22.61143684 -12.47072792 4.925998211
22.99980927 -12.63974857 5.925453663
23.27336502 -12.75397778 6.938813686
23.76126671 -12.97594357 8.055197716
26.58983231 -14.84453869 0.4038511813
28.61485672 -15.79425144 1.498771071
21.83089828 -12.24109173 2.189881802
21.4158287 -11.99855518 3.008891582
22.87627029 -12.7313652 4.069048405
22.64767265 -12.58919048 4.943106651
22.93723106 -12.70893669 5.923763752
23.69527435 -13.07321262 7.064783096
33.35108185 -17.99570847 11.01120472
26.48449707 -14.90732288 0.4081411064
28.61930466 -15.92369175 1.503928542
21.86180115 -12.3541975 2.197296381
21.47205734 -12.12291813 3.021605015
22.58470917 -12.68070412 4.036107063
22.52225685 -12.62423134 4.930603027
22.78043556 -12.72903728 5.900967121
22.77565575 -12.70156097 6.835186005
33.13758087 -18.03268814 10.96868706
26.4178772 -14.99021912 0.4118614197
28.62672997 -16.05522919 1.509188652
22.19761848 -12.62899494 2.224498749
22.13197136 -12.56630421 3.097410679
22.43953514 -12.70479107 4.024116993
22.26055336 -12.58697987 4.892934799
22.67245102 -12.77364731 5.889085293
22.79234123 -12.81136227 6.853772163
32.87119293 -18.04075813 10.90979576
26.37212944 -15.0842123 0.4152778089
28.61947441 -16.1794548 1.514103889
22.24804497 -12.75513363 2.233361483
22.13103104 -12.66963768 3.104872465
21.4269371 -12.26785851 3.886627913
22.2157135 -12.66255569 4.895202637
22.22587204 -12.6438694 5.801437855
22.69620514 -12.86728191 6.843119621
32.61541367 -18.05257225 10.85401058
26.48704147 -15.27132893 0.4165761173
28.62836838 -16.31924438 1.519712925
22.29752541 -12.88658714 2.242507696
22.04921913 -12.7250433 3.103534698
21.57545853 -12.44816589 3.917232513
22.20856667 -12.76321888 4.90503788
22.19807625 -12.72850132 5.807480335
22.70005798 -12.97082806 6.858501911
32.3756752 -18.07838058 10.80418491
26.46836853 -15.3809433 0.4196218252
28.65340042 -16.46192551 1.525510788
22.17817688 -12.92238808 2.240377426
21.93718338 -12.76867867 3.099375486
21.86465454 -12.70131207 3.96806097
22.14574814 -12.82922554 4.904076099
22.8243084 -13.16980553 5.962511063
23.14041138 -13.31400967 6.991771698
32.12052917 -18.08708572 10.74829483
26.43603134 -15.47729874 0.4227170944
28.68227768 -16.60093307 1.531183958
22.08374214 -12.96610451 2.239577532
21.71948242 -12.73925304 3.082937717
21.71530914 -12.71387959 3.95477891
22.21260262 -12.93116283 5.835103035
23.0989933 -13.38546562 6.994047165
31.87558746 -18.09232521 10.69425106
26.46546936 -15.61414242 0.4251025021
28.66926384 -16.72406578 1.536059737
21.98189926 -13.01025772 2.238560915
21.57657242 -12.75924206 3.07506609
21.68579483 -12.79611397 3.959417582
22.65530205 -13.30339527 5.020371914
22.02536011 -12.92942238 5.805086613
31.64242744 -18.14568901 9.31010437
31.63130379 -18.1035099 10.64142418
25.85053444 -15.39058399 0.4362568259
28.68194962 -16.8618679 1.54163301
21.78576088 -13.00150108 2.231280804
22.25595665 -13.23393631 3.154606342
21.67159081 -12.8869381 3.96634984
22.64772415 -13.40221214 5.030153275
22.06001472 -13.048563 5.825642586
31.42080307 -18.16752625 9.270980835
31.40594101 -18.12340927 10.59435654
25.68844032 -15.41772175 0.4411783218
28.69576263 -17.00094414 1.547268867
22.03070831 -13.23832798 2.253281355
22.16342926 -13.28904629 3.152682543
21.52881622 -12.90629768 3.954427719
22.58108711 -13.46850967 5.028931141
22.00964928 -13.1262188 5.82751894
31.2984848 -18.25008392 9.259663582
31.31926918 -18.21847343 10.5905695
25.58648109 -15.48401928 0.4454014897
28.69915962 -17.14136124 1.552924871
21.99040794 -13.32184792 2.25668931
21.72947121 -13.14623737 3.113823891
21.51198769 -13.00052166 3.96149683
20.95800209 -12.66609383 4.735138416
22.32905006 -13.40586376 5.913700581
31.30479622 -18.39680481 9.282235146
31.3252449 -18.3721447 10.61711121
25.6603508 -15.64492226 0.4471378624
28.70302582 -17.27603722 1.558359146
21.91902924 -13.38260937 2.257738829
21.59286499 -13.16876793 3.106659174
21.41236305 -13.04306889 3.955917358
31.37287712 -18.65651131 6.712742329
31.3369503 -18.59414864 8.000109673
31.30706024 -18.54188347 9.303899765
31.32523155 -18.51590347 10.64081669
26.14873123 -16.04709625 0.4434396029
28.70110321 -17.40794945 1.563666701
21.68644714 -13.35060406 2.24793601
21.33886719 -13.12320137 3.086807013
21.25930977 -13.05457401 3.942399502
22.56980324 -13.77893829 5.061719894
31.34581566 -18.74383163 8.020776749
31.33407784 -18.70160103 9.332501411
31.33129501 -18.6636982 10.66665363
25.66055107 -15.88414574 0.452599287
28.70727348 -17.5450325 1.56922102
21.73776436 -13.48113441 2.257241964
21.19410896 -13.13872147 3.078640461
21.07035065 -13.04436493 3.923479319
22.53624344 -13.86432457 5.066987991
31.35060883 -18.89183807 8.040672302
31.33332253 -18.84625816 9.35373497
31.34174538 -18.81459427 10.6940937
25.28759193 -15.7849102 0.4601673782
28.71454239 -17.68339729 1.574838281
21.69186592 -13.55582619 2.260015011
21.18545532 -13.23253441 3.085190535
21.02065849 -13.1136837 3.925254822
22.39309883 -13.88627911 5.051453114
31.35305786 -19.03909874 8.060189247
31.34710503 -18.99988937 9.379142761
31.35316467 -18.96677017 10.72208023
25.17190552 -15.83530617 0.4643572271
28.73498344 -17.83011818 1.580850363
22.49418259 -14.12929344 2.320611477
21.30349922 -13.40099335 3.105576277
21.00153923 -13.20085812 3.931639671
22.32164574 -13.94920158 5.049551487
22.0640831 -13.76869488 5.918991566
31.33665848 -19.14009857 9.398096085
31.35722542 -19.11537361 10.74796486
25.72215462 -16.28329849 0.460046649
28.7427063 -17.97005081 1.586546898
21.95481682 -13.91543865 2.289881706
22.0033493 -13.91507149 3.189618349
21.00769615 -13.30316353 3.941875219
31.39179039 -19.39818001 6.797947884
22.05737686 -13.86823845 5.930994511
31.3474102 -19.29328728 9.423071861
31.36229706 -19.2651825 10.77439404
6.300776958 -4.706506729 0.4509019852
25.33266258 -16.17060471 0.4677252173
28.73607826 -18.10203171 1.591874838
21.74114799 -13.89154625 2.281273603
21.93873405 -13.98044968 3.190494776
25.73833466 -16.21716118 4.663677692
31.40106583 -19.5516758 6.816467285
31.38346863 -19.49830437 8.125141144
31.35915184 -19.447752 9.448526382
31.36004639 -19.41134453 10.79871941
6.285796642 -4.72743845 0.4518371522
25.16304779 -16.18830299 0.4725730121
28.74258423 -18.2424221 1.597599745
21.75710297 -14.00434208 2.288428068
21.83980179 -14.02501583 3.187612534
23.70781517 -15.12126541 4.368574142
31.40286446 -19.70142174 6.833700657
31.36640167 -19.63655472 8.140774727
31.36516571 -19.59954453 9.472612381
31.37373543 -19.56756401 10.82836246
6.275856972 -4.751445293 0.452498436
24.67638588 -16.01075554 0.4813241959
28.75015831 -18.38410187 1.603388071
21.42266655 -13.90503025 2.271363735
22.67926788 -14.6374073 3.28818512
25.85574532 -16.53253555 4.704753876
31.41751099 -19.85956383 6.853559017
31.39411163 -19.80220222 8.167078972
31.37716675 -19.75561905 9.498565674
31.39165878 -19.72707367 10.85961437
6.266849041 -4.777576447 0.453111589
25.43026924 -16.5945797 0.47471264
28.7536869 -18.52395821 1.609094739
21.45704651 -14.02860165 2.279803038
22.62923813 -14.71530247 3.291036606
