# .PCD v0.7 - Point Cloud Data file format
VERSION 0.7
FIELDS x y z
SIZE 4 4 4
TYPE F F F
COUNT 1 1 1
WIDTH 1261
HEIGHT 1
VIEWPOINT 0 0 0 1 0 0 0
POINTS 1261
DATA ascii
-8.530210495 -12.11445236 3.483299971
-7.188575268 -10.34030437 3.490013838
-6.759865761 -9.756189346 0.5601936579
-6.746161938 -9.725325584 0.9485487938
-6.738157272 -9.743488312 1.337357402
-12.27722168 -16.98801041 2.49785161
-12.06366062 -16.69070435 3.167752981
-12.35456085 -17.04756546 3.945920467
-6.834571362 -9.789625168 0.5583227277
-6.798882961 -9.730248451 0.9486705065
-6.743476868 -9.686630249 1.334887385
-12.36503506 -16.98609352 2.50150466
-12.1384964 -16.65048409 3.875819445
-6.736942768 -9.599748611 0.5622181296
-6.889394283 -9.786678314 0.9497286081
-6.776587963 -9.666191101 1.334684968
-12.43187428 -16.96229362 2.502659082
-12.20568562 -16.64676476 3.172501564
-12.31489849 -16.76402473 3.905784845
-7.27707243 -10.25037766 3.484734058
-6.389425278 -9.094889641 0.5743920207
-6.951138973 -9.801983833 0.9500357509
-6.806881905 -9.645237923 1.334399581
-11.90472698 -16.17064857 2.421844482
-12.58101177 -17.01407242 3.234037876
-13.48022938 -18.14613342 4.185508251
-6.411769867 -9.064695358 0.574213624
-7.056350231 -9.87197876 0.951339066
-6.890406132 -9.689009666 1.338226795
-12.25720692 -16.50982857 2.461988688
-12.77942944 -17.15640831 3.261354446
-7.36162281 -10.22646809 3.491423845
-6.56817627 -9.20109272 0.5696057081
-7.092586994 -9.853569984 0.9510264993
-6.904984474 -9.644515991 1.336531281
-12.40449715 -16.58413696 2.473853111
-12.73065662 -16.97240067 3.239641666
-12.50306416 -16.66705132 3.909721136
-7.3851161 -10.1855917 3.486960649
-6.618254185 -9.204717636 0.5685048103
-7.09291029 -9.786888123 0.9498311281
-6.964391232 -9.653529167 1.33825469
-13.78614044 -18.19989395 2.652140379
-12.49940395 -16.54381752 3.893592119
-6.74479723 -9.303208351 0.5648756623
-7.037416935 -9.65454483 0.9474329352
-7.062404633 -9.713326454 1.343135953
-13.19133377 -17.31641579 3.304544449
-12.69302654 -16.67243004 3.927154303
-6.937482834 -9.481767654 0.5590769053
-6.995941162 -9.544125557 0.9454315901
-7.076851368 -9.668405533 1.341425538
-12.01229572 -15.76504803 2.397045612
-12.75827122 -16.64021111 3.928823471
-7.089570045 -9.610704422 0.5546034575
-7.069030762 -9.572357178 0.9459608793
-12.09696388 -15.76317215 2.400664568
-12.37579441 -16.06488609 3.821460009
-7.13763237 -9.607575417 0.5535806417
-7.175397873 -9.640367508 0.9472145438
-7.412283897 -9.956990242 1.36194241
-12.12364292 -15.68998909 2.396558285
-12.10296249 -15.6475296 3.065469503
-12.43271542 -16.02607727 3.821607351
-7.370649815 -9.824958801 0.5465311408
-7.182916641 -9.587535858 0.9462586045
-7.487095833 -9.983458519 1.364810228
-13.06866074 -16.72944641 2.513796568
-12.41389561 -15.89571857 3.803375006
-7.486109257 -9.900653839 0.5433135033
-7.263106346 -9.622345924 0.9469012022
-7.519103527 -9.954410553 1.364218593
-13.23612499 -16.81853294 2.527717352
-12.46022129 -15.83939457 3.800410748
-9.034226418 -11.71931648 3.477126598
-7.433696747 -9.777695656 0.5455395579
-7.272939205 -9.572434425 0.9459937811
-7.555531979 -9.937082291 1.36425662
-13.28536701 -16.76455116 2.526043415
-12.52522755 -15.81606483 3.803333521
-9.068413734 -11.68311501 3.475429535
-6.629174232 -8.761281967 0.5722107887
-7.279930115 -9.519503593 0.9450287819
-7.597363472 -9.922867775 1.364558816
-12.97973347 -16.28996086 2.478169441
-12.5915556 -15.78875828 3.805901766
-9.096106529 -11.63931561 3.471853256
-7.46691227 -9.692103386 0.5455138087
-7.442145348 -9.64940834 0.9474015236
-7.627561092 -9.894761086 1.363976479
-13.17029762 -16.4055233 2.495072365
-12.6616888 -15.76568317 3.809378147
-9.144006729 -11.61936665 3.47426796
-7.557298183 -9.735902786 0.5430999994
-7.497356892 -9.652238846 0.9474502802
-7.627811432 -9.831620216 1.361145973
-13.34887409 -16.50479507 2.510278225
-12.75755501 -15.77230358 3.818960667
-9.186758995 -11.59325409 3.475177288
-7.610232353 -9.735246658 0.5418960452
-7.740809917 -9.872815132 0.9514742494
-7.666797161 -9.81401825 1.361239076
-13.36699009 -16.41578484 2.504737616
-13.3885994 -16.39760017 3.955095053
-9.229440689 -11.56697464 3.476080656
-7.865054607 -9.966917992 0.5341825485
-7.728788376 -9.795935631 0.9500618577
-13.38464642 -16.32684135 2.499193668
-13.3495121 -16.24331856 3.932220221
-9.247524261 -11.51239014 3.46986413
-7.899234295 -9.942445755 0.5335854292
-7.755836964 -9.764397621 0.9494752288
-14.42162418 -17.43090057 1.856108904
-13.40315533 -16.23946571 2.493813753
-8.510770798 -10.62908936 2.326043367
-13.32252884 -16.1043663 3.912404537
-9.293850899 -11.4902935 3.471879959
-7.869935513 -9.845789909 0.5350183249
-7.817138195 -9.771785736 0.9495970607
-13.41595173 -16.14616394 2.487763405
-8.509372711 -10.55904579 2.319105387
-8.590246201 -10.63529968 2.793855667
-8.588035583 -10.61718845 3.25757885
-7.919628143 -9.839241028 0.5339057446
-7.80557251 -9.696592331 0.9482081532
-8.575687408 -10.59321308 1.416825414
-8.591282845 -10.59545422 1.871477127
-8.576134682 -10.56637669 2.324450493
-8.592101097 -10.55331993 3.248406649
-7.87085104 -9.722053528 0.5359363556
-7.821565628 -9.652900696 0.9473921061
-8.578946114 -10.52890873 1.414026976
-8.601280212 -10.53861618 1.867908835
-8.603350639 -10.52893257 2.322702408
-8.613570213 -10.52489185 2.782338381
-8.640417099 -10.53927994 3.251951456
-7.979259014 -9.790474892 3.496833801
-7.761209488 -9.538392067 0.5398925543
-7.775804043 -9.540830612 0.9453252554
-8.624305725 -10.4966507 1.866004705
-8.668938637 -10.53422737 2.327795506
-8.017058372 -9.769710541 3.49851346
-7.751014233 -9.466794968 0.5406570435
-7.783080101 -9.488453865 0.9443460107
-8.718664169 -10.52152252 2.330047846
-7.743107796 -9.398330688 0.5413370132
-7.8062644 -9.453859329 0.9436890483
-13.82306767 -16.06562233 2.500912905
-8.772424698 -10.51299191 2.333001137
-13.57317734 -15.74848461 3.891793489
-7.798233509 -9.402099609 0.5399833918
-7.824975967 -9.420464516 0.9430544376
-8.836642265 -10.51890564 2.338098288
-13.61995697 -15.70039368 3.890313625
-7.917230129 -9.474635124 0.5366009474
-7.860095501 -9.398979187 0.9426320791
-14.34290028 -16.42736435 2.550675154
-8.9040308 -10.52439976 2.343392372
-7.986684799 -9.48657608 0.5348294377
-7.996030807 -9.485636711 0.9441799521
-14.38358974 -16.36256981 2.548039436
-8.96175766 -10.52238941 2.347293854
-8.078212738 -9.521467209 0.532356441
-8.11091423 -9.545236588 0.9452289939
-15.11362553 -17.02810097 2.629043102
-9.012068748 -10.50536251 2.34924221
-8.229460716 -9.627688408 3.504058599
-8.167219162 -9.555770874 0.5299412012
-8.193230629 -9.572114944 0.945679903
-8.413180351 -9.827640533 1.378996253
-9.076019287 -10.50252914 2.353536606
-14.20010281 -15.89781284 3.969675779
-8.272936821 -9.598517418 0.9461212158
-14.49028111 -16.15317917 2.538437366
-9.135335922 -10.50111198 2.357649326
-14.17640495 -15.77328491 3.952303886
-9.746421814 -11.11259174 3.469120502
-7.683981419 -8.936451912 0.545869112
-8.297709465 -9.563819885 0.9454440475
-9.200239182 -10.50514221 2.36269474
-14.11645222 -15.61200333 3.927021027
-8.368005753 -9.590827942 0.5247263908
-8.380656242 -9.589506149 0.9458643794
-9.264198303 -10.50437164 2.367228985
-14.33424377 -15.73453426 3.962859154
-8.441391945 -9.606088638 0.5227899551
-8.502898216 -9.654882431 0.9470043778
-8.461816788 -9.63764286 1.371725202
-9.328264236 -10.50327015 2.371753931
-14.32697201 -15.62339592 3.948778391
-9.84951973 -11.00548458 3.465960264
-8.445133209 -9.549417496 0.5230312943
-8.615909576 -9.709501266 0.9479447603
-8.492305756 -9.608046532 1.371134043
-9.382711411 -10.49190044 2.374625206
-14.39104271 -15.58590412 3.950511456
-9.873991966 -10.95973873 3.462286472
-8.403597832 -9.450248718 3.498889208
-8.462603569 -9.507081985 0.5228332281
-8.699793816 -9.7364645 0.9483811259
-8.728477478 -9.78783989 1.384613752
-14.02040482 -15.1077776 3.857083321
-9.910312653 -10.92965126 3.462371588
-8.544504166 -9.532995224 0.5205962658
-8.696783066 -9.671972275 0.9471474886
-8.56831646 -9.567072868 1.371115923
-14.03150749 -15.02465725 3.848241329
-9.948303223 -10.89769745 3.462416887
-8.204673767 -9.132136345 0.5315350294
-8.923766136 -9.838270187 0.9501086473
-8.619701385 -9.558338165 1.371943593
-14.04187965 -14.93637276 3.838740349
-9.963933945 -10.84339333 3.456494331
-8.175227165 -9.04561615 0.5327628255
-8.645668983 -9.523960114 1.37104547
-14.09109211 -14.88717747 3.837741137
-9.44756794 -9.601834297 0.9448103905
-10.39794445 -10.43759251 3.453577042
-8.48336792 -8.670669556 0.526276648
-9.507394791 -9.595807076 0.9445964098
-10.42562962 -10.39585972 3.451318502
-8.877915382 -8.971509933 3.490640163
-8.634652138 -8.754034996 0.5218203068
-9.570256233 -9.592155457 0.944421947
-12.76829815 -12.46471691 3.421915054
-10.46481228 -10.36459827 3.452024937
-8.662082672 -8.726724625 0.5211621523
-9.591621399 -9.550673485 0.9435617328
-12.83916378 -12.45132637 3.427656651
-10.50097847 -10.33055115 3.451982975
-8.947713852 -8.923742294 3.493736982
-8.681857109 -8.689791679 0.5207418799
-9.624732018 -9.519821167 0.9428905249
-12.92390156 -12.44586945 3.435756445
-10.53410053 -10.29375458 3.451194048
-8.999259949 -8.913128853 3.50009203
-8.717761993 -8.664597511 0.5198271871
-9.636821747 -9.470237732 0.9418792725
-12.98213959 -12.41635036 3.438407421
-10.56856632 -10.25814438 3.450770617
-9.830739975 -9.594373703 0.4858341515
-9.740130424 -9.501416206 0.9423187375
-13.01414776 -12.35946274 3.435263872
-10.60734081 -10.22630215 3.451454401
-9.783623695 -9.479243279 0.9417945147
-13.03893375 -12.30445576 3.431610346
-10.648983 -10.19688892 3.452872753
-8.846827507 -8.617868423 0.5163506866
-9.867806435 -9.492324829 0.9419003725
-13.08041573 -12.26008892 3.430920362
-10.68163872 -10.15957642 3.45206213
-9.093661308 -8.77101326 3.492084742
-9.496296883 -9.123299599 0.49660483
-9.908322334 -9.466994286 0.9413126111
-13.13672543 -12.22848225 3.433239698
-10.71416473 -10.12214947 3.4512465
-9.65225029 -9.199619293 0.4919785857
-9.954853058 -9.446698189 0.9408120513
-13.16791725 -12.17117691 3.430073738
-10.749547 -10.08716297 3.451166391
-9.150316238 -8.705555916 3.490655422
-10.0324297 -9.468824387 0.480476886
-9.85529995 -9.304661751 0.9381343126
-13.19492531 -12.11841011 3.42700386
-10.78919983 -10.05901623 3.452602386
-9.324248314 -8.810848236 0.5022806525
-9.892202377 -9.276683807 0.9374919534
-10.10098743 -9.476593971 1.404128909
-13.23683453 -12.0783453 3.42694211
-10.82137394 -10.02121449 3.451771021
-9.455745697 -8.865867615 0.4983811677
-9.959647179 -9.274287224 0.9373040795
-10.12632561 -9.437415123 1.403072
-13.28815746 -12.04215431 3.428328753
-10.85492325 -9.984563828 3.451304674
-9.25062561 -8.629784584 3.494738579
-9.185882568 -8.584002495 0.5067476034
-10.03487015 -9.27793026 0.9372201562
-13.33634949 -12.00321198 3.429105043
-10.88381195 -9.944021225 3.449723244
-9.310872078 -8.624765396 3.503660202
-9.253930092 -8.583516121 0.5047770143
-10.1133194 -9.283700943 0.9371700287
-11.56868172 -10.47862339 2.539268255
-11.601264 -10.49030685 3.077851772
-10.91406918 -9.904640198 3.448507309
-9.362010956 -8.609098434 3.509469509
-9.222009659 -8.502872467 0.5058484077
-10.24134636 -9.329690933 0.9378325343
-11.59001064 -10.46179199 1.483072519
-11.60702896 -10.46069145 2.010582447
-11.59147167 -10.42930412 2.536746025
-10.95026493 -9.870141029 3.448764563
-9.4148283 -8.597277641 3.516183138
-9.298176765 -8.514074326 0.5036055446
-10.30477333 -9.321742058 0.9375286102
-11.604702 -10.40937328 1.481197834
-11.61729336 -10.40116501 2.007246494
-11.63252544 -10.39502048 2.536998034
-10.98330307 -9.833018303 3.448277235
-9.333953857 -8.489167213 0.5025938153
-10.4412632 -9.372671127 0.9382680655
-13.56491089 -11.87530136 3.439347982
-11.01468658 -9.794542313 3.44741559
-9.377449036 -8.470383644 0.5013388991
-10.65921879 -9.487986565 0.9401450753
-21.90723419 -18.59558678 2.086121559
-13.62652874 -11.84637833 3.442787647
-11.04286766 -9.75349617 3.445810318
-10.56573963 -9.352063179 0.937554419
-13.66800976 -11.80113506 3.442313433
-11.08320236 -9.722156525 3.447153568
-10.5889082 -9.310170174 0.9366317391
-13.69694042 -11.74591541 3.439431667
-11.12962341 -9.695518494 3.449965954
-10.64017963 -9.290505409 0.9360998869
-21.46471024 -17.86959648 2.044218779
-21.85000992 -18.13967514 3.040956497
-13.72876263 -11.69307232 3.437145472
-11.16052532 -9.656532288 3.449082851
-10.11132526 -8.832404137 0.4791658521
-10.75443745 -9.319893837 0.936431706
-21.49876595 -17.77482414 2.04104948
-21.86945915 -18.03129578 3.035028458
-13.79623699 -11.66811943 3.441751957
-11.19439411 -9.619853973 3.448931932
-10.99386406 -9.448676109 0.9385225177
-21.51688004 -17.67395592 2.037228346
-21.57388496 -17.68445778 2.99727416
-13.83055878 -11.62102509 3.440407038
-11.22661495 -9.585009575 3.448820591
-9.950083733 -8.584506035 3.602003336
-10.84631538 -9.273407936 0.9352310896
-21.6386013 -17.64764595 2.039167166
-13.87913036 -11.5810461 3.441398859
-11.26648712 -9.552867889 3.450132847
-9.987977982 -8.557948112 3.604264498
-11.12954521 -9.447602272 0.4481973946
-10.89451885 -9.250109673 0.9346196055
-21.59563255 -17.49410057 2.031595469
-13.91659451 -11.53245544 3.44028616
-11.3125267 -9.52532196 3.452912331
-12.48002434 -10.37860775 4.87276125
-10.18929863 -8.669338226 0.4768827856
-11.00954342 -9.277431488 0.9348948002
-22.30426598 -17.88009262 3.04835248
-13.95546436 -11.48493004 3.439466953
-11.35223961 -9.492816925 3.454211712
-10.16687679 -8.59635067 0.4775701463
-11.15680695 -9.328155518 0.9355747104
-13.99417114 -11.43726444 3.438641548
-11.3698616 -9.443608284 3.450351
-10.20481396 -8.569253922 0.476408869
-11.51416874 -9.535117149 0.9389867783
-21.23192406 -16.86363602 1.995835423
-14.03588486 -11.39182568 3.43840766
-11.39673233 -9.401432991 3.44869566
-10.28451633 -8.558403015 3.653825998
-10.26191616 -8.556331635 0.4746548235
-11.74957752 -9.647735596 0.9407310486
-21.20755386 -16.72966957 1.989580989
-21.38146973 -16.82620811 2.932584763
-14.07904148 -11.34740448 3.438466787
-11.43608761 -9.368536949 3.44997859
-10.33659649 -8.54092598 3.659970999
-10.42189026 -8.619252205 0.4697553217
-11.51142883 -9.408205986 0.9363076687
-21.15040016 -16.57227898 1.981518149
-21.52689743 -16.81780624 2.93982482
-14.09498596 -11.28287125 3.433436871
-11.47535324 -9.335468292 3.451254606
-10.40284443 -8.533567429 3.670031548
-10.91428185 -8.925100327 0.4547078609
-11.55717659 -9.379816055 0.9355775118
-21.07631111 -16.40364838 1.97255981
-21.62431335 -16.77319145 2.942237139
-21.52049065 -16.66932106 3.870602131
-14.12023449 -11.22536087 3.430197239
-11.51770496 -9.304546356 3.453259706
-10.48021507 -8.533884048 3.683133125
-10.37204647 -8.470943451 0.4712092876
-11.54789829 -9.311184883 0.9341423512
-21.19493866 -16.37710571 1.974456429
-13.09488487 -10.44273472 2.087964535
-13.09517479 -10.42612839 2.65773344
-13.10972404 -10.41627789 3.233735561
-11.5440588 -9.261901855 3.451583624
-10.56246281 -8.537183762 3.697529554
-10.38378143 -8.424166679 0.4708062708
-11.69564342 -9.359580994 0.9347540736
-13.11011219 -10.40408421 1.518795252
-13.10234165 -10.38170433 2.08454895
-13.10436344 -10.36286831 2.653222084
-13.13829231 -10.36691952 3.231766701
-11.57198048 -9.223495483 3.450685024
-10.62583256 -8.526345253 3.706684113
-10.46867371 -8.432925224 0.4681657553
-11.59837055 -9.227755547 0.9322152138
-13.12052822 -10.34538269 1.516603827
-13.14033413 -10.33937359 2.083954334
-11.60763359 -9.187538147 3.451203108
-10.70539856 -8.529489517 3.720663548
-11.73502636 -9.267040253 0.9326583743
-14.27035809 -11.03511143 3.427098989
-11.64172554 -9.153469086 3.451763391
-10.77211094 -8.52015686 3.730667114
-11.78194714 -9.25670433 0.4279513061
-11.84741306 -9.284956932 0.9327113628
-14.32676792 -11.00361538 3.430154324
-11.67877483 -9.118355751 3.452637196
-10.84872913 -8.520200729 3.743751526
-12.01698685 -9.360569954 0.420689106
-11.90933514 -9.26655674 0.9321300983
-21.62036514 -16.12734795 1.974856615
-22.28814316 -16.53492737 3.922804594
-14.36545277 -10.95573616 3.429565668
-11.70443726 -9.075205803 3.450937271
-10.92040825 -8.513442993 3.755038023
-12.01670551 -9.294754982 0.4205961525
-12.04837799 -9.301582336 0.9324656725
-21.58177567 -15.98768044 1.968052149
-21.56345558 -15.94184113 2.887212992
-14.39098549 -10.89868546 3.42658782
-11.72994137 -9.0319767 3.449232817
-11.00475311 -8.512127876 3.769311905
-12.13953114 -9.317726135 0.4167380333
-12.12513542 -9.289241791 0.931963861
-21.6797142 -15.93807793 1.968497872
-21.61208916 -15.85812759 2.884697437
-14.44246864 -10.85589314 3.428011179
-11.76967239 -8.995528221 3.450407505
-11.08146 -8.507817268 3.781878233
-10.52991104 -8.14763546 0.465811491
-12.14279556 -9.238960266 0.9308187366
-21.7596817 -15.84802437 2.892117739
-14.47086811 -10.80087852 3.425617933
-11.80462646 -8.958745956 3.450891972
-11.14697838 -8.495368958 3.791388035
-11.83794689 -8.987028122 0.4257171452
-12.22655869 -9.236965179 0.9305133224
-21.84225845 -15.79821205 2.893570185
-14.49905872 -10.74578381 3.423219204
-11.83805275 -8.92388916 3.45141983
-11.21254635 -8.482559204 3.800887108
-11.83485222 -8.927565575 0.4256884456
-12.24895191 -9.189772606 0.9294143915
-14.55319977 -10.71194744 3.425931454
-11.85320663 -8.873659134 3.447499275
-11.32699299 -8.5256567 0.4410867989
-12.41062927 -9.236178398 0.9299108982
-22.11162186 -15.75645733 2.905762911
-14.56132507 -10.6434164 3.41995573
-11.88778019 -8.836519241 3.447967768
-11.86692429 -8.826095581 0.4244148731
-12.44963169 -9.199480057 0.928981781
-14.4290905 -10.4819622 3.388730288
-11.92551899 -8.801407814 3.449162483
-11.91612339 -8.799019814 0.4227529168
-12.48329353 -9.156020164 0.9279184341
-22.80645752 -16.02170372 2.000965595
-22.28428459 -15.64176655 2.908276081
-14.32563972 -10.33754921 3.362514257
-11.96454048 -8.76403904 3.450299978
-11.8781023 -8.711397171 0.4237444699
-12.8196888 -9.314299583 0.9302890897
-22.72566986 -15.85414124 1.991965413
-22.66581726 -15.78047848 2.93770051
-14.40345383 -10.31662941 3.369316101
-12.00207138 -8.728589058 3.451481819
-11.60459614 -8.451451302 3.864657164
-11.72138977 -8.552883148 0.4283831716
-12.68664742 -9.166962624 0.927485168
-22.71188736 -15.70301914 2.935563326
-14.48295879 -10.29635811 3.376400948
-12.02492237 -8.686531067 3.449784279
-11.74832249 -8.51509285 0.4273881912
-12.80443287 -9.180193901 0.9273811579
-14.58990669 -10.35953808 1.554967999
-14.60374069 -10.34648132 2.164366007
-14.60630322 -10.32604027 2.775916815
-14.58579159 -10.29425621 3.387981653
-12.05891991 -8.648677826 3.450223923
-11.79999542 -8.49029541 0.425616622
-12.94939518 -9.209984779 0.9275482297
-14.59937096 -10.29341888 1.552496552
-14.62500763 -10.2878828 2.16202116
-14.62260628 -10.26785851 2.77269268
-14.69375896 -10.29113579 3.400075197
-12.09279537 -8.610684395 3.450657845
-12.14657879 -8.65345192 0.4147836268
-13.13183594 -9.262489319 0.9280875921
-14.63718224 -10.24562073 1.551517606
-14.79520035 -10.28313923 3.410965919
-12.13985157 -8.580958366 3.454005718
-12.229249 -8.64634037 0.412035495
-13.48725605 -9.42277813 0.9304220676
-23.69920731 -15.87851429 3.000843048
-14.84319592 -10.24084282 3.412365913
-12.1735239 -8.542635918 3.454427242
-12.00994205 -8.424460411 3.93214345
-13.49192142 -9.380192757 0.3730167747
-13.42710972 -9.319365501 0.9283267856
-23.50556946 -15.67665482 2.004935026
-23.81912422 -15.838027 3.005105972
-14.89778709 -10.20251751 3.414941072
-12.19706059 -8.497934341 3.452654123
-15.05801201 -10.26022053 4.720240116
-12.60863781 -8.763963699 0.3999243081
-13.50565624 -9.30310154 0.9276861548
-23.48589897 -15.55010509 1.999247313
-14.94052124 -10.15662956 3.415436506
-12.18363094 -8.430421829 3.442856312
-15.23061085 -10.29355907 4.755314827
-12.42512035 -8.589504242 0.4053277075
-13.58935738 -9.289543152 0.9270845056
-23.55058289 -15.47644806 1.997929096
-14.98985863 -10.11470604 3.417107105
-12.26711559 -8.422714233 3.454198122
-15.28536892 -10.25345802 4.759628773
-12.80622482 -8.763691902 0.393347621
-13.63585377 -9.255944252 0.9261632562
-26.72080421 -17.30956459 2.155602694
-15.02219582 -10.06225204 3.415814638
-12.35273075 -8.418716431 3.466307163
-15.42683887 -10.26577282 4.786433697
-12.90899754 -8.768035889 0.3899315
-13.63272285 -9.191995621 0.9247358441
-15.06121063 -10.01743603 3.416058064
-12.44182491 -8.416268349 3.479130745
-15.50671101 -10.2436657 4.797709465
-12.55688095 -8.496559143 0.4005259573
-13.84480286 -9.254924774 0.9253802299
-15.0933094 -9.968385696 3.415114164
-12.52898979 -8.409100533 3.491157293
-15.64694595 -10.2572031 4.824538231
-12.60554218 -8.466095924 0.3987508714
-14.04719257 -9.310311317 0.9258864522
-15.14212894 -9.925700188 3.416754723
-12.61287975 -8.399401665 3.502440929
-15.78742123 -10.2661562 4.85084343
-12.60260677 -8.404702187 0.3985581696
-14.1847887 -9.325583458 0.9257211685
-15.19083691 -9.882781982 3.418386936
-12.70363045 -8.393208504 3.515164852
-15.86756611 -10.23859024 4.861567974
-13.39815807 -8.815181732 0.3736898601
-14.23478222 -9.288222313 0.9246855378
-15.2206583 -9.828625679 3.416768312
-12.80128479 -8.390444756 3.529327154
-16.02529335 -10.25586128 4.892148972
-13.49981022 -8.811869621 0.370228678
-14.24524689 -9.23089695 0.9233414531
-16.11707497 -10.34679604 1.594391584
-16.10549927 -10.31991768 2.246869326
-16.09648323 -10.29071903 2.90131712
-15.25712681 -9.778351784 3.416322708
-12.89435577 -8.387368202 3.542801619
-16.10729027 -10.22810936 4.903269768
-12.92272091 -8.416356087 0.3877710402
-14.3416996 -9.220277786 0.9227321148
-16.09828377 -10.26416874 1.590555787
-16.09529877 -10.2386055 2.241566658
-16.1328125 -10.236413 2.900359869
-15.30215549 -9.736539841 3.417704344
-12.97864342 -8.375596046 3.55402422
-16.24521828 -10.23581409 4.929125309
-16.26184654 -10.22050095 5.622128487
-12.70289516 -8.229389191 0.3942547143
-14.44172382 -9.211079597 0.9221380353
-16.13958931 -10.21291065 1.58957684
-16.15904045 -10.20024109 2.242958546
-16.21041298 -10.20952988 2.905094862
-15.34690762 -9.690864563 3.418717146
-13.06983757 -8.367231369 3.566684723
-16.3510952 -10.22049618 4.946254253
-16.4446373 -10.24869156 5.665145397
-13.35784149 -8.542152405 0.3736144006
-14.48106003 -9.166590691 0.9209664464
-16.33700752 -10.22677803 2.254602194
-19.86626816 -12.21177578 3.375347137
-15.39152527 -9.644980431 3.419721365
-13.16455841 -8.360260963 3.58005476
-16.52994728 -10.21671104 5.678602219
-13.43479919 -8.524128914 0.3708760142
-14.62816715 -9.183011055 0.9207701683
-16.4633007 -10.22271919 2.26155448
-19.90589142 -12.14229393 3.373598576
-15.42375088 -9.588433266 3.418298244
-13.26968002 -8.358496666 3.595585108
-16.68291283 -10.22587681 5.712578773
-13.37457657 -8.431517601 0.3724018931
-14.73022366 -9.173047066 0.9201399684
-16.57585526 -10.21007824 2.267242432
-20.03196335 -12.12123585 3.383075953
-15.46309471 -9.54295826 3.418768644
-13.37495041 -8.356092453 3.611096859
-16.75292015 -10.21729565 5.018653393
-16.81586838 -10.22670555 5.74111414
-13.46006775 -8.417969704 0.3693774939
-14.77822113 -9.132306099 0.9190099239
-16.69897461 -10.20258617 2.273840904
-15.50035667 -9.49269104 3.418576241
-13.46660042 -8.345428467 3.623689651
-16.8883934 -10.21521378 5.043025494
-16.8963604 -10.19391727 5.753590584
-13.51064491 -8.384541512 0.3674256504
-14.90664673 -9.135812759 0.9185789824
-16.825737 -10.19627857 2.280727148
-15.54785919 -9.447990417 3.420138359
-13.56178761 -8.336109161 3.636991024
-17.04805374 -10.22541714 5.073405266
-17.07715416 -10.21539879 5.795472622
-13.5453825 -8.342191696 0.3659556806
-15.04579639 -9.144286156 0.9182164669
-16.96489716 -10.19590282 2.288673878
-15.59524155 -9.403059006 3.421691895
-13.65707684 -8.326216698 3.65027523
-17.12387276 -10.18899345 5.08265543
-17.19868469 -10.20348167 5.81987524
-13.59403324 -8.307341576 0.3640418947
-15.1008358 -9.106061935 0.9171056747
-17.09550476 -10.18990898 2.295823097
-20.13337135 -11.81530857 3.369320869
-15.63553429 -9.354142189 3.422064066
-13.7767067 -8.328812599 3.668611288
-17.25984764 -10.18453503 5.106958866
-17.31693268 -10.18899441 5.843259335
-13.50716496 -8.199069023 0.3663433194
-15.33393288 -9.166987419 0.9175745845
-17.221138 -10.18423176 2.302716494
-20.22412109 -11.77313137 3.374244452
-15.66347218 -9.298503876 3.420377254
-13.87786484 -8.323820114 3.683368921
-17.43219757 -10.19853973 5.140274048
-17.47120667 -10.19289684 5.877084255
-13.65105343 -8.218501091 0.3614590466
-15.40149307 -9.134177208 0.9165317416
-15.70371723 -9.252950668 3.421098948
-13.9769783 -8.313949585 3.697323084
-17.53242874 -10.17708397 5.156000137
-17.59837914 -10.18535995 5.90348959
-13.72234821 -8.195242882 0.3588054776
-15.57359123 -9.159910202 0.9164227247
-17.57079697 -10.24045849 1.628701806
-17.60483932 -10.23675728 2.327766418
-17.59068871 -10.20345879 3.02616787
-15.74704647 -9.205389023 3.422035933
-14.07488728 -8.305938721 3.711322546
-17.68451118 -10.17829227 5.184101105
-17.71875763 -10.16949368 5.927304745
-14.10186481 -8.337159157 0.3465208113
-15.55806828 -9.082253456 0.9146668315
-17.61410904 -10.18866444 1.627798319
-17.62687874 -10.16965675 2.325266361
-15.79579258 -9.164059639 3.424206495
-14.17595005 -8.295791626 3.725603104
-17.84730721 -10.18798256 5.21526289
-17.8771534 -10.17653465 5.962625027
-14.38279629 -8.42131424 0.3372683525
-15.55496025 -9.014918327 0.9130977988
-20.45943069 -11.54241467 3.378329039
-15.81602955 -9.104244232 3.421325207
-14.29328346 -8.296563148 3.743542671
-17.95646286 -10.16489124 5.23256588
-14.39694214 -8.36810112 0.3363748193
-15.68266392 -9.012042999 0.9124919176
-31.47101784 -17.22150803 2.277938843
-20.46844864 -11.45629311 3.372919083
-15.8486805 -9.054396629 3.420850277
-14.39458179 -8.28513813 3.75778532
-14.50286102 -8.35898304 0.3325688243
-15.75003052 -8.977351189 0.9113874435
-31.48527145 -17.08963203 2.273094416
-31.33392525 -16.96619415 3.498066664
-20.5318985 -11.40278244 3.374734402
-15.89494133 -9.0079422 3.422343016
-14.51351357 -8.2820158 3.775619984
-18.2551918 -10.16146469 5.287374973
-14.53229904 -8.310175896 0.3311492503
-16.41815758 -9.247694016 0.9149301052
-31.49542809 -16.9560318 2.268079281
-31.56606483 -16.94612312 3.510419846
-20.56869316 -11.33098698 3.372880936
-15.93930626 -8.960370064 3.423535347
-14.60976601 -8.266638756 3.788741827
-18.42400742 -10.16598988 5.319205761
-14.62402439 -8.292813301 0.3277605176
-16.46683311 -9.20026207 0.9135963321
-31.50461197 -16.77656937 3.497456551
-20.60523605 -11.25906563 3.371020555
-15.97291851 -8.907268524 3.422968149
-14.7166481 -8.255955696 3.804010391
-14.67954826 -8.253539085 0.3254701495
-16.53147888 -9.160634995 0.9123749733
-31.5636692 -16.6682415 3.494909286
-20.64333344 -11.18340874 3.369059801
-15.99926758 -8.850511551 3.421227932
-14.83950138 -8.252474785 3.822503805
-14.69072819 -8.195187569 0.3245902956
-16.62293243 -9.133970261 0.9113419056
-31.44543457 -16.47209167 3.47721839
-16.03745651 -8.796111107 3.421159267
-14.95545197 -8.244757652 3.839533567
-14.70759773 -8.142943382 0.3235487044
-16.66413116 -9.082093239 0.909923017
-31.61621857 -16.41929626 3.484284639
-16.07803345 -8.749759674 3.422103643
-15.07329941 -8.237181664 3.856901884
-19.05962563 -10.15293503 5.435932159
-14.82075405 -8.134572029 0.3194290102
-17.01304626 -9.183498383 0.9108123779
-19.11029816 -10.22629356 1.669476748
-19.09998894 -10.19774246 2.412420034
-19.10371399 -10.17180824 3.159267187
-16.12875938 -8.704717636 3.424422741
-15.17049122 -8.222121239 3.870357513
-19.18560219 -10.1310854 5.45690012
-14.95256615 -8.137677193 0.314730525
-17.04364967 -9.124958038 0.9092729092
-19.09801674 -10.14198685 1.665836096
-19.1217041 -10.12578869 2.409762859
-19.11470032 -10.09467602 3.154860973
-16.18157005 -8.663956642 3.427388906
-15.29389381 -8.215713501 3.888764858
-19.31179047 -10.11268711 5.478361607
-5.097079277 -3.325411081 2.232986212
-15.02273273 -8.107103348 0.3119377196
-17.18411255 -9.118934631 0.9085020423
-20.88204384 -10.85932255 3.367791176
-16.20883942 -8.607355118 3.42590785
-19.48514175 -10.13626575 4.730203629
-19.46619797 -10.10267544 5.506134033
-20.58356285 -10.56891727 7.462757587
-17.30847359 -9.104324341 0.9075924754
-31.92979813 -16.07596588 2.24517107
-31.72368622 -15.93220425 3.464030981
-20.85397339 -10.75209332 3.357807159
-16.22875214 -8.547282219 3.423258781
-19.63876724 -10.12494755 4.752866268
-19.66132927 -10.10648918 5.543202877
-20.77275085 -10.56884289 7.510985374
-17.43113136 -9.088089943 0.906647265
-31.90217018 -15.91969109 2.238314629
-31.57404327 -15.72640705 3.444109917
-20.97850609 -10.72131252 3.366960287
-16.27847099 -8.497713089 3.425179958
-19.76758194 -10.10104465 4.770468712
-19.85689545 -10.11329079 5.580752373
-20.92385483 -10.54989052 7.546792507
-17.42152023 -9.009505272 0.9047890902
-21.10308266 -10.68977833 3.376089811
-16.32538414 -8.453589439 3.427241564
-19.9107666 -10.08294487 4.790920734
-20.00142097 -10.09948826 5.606384277
-17.86561203 -9.140459061 0.9059397578
-31.7316246 -15.53058147 3.442841768
-21.13567734 -10.61968613 3.374242783
-16.3591156 -8.399785995 3.426897526
-20.0952301 -10.08276558 4.81960535
-20.14592743 -10.08049774 5.631469727
-20.2328434 -10.08996105 6.468583584
-18.29445457 -9.260931015 0.9069014788
-32.15361023 -15.63535595 2.234052896
-31.40726471 -15.24816704 3.408579111
-16.37825584 -8.339290619 3.424226284
-20.28890228 -10.08546448 4.850049496
-20.31192017 -10.07024956 5.66165638
-20.34845543 -10.05645847 6.489986897
-18.36177826 -9.214373589 0.9054564834
-31.59731483 -15.20171833 3.417320013
-21.20353317 -10.47177696 3.370334625
-16.41522408 -8.286872864 3.424450636
-20.47745705 -10.08450603 4.879381657
-20.50127792 -10.06932735 5.697364807
-20.50655937 -10.04119587 6.523249149
-18.35783386 -9.135525703 0.9035491347
-20.59412575 -10.13552761 2.496957302
-20.61645889 -10.12014675 3.292951822
-16.45202065 -8.234291077 3.424667358
-20.60152817 -10.05358696 4.895770073
-20.63908005 -10.04424381 5.720655441
-5.321762085 -3.251408815 2.273246765
-21.57931328 -10.39620399 7.692798138
-18.24572754 -9.008899689 0.9009722471
-20.62075806 -10.09065628 1.705142856
-20.62275696 -10.06193829 2.494745493
-20.65240288 -10.0496788 3.291479588
-16.46331024 -8.170350075 3.420823336
-20.75984764 -10.03696918 4.918943882
-20.83242798 -10.04264641 5.757151127
-5.324762821 -3.23044014 2.271267653
-21.58139229 -10.30678654 7.680672646
-18.24828339 -8.933913231 0.8991205096
-20.7003212 -10.03960896 1.705335498
-20.72414207 -10.0203886 2.498556376
-20.83737564 -10.04456043 3.308054924
-16.55413055 -8.141312599 3.429709911
-20.98324394 -10.04766273 4.954985142
-21.05827522 -10.05382919 5.801290512
-5.349021912 -3.21872282 2.275222301
-21.73114395 -10.2813673 7.715742588
-18.27848244 -8.874984741 0.897529304
-32.57244873 -15.15132332 2.226696491
-32.43965149 -15.04671383 3.459000111
-21.01184082 -10.03797913 3.323593855
-16.6709156 -8.126440048 3.442995071
-21.16561508 -10.04344749 4.983205795
-21.23438454 -10.04639912 5.8339715
-22.30883026 -10.47601986 6.980918884
-22.08757401 -10.34790897 7.817165852
-18.51549339 -8.901589394 0.8970627189
-32.61112595 -15.03277874 2.223177433
-21.21001053 -10.03606606 3.341640472
-16.81815338 -8.120426178 3.460805893
-21.34799957 -10.03361511 5.010935307
-21.42128754 -10.03798771 5.86865139
-22.50329971 -10.46611118 7.023314476
-22.30146027 -10.34687328 7.872375011
-18.62420654 -8.87156105 0.89580369
-21.36636734 -10.01494789 3.354597092
-16.95280647 -8.108056068 3.47656703
-21.51608467 -10.01648045 5.035768509
-21.61919785 -10.03294468 5.905853748
-22.70869446 -10.4594698 7.068636417
-22.51208115 -10.34296989 7.926421165
-19.46397972 -9.15068531 0.8986966014
-26.14839554 -11.97873974 2.923889399
-21.44226456 -9.958813667 3.357865572
-17.10400009 -8.101741791 3.494900703
-21.70064354 -10.00513744 5.063787937
-21.81734085 -10.0266304 5.943018436
-22.91254044 -10.45076752 7.113426208
-22.71408844 -10.33403206 7.977620602
-19.38611412 -9.04199028 0.896374166
-26.14538002 -11.9072361 1.926086307
-26.22196579 -11.90737438 2.924559116
-21.47768211 -9.885386467 3.356293678
-17.25170135 -8.092934608 3.512628317
-21.91285706 -10.00852108 5.097593784
-22.01932335 -10.02053833 5.980997086
-5.209498405 -3.052698374 2.223386526
-22.89865685 -10.32123375 8.023840904
-19.38899422 -8.967705727 0.894513309
-22.00601768 -10.07906342 1.742547631
-22.03955078 -10.06607342 2.579250336
-21.52964401 -9.823188782 3.357007265
-17.39097214 -8.083204269 3.529256582
-22.10895729 -10.00385284 5.128145695
-22.20726013 -10.01183891 6.01606226
-5.229305744 -3.040502071 2.226375818
-11.59148026 -5.624940872 4.444518089
-19.60009956 -8.975420952 0.8936813474
-22.03271484 -10.00451565 1.740423322
-22.04576492 -9.978429794 2.575084686
-21.58326721 -9.761504173 3.35793066
-17.53403091 -8.074126244 3.546435595
-22.31417465 -9.997059822 5.159986019
-22.40444183 -10.0056715 6.053220749
-5.233299255 -3.02073431 2.224895716
-11.52460861 -5.55057478 4.417071342
-19.49111748 -8.851101875 0.8911078572
-26.09667206 -11.57696247 1.912097096
-26.10182571 -11.54181767 2.898456335
-21.6456356 -9.698773384 3.359616756
-17.68582535 -8.064063072 3.564657688
-22.51779175 -9.988203049 5.191429615
-22.63245392 -10.00601292 6.097041607
-23.78248405 -10.43350506 7.307709694
-11.41456509 -5.45965147 4.37618351
-19.63557625 -8.83022213 0.889877677
-26.18710518 -11.47001648 2.899872541
-21.68016624 -9.624587059 3.358011246
-17.84511375 -8.055972099 3.584002018
-22.71431732 -9.975114822 5.221407413
-22.83170319 -9.993300438 6.134016514
-23.79468727 -10.34164524 7.299542904
-11.38972569 -5.403430939 4.362214088
-19.78198242 -8.809177399 0.8886293769
-26.14479828 -11.38411427 1.906057358
-26.1092186 -11.33263206 2.888159513
-21.71226883 -9.545006752 3.355858803
-18.00824356 -8.048311234 3.603891134
-22.93298912 -9.969449997 5.255625725
-23.04366684 -9.979580879 6.173394203
-24.24124908 -10.41559887 7.409553051
-11.41648102 -5.367722988 4.364495277
-20.06190109 -8.835949898 0.8879187107
-26.09026909 -11.25138283 1.899501681
-26.10297775 -11.21924114 2.88199234
-21.77216721 -9.480766296 3.357295275
-18.1525383 -8.0284729 3.620500326
-23.14984703 -9.956885338 5.288980007
-23.25423241 -9.968493462 6.212839127
-24.46293259 -10.40369606 7.458494663
-11.45466423 -5.334037781 4.370077133
-20.40979958 -8.891298294 0.8875857592
-23.4290657 -10.10119629 1.782492042
-23.32138252 -10.02571297 2.654018879
-21.81335831 -9.408988953 3.356538057
-18.32150078 -8.02090168 3.641189814
-11.72212029 -5.439741135 3.062658787
-23.47047997 -9.958157539 6.253517151
-11.77338219 -5.427453518 3.992591143
-11.41486454 -5.272625446 4.351631641
-20.87626457 -8.994199753 0.887857914
-23.34191132 -9.97303772 1.77522397
-23.34239006 -9.94469738 2.651172161
-21.86173439 -9.339896202 3.356644869
-18.47585678 -8.00655365 3.659549236
-11.72814465 -5.397259712 3.05981946
-23.69424629 -9.949207306 6.295851231
-11.63284683 -5.328994274 3.949180841
-11.54277325 -5.27751255 4.385858536
-21.79922295 -9.268956184 0.8901893497
-26.11730385 -10.9200964 2.867674351
-21.88427734 -9.26516819 3.354014635
-18.64388275 -8.000104904 3.680263281
-11.69169521 -5.338727951 3.048793316
-23.90201378 -9.937458038 6.334861755
-11.84188461 -5.363424778 4.000793934
-11.6690464 -5.28092289 4.419502735
-21.85633469 -9.203504562 0.8882415891
-26.13576317 -10.85970783 1.885892272
-26.2194519 -10.85432148 2.870518684
-21.92144203 -9.19601059 3.353120804
-12.47779369 -5.605110645 2.719983339
-11.86580753 -5.357319355 3.078266859
-24.109972 -9.924431801 6.37383461
-11.93583775 -5.351071835 4.020820141
-11.52804089 -5.181899548 4.369722843
-22.5947113 -9.393864632 0.8893510699
-26.17046356 -10.76842022 1.883399248
-26.06752396 -10.69258118 2.853220701
-21.98031616 -9.130536079 3.354506493
-18.98723984 -7.982851505 3.722368479
-12.23391819 -5.446712971 3.145036459
-10.89144897 -4.934331417 3.30674839
-11.71883011 -5.223426342 3.956718683
-11.53428364 -5.138203621 4.365823269
-22.64858055 -9.324048042 0.8872986436
-26.10175133 -10.60149479 2.850728512
-22.00171471 -9.050942421 3.35153532
-19.15142822 -7.967836857 3.742037058
-11.98393631 -5.306147099 3.092695951
-10.90939808 -4.897555828 3.30655241
-11.85984802 -5.228230476 3.98952198
-11.51690006 -5.085994244 4.354654312
-22.52392197 -9.188352585 0.8844681978
-24.62651253 -9.990439415 1.811361551
-24.63989067 -9.960404396 2.730297804
-19.3101635 -7.949727535 3.760814667
-10.90996456 -4.868144035 2.882354975
-24.82032967 -9.888962746 6.508260727
-11.89422512 -5.191199303 3.99324131
-11.52820492 -5.044351101 4.352430344
-22.53203011 -9.102196693 0.8822214007
-24.65975952 -9.900125504 1.808882833
-24.67155838 -9.874308586 2.727934599
-12.51779079 -5.418627262 2.711127758
-10.92396545 -4.829976559 2.881306887
-26.35194016 -10.3391943 6.850960732
-11.85103512 -5.1287117 3.976374626
-11.67145443 -5.049622059 4.390985966
-22.74492455 -9.089924812 0.8808130026
-26.06363106 -10.27758026 2.832313299
-22.1554184 -8.840205193 3.352889299
-12.41358376 -5.334441662 2.691683769
-12.12285805 -5.213181496 3.10697794
-13.656147 -5.741321564 3.924734592
-11.87810993 -5.09380722 3.978728056
-11.62464905 -4.987088203 4.370872021
-22.63629532 -8.96616745 0.8781914115
-26.04591942 -10.17367744 2.826107025
-22.20811081 -8.77593708 3.353894472
-12.43851376 -5.294329166 2.691916943
-11.96650505 -5.112785816 3.073241234
-13.6456213 -5.683826923 3.917071819
-11.57863712 -4.927591324 4.351381302
-22.65487099 -8.883820534 0.8759735227
-26.07833099 -10.08267689 2.823597193
-22.25448799 -8.704891205 3.353916883
-12.45320225 -5.253008842 2.690777063
-12.04458046 -5.092914581 3.084137678
-11.02430916 -4.724081039 3.311913252
-12.0518198 -5.062641621 4.015265465
-11.63477516 -4.901391983 4.363099575
-22.6151123 -8.785647392 0.8736451268
-25.98775291 -9.985660553 1.848920226
-25.94306564 -9.938382149 2.808295488
-22.2955246 -8.636206627 3.353604794
-12.33380318 -5.162920952 2.669023991
-11.18946934 -4.753695488 2.917579174
-10.47754765 -4.49343729 3.182760954
-12.11616135 -5.037353039 4.027346611
-11.6701622 -4.870093822 4.368724823
-22.74080849 -8.740589142 0.8718234301
-25.9592762 -9.879191399 1.844151855
-25.98597145 -9.851636887 2.806666613
-11.60424328 -4.882050514 2.120394945
-11.84229279 -4.949106216 2.590875864
-11.21611786 -4.718988895 2.9189744
-10.57110214 -4.486222267 3.200388908
-12.45529938 -5.106824398 4.113045216
-11.58055687 -4.794337273 4.335798264
-22.87729263 -8.693984985 0.8698999882
-26.01068306 -9.785275459 1.842078567
-26.02636909 -9.758875847 2.804610252
-11.9220829 -4.942204475 2.153961897
-11.8598299 -4.904185295 2.589898109
-11.36274338 -4.72232914 2.942960501
-10.68146801 -4.47779417 3.221223116
-12.23997021 -4.981598854 4.049939632
-11.61702156 -4.759004593 4.341308117
-24.55336761 -9.169366837 0.8734472394
-26.00222206 -9.68618679 1.838153601
-26.03464508 -9.660308838 2.800332308
-12.31332874 -5.0268507 2.195932388
-11.76618385 -4.829065323 2.572566986
-11.17822933 -4.616776466 2.904360533
-10.68980408 -4.441052914 3.219392538
-12.28875542 -4.952421665 4.058121204
-11.22382069 -4.584774494 4.215867996
-24.54790878 -9.07228756 0.8709467053
-26.01387024 -9.589047432 1.834866285
-26.01415825 -9.552357674 2.793862343
-12.28555679 -4.972207069 2.190055609
-11.84016895 -4.807768345 2.580532789
-11.17639256 -4.572758198 2.900444746
-10.64846897 -4.386012554 3.206114054
-12.31238937 -4.912398338 4.059373856
-11.2497673 -4.5496068 4.218675137
-24.51358223 -8.965967178 0.8683523536
-25.99289131 -9.481285095 1.830281496
-26.01028824 -9.450263023 2.788707495
-12.34707642 -4.94473505 2.194241762
-11.97814369 -4.806862354 2.598156691
-11.15753174 -4.523331165 2.893348217
-10.63850403 -4.341527939 3.200013876
-12.07009315 -4.786714077 3.990097046
-11.23719311 -4.501996994 4.209777832
-24.58012009 -8.897666931 0.8662114739
-25.99997902 -9.383076668 1.826839089
-26.00453949 -9.352837563 2.78367877
-11.3699379 -4.58082962 2.080327749
-12.06349754 -4.78804636 2.607792377
-11.07972145 -4.457381725 2.87536025
-12.28211021 -4.825440884 3.568334341
-12.56255054 -4.896646976 4.115716934
-11.20547104 -4.450687885 4.195368767
-24.57169533 -8.800236702 0.8637012839
-25.98049927 -9.281481743 1.822535872
-25.99990082 -9.251008034 2.778523684
-11.2332201 -4.493254662 2.062239647
-11.97463799 -4.715534687 2.591329336
-10.95529938 -4.375193596 2.848507166
-11.79196453 -4.625653744 3.45339632
-12.41882133 -4.805439949 4.072950363
-11.22549152 -4.413731575 4.196497917
-24.84172249 -8.796283722 0.8621525764
-25.98302841 -9.182258606 1.818940163
-26.00101852 -9.156266212 2.774076223
-11.64145947 -4.581193447 2.106076002
-10.95945168 -4.336433411 2.846076965
-11.78091431 -4.576819897 3.446764708
-12.34128952 -4.735945225 4.047821999
-11.86876297 -4.571578979 4.386911392
-24.84295082 -8.706115723 0.8597712517
-25.9837513 -9.087651253 1.815469861
-25.98085976 -9.055040359 2.768032074
-12.40533447 -4.777338982 2.189958334
-12.41470242 -4.762589455 2.651189804
-10.96534729 -4.298268318 2.843998432
-11.75593853 -4.526134491 3.437244654
-12.31719208 -4.683515549 4.03689003
-11.29700279 -4.35358429 4.208870411
-24.86048508 -8.616429329 0.8573096991
-25.98222351 -8.992537498 1.811923265
-25.9731617 -8.953054428 2.762732744
-11.87881851 -4.552690506 2.567787409
-10.95100021 -4.251849174 2.837987185
-11.79434872 -4.495029449 3.442040682
-12.29540539 -4.629703522 4.026391029
-11.24865818 -4.295706272 4.189404488
-25.10906792 -8.597635269 0.8554691672
-25.97983551 -8.892402649 1.808173418
-25.97842216 -8.855303764 2.758446455
-11.59291458 -4.436977863 2.093122721
-11.87462711 -4.505979538 2.564069033
-10.9289217 -4.203296661 2.830569029
-11.82769966 -4.459950924 3.445508957
-12.33656025 -4.595001698 4.032511234
-11.1669035 -4.228336811 4.159938812
-25.1893692 -8.526209831 0.8531403542
-25.95030022 -8.784252167 1.803375006
-25.98522186 -8.758198738 2.75430274
-11.69100285 -4.422260284 2.101612806
-11.87594414 -4.461051941 2.561201096
-11.04813671 -4.197140694 2.849563122
-10.38582993 -3.986576796 3.117980719
-12.34414577 -4.550161362 4.029829025
-11.1474762 -4.180010796 4.149387836
-25.18516159 -8.42911911 0.8505836725
-25.95477867 -8.686740875 1.799925208
-25.98019218 -8.657721519 2.749290466
-11.49368858 -4.319066048 2.076940775
-11.17084789 -4.207195759 2.453039169
-11.09945393 -4.170174599 2.855864048
-10.35362816 -3.93757844 3.107287169
-7.905451298 -3.20825386 2.861026525
-7.904444695 -3.196269035 3.168086529
-25.95996666 -8.567049026 0.8500282764
-25.95697784 -8.588729858 1.796398997
-25.97151947 -8.561341286 2.74426198
-11.53430271 -4.287295818 2.079011202
-7.879431725 -3.182222605 2.550339222
-7.885721207 -3.172527313 2.852922678
-7.893784523 -3.164675951 3.161788464
-7.85126543 -3.190449238 0.8056868911
-7.91402483 -3.205925703 1.382437825
-7.894191742 -3.188985586 1.66976583
-7.873829842 -3.173382282 1.957610607
-7.878230572 -3.16337204 2.251147985
-7.885250092 -3.15549159 2.549178362
-7.8840909 -3.143650532 2.849740982
-7.896345615 -3.135460377 3.159340382
-7.86934042 -3.177038431 0.5190862417
-7.855360031 -3.161938906 0.8049020171
-7.895794392 -3.181858301 1.092333317
-7.87223196 -3.163956404 1.377917171
-7.873140335 -3.154570818 1.665824652
-7.889451027 -3.148021936 1.957960963
-7.872972488 -3.132059574 2.247908115
-7.89890337 -3.129491806 2.549656391
-7.903296471 -3.119193554 2.851885796
-7.922856808 -3.112969398 3.164108038
-7.881043911 -3.150679111 0.5181759
-7.868969917 -3.136157036 0.804136157
-7.871057987 -3.144973516 1.090294957
-7.874381542 -3.134823322 1.3767066
-7.86956501 -3.123813152 1.663766026
-7.887835503 -3.117761135 1.955767035
-7.892241955 -3.107702255 2.249233961
-7.884213924 -3.095561028 2.543836594
-7.920557022 -3.094113827 2.853538513
-7.927079201 -3.084201574 3.162210941
-7.876717091 -3.108690977 0.8033556938
-7.861551762 -3.112619877 1.088851094
-7.887952805 -3.108926773 1.376355648
-7.875449181 -3.09577775 1.662772059
-7.914729118 -3.095470667 1.957804918
-7.932319164 -3.088994026 2.254416943
-7.905213356 -3.071596622 2.545989037
-10.78761673 -3.846934319 3.59751153
-11.62327385 -4.057884693 4.264841557
-7.854489803 -3.082516193 0.5180265307
-7.882441998 -3.080664635 0.8025695682
-7.878878593 -3.087839127 1.088438153
-7.884130001 -3.078187466 1.374712825
-7.912299156 -3.074776173 1.66514039
-7.932011604 -3.070410252 1.958427429
-11.01994705 -3.898803949 2.82228756
-10.43907547 -3.725770712 3.106140137
-12.21475124 -4.188268661 3.964716196
-11.69399452 -4.033081532 4.281429291
-7.904433727 -3.066728354 0.5157870054
-7.901948452 -3.054929256 0.801766932
-7.906147003 -3.064223289 1.088348746
-7.922915459 -3.057647228 1.376177073
-11.04682064 -3.894049644 2.010506392
-10.91887379 -3.828258514 2.800448418
-10.43589115 -3.685714245 3.102165699
-10.89153385 -3.791364431 3.616734743
-12.54005909 -4.210165501 4.529121399
-25.90888405 -7.864006996 0.8314275742
-25.94473457 -7.900274277 1.771013975
-25.94737816 -7.864433289 2.710762024
-11.05924892 -3.855957031 2.009617329
-11.06882 -3.842788696 2.415985823
-10.7331543 -3.738254547 2.763265371
-10.35122776 -3.624328852 3.080179214
-10.94502258 -3.764527798 3.626843929
-11.63504505 -3.927802563 4.254648685
-26.02654457 -7.803215027 0.8291228414
-25.9710331 -7.810189724 1.768499136
-26.05729103 -7.801305771 2.714720249
-11.03308105 -3.807685137 2.004482985
-11.07919025 -3.8040905 2.414879799
-10.74460888 -3.70308876 2.762596369
-10.3552351 -3.586636543 3.077887774
-10.94774246 -3.724275827 3.623801947
-11.66957092 -3.895300865 4.260744572
-11.00286102 -3.75863409 1.998929501
-11.05632591 -3.758872271 2.409047127
-10.7621603 -3.667469978 2.762921095
-10.42115974 -3.566750765 3.089458466
-10.95545197 -3.687393904 3.622273207
-11.7324934 -3.867621422 4.275081635
-68.11334991 -18.46790123 0.882812202
-27.37792397 -7.985210419 1.814454436
-27.49694824 -7.982400894 2.812196255
-11.00661659 -3.720626354 1.997247577
-11.00883675 -3.705559492 2.399510622
-10.76765633 -3.630744457 2.761196613
-10.49133301 -3.545580387 3.101799488
-11.03880692 -3.667429209 3.640138865
-11.8190794 -3.847644329 4.296662331
-27.52917099 -7.927014351 1.816626906
-12.33864975 -4.03325367 1.694040298
-11.00687313 -3.679729223 1.995086193
-11.14115143 -3.699864626 2.416431427
-10.75822067 -3.58831358 2.756618738
-12.42305183 -3.988404274 3.524383068
-11.01807499 -3.623278379 3.631307602
-11.75687885 -3.788383245 4.273888588
-68.08488464 -17.95479774 0.8689667583
-12.34959793 -3.990154028 1.692801952
-11.07018375 -3.656634808 1.999954104
-11.16832542 -3.665196657 2.41783762
-10.68360806 -3.529990673 2.740160227
-12.5366354 -3.970041513 3.545703411
-11.01461887 -3.581501484 3.626797438
-11.61033916 -3.709270716 4.226229668
-28.38480186 -7.93463707 1.84104991
-28.37990379 -7.893458843 2.863125086
-11.46232414 -3.711702347 2.04065156
-11.06071568 -3.597549438 2.399609327
-10.72163391 -3.499580622 2.744323969
-11.8402319 -3.755698919 3.389031649
-11.22986794 -3.592212439 3.678631306
-11.56808853 -3.656148434 4.209572315
-29.01007652 -7.958589554 0.8165293932
-29.02286339 -7.985276699 1.860885024
-28.47098923 -7.815763474 2.865363359
-11.07586765 -3.575964928 1.996248364
-11.0259428 -3.548253775 2.392050266
-10.95066738 -3.516551495 2.783444405
-11.90939617 -3.728273153 3.400782108
-11.10354137 -3.520836592 3.642539501
-29.04240417 -7.888075352 1.857964277
-28.52814865 -7.724200249 2.864895344
-11.10074234 -3.540940285 1.996817589
-11.07143688 -3.520295143 2.396313667
-11.00595093 -3.489069223 2.790712833
-12.30560493 -3.779084444 3.484370232
-11.07277012 -3.474694729 3.631280899
-11.63036728 -3.587066889 4.220004559
-36.42643738 -9.493836403 0.8165262341
-36.12285995 -9.457965851 2.114161015
-28.83746529 -7.691764832 2.882755518
-11.15990257 -3.515882015 2.001227856
-11.50886345 -3.581271887 2.45731616
-11.00361729 -3.447913885 2.787507772
-11.63916969 -3.580313683 3.335019588
-11.01011658 -3.419502258 3.611724138
-11.69627285 -3.559115648 4.235402584
-36.4426651 -9.399470329 2.121124506
-29.2265892 -7.675717354 2.906328201
-11.19428158 -3.482693911 2.00283432
-11.61291122 -3.56270957 2.469853401
-11.02225494 -3.411616802 2.788136244
-11.6639843 -3.543046474 3.337176561
