# .PCD v0.7 - Point Cloud Data file format
VERSION 0.7
FIELDS x y z
SIZE 4 4 4
TYPE F F F
COUNT 1 1 1
WIDTH 1316
HEIGHT 1
VIEWPOINT 0 0 0 1 0 0 0
POINTS 1316
DATA ascii
-26.671875 -1.844934464 7.301650524
-27.2206459 -1.827963829 8.451119423
-22.09840393 -1.777277589 0.6783850193
-41.15779877 -2.566530228 2.024172068
-25.17971039 -1.884092331 2.425050497
-25.10673714 -1.844984055 3.302581072
-23.13926697 -1.74153471 3.924395323
-25.48171616 -1.789250731 5.15205431
-25.06859589 -1.742247701 5.98749733
-25.90067101 -1.731470942 7.109752178
-27.2822876 -1.734451652 8.464398384
-38.46243668 -2.291053772 0.5933528543
-39.34954071 -2.355858564 1.965402365
-25.08543015 -1.792709351 2.415967464
-25.10601044 -1.761537313 3.299587011
-25.31765366 -1.694928765 5.120613575
-25.03866959 -1.653584123 5.97786665
-27.8153019 -1.695371747 7.573165894
-27.52837753 -1.645515919 8.529623032
-20.3888855 -1.567127228 0.6824222803
-39.20864868 -2.213648558 1.956769705
-25.08058739 -1.704865336 2.412718296
-31.03284073 -1.855941057 3.888830662
-26.79048729 -1.686564922 4.412584305
-25.28526878 -1.605442524 5.111785412
-24.88704872 -1.561917186 5.94309473
-25.56727982 -1.541726708 7.021217823
-38.63507462 -2.027452707 0.5841073394
-41.40916061 -2.142599106 2.017733574
-25.04550934 -1.616219282 2.4075315
-24.87720108 -1.579749942 3.270681143
-26.68250465 -1.590094209 4.394660473
-25.42994881 -1.520502687 5.133273602
-24.85060692 -1.473987341 5.93226862
-25.58169746 -1.452530026 7.021262646
-38.67073822 -1.893483043 0.5797175765
-39.62478638 -1.950740576 1.96028173
-26.34292412 -1.561179399 2.488400459
-24.84984398 -1.492149353 3.264988184
-24.96914291 -1.458604097 4.15997839
-25.18407822 -1.426440477 5.088083267
-24.98617363 -1.389679551 5.957098961
-27.90592003 -1.404875398 7.58391571
-38.8117485 -1.768398762 0.5749462247
-39.3185463 -1.805335522 1.94681859
-26.36110306 -1.4741503 2.486693382
-24.85003281 -1.405316472 3.262071848
-25.03868103 -1.372626424 4.166337967
-25.13684845 -1.341946125 5.077054501
-25.06858635 -1.303591847 5.970963478
-25.64069557 -1.274318099 7.028901577
-38.96048737 -1.635753155 0.5698834062
-39.34942627 -1.675523996 1.943554044
-26.34716225 -1.381822467 2.482780695
-24.73649788 -1.316586494 3.247871637
-26.2553215 -1.30831182 4.327528
-25.11504745 -1.253747225 5.070265293
-24.99198151 -1.219315648 5.952162743
-25.7590332 -1.190409184 7.054594517
-39.07076645 -1.501496315 0.564999342
-39.70381546 -1.543886423 1.949539542
-26.32890701 -1.289541006 2.478611469
-24.50317001 -1.231348634 3.221965313
-26.2926445 -1.217002749 4.329453945
-25.13433266 -1.166145802 5.070531845
-25.49098396 -1.13649869 6.052161217
-26.45044899 -1.105604053 7.219521046
-18.72437096 -1.123970032 0.6788711548
-39.29814529 -1.400148034 1.933296084
-26.3143177 -1.197441578 2.474698782
-24.62782669 -1.14699626 3.231519938
-26.33757973 -1.125503421 4.332434654
-25.22626877 -1.078924417 5.083213329
-25.52161026 -1.047523022 6.055422783
-26.43616104 -1.013008237 7.212832451
-18.71499252 -1.061831594 0.6769764423
-40.00144577 -1.269449592 1.949359536
-26.35724258 -1.110494971 2.474635124
-24.66860199 -1.061238289 3.232758284
-26.24542618 -1.03301239 4.317009926
-25.12266922 -0.9947690964 5.062793732
-25.94367218 -0.959207654 6.13948822
-26.52451134 -0.9252255559 7.231312275
-18.17942238 -0.997007072 0.6782454252
-40.08053589 -1.137285233 1.947437644
-30.6531601 -1.042801023 2.746344805
-24.59760284 -0.9791620374 3.223084688
-25.51466179 -0.944674015 4.215983868
-25.11539841 -0.9113442898 5.058823586
-26.01479721 -0.8729429841 6.151310444
-26.52706146 -0.8370721936 7.22900629
-28.97140694 -0.9573922157 0.6103001237
-40.07321548 -1.00438118 1.943015814
-28.94913101 -0.9389641285 2.634397984
-24.44074631 -0.8975750804 3.204958916
-25.6498127 -0.8597601056 4.231409073
-25.18671799 -0.8277345896 5.068255424
-26.10326385 -0.7861326337 6.166748047
-28.1016407 -0.7398270965 7.608323574
-28.94341278 -0.8614213467 0.6074407101
-28.87607765 -0.8800423741 1.617144942
-28.88940811 -0.8430709839 2.627552271
-24.36123848 -0.8167619705 3.194531679
-25.46752739 -0.7755253315 4.20425415
-25.11580276 -0.7445433736 5.053557396
-26.3285675 -0.6976692677 6.210405827
-27.50693893 -0.6518431902 7.461086273
-28.96102142 -0.7502632141 0.6038125753
-28.88389969 -0.7741959095 1.614028335
-28.91314316 -0.7319816947 2.625566483
-26.57224274 -0.7115747929 3.409922361
-25.5604496 -0.681288898 4.213787079
-27.63930702 -0.6224523187 5.478868008
-28.92955971 -0.5712608695 6.742830276
-27.46382713 -0.5465451479 7.447369099
-19.8948307 -0.7283581495 0.6591449976
-29.0233078 -0.6722888947 1.614825726
-29.10617638 -0.6292297244 2.634656429
-26.52788544 -0.6146037579 3.402520418
-24.79677391 -0.6012405753 4.10874939
-27.49672127 -0.5277715921 5.451728344
-26.02988434 -0.5088330507 6.14302969
-26.89173317 -0.4551643133 7.305681705
-29.1463089 -0.5645042062 1.614972949
-28.81585693 -0.531337738 2.613101721
-26.33993149 -0.5246370435 3.381162882
-24.74831963 -0.5110221505 4.099498749
-26.07203674 -0.4170083702 6.149004936
-27.71867371 -0.3492901325 7.503431797
-27.21068954 -0.3176972866 8.394479752
-29.15910912 -0.4676670134 1.612301826
-28.93839836 -0.4337682128 2.617894411
-25.41341782 -0.4535726309 3.287363529
-24.8106575 -0.4276641905 4.105372429
-28.16090393 -0.3267511129 5.558679104
-25.9748764 -0.3325065076 6.126528263
-26.7884903 -0.2787835896 7.275535107
-17.76437759 -0.5641044974 0.667077899
-30.99229622 -0.2923001051 2.744469643
-25.16529655 -0.3744299114 3.260436535
-24.81325722 -0.345223546 4.103283882
-28.6560421 -0.2164389342 5.639666557
-25.9029007 -0.2480012178 6.109300137
-26.60032463 -0.1900662333 7.227394104
-19.27466011 -0.4681095183 0.6546812057
-31.01214981 -0.1835986376 2.742410898
-25.18347359 -0.2860539258 3.259592772
-25.47343826 -0.2413664311 4.188905716
-26.5152092 -0.1749234051 5.274547577
-25.92258644 -0.156810239 6.110840321
-26.55369568 -0.09836711735 7.213616848
-25.33862877 -0.1937082559 3.272203922
-27.50644302 -0.09246946126 4.457598209
-30.06489182 0.02757080644 5.872304916
-25.72655487 -0.07241613418 6.068160534
-26.5494957 -0.005548479501 7.210186481
-19.62697029 -0.3231517375 0.6478590965
-26.03685951 -0.1169318184 2.423286915
-25.2507267 -0.1079054698 3.261001348
-27.52565193 0.004347191658 4.457437992
-28.34932137 0.07370716333 5.579455376
-25.75737381 0.0187272504 6.072119713
-26.64599037 0.09101931751 7.231181622
-18.43359947 -0.2971979678 0.6543899179
-17.50221062 -0.3387908936 1.273172617
-26.23378563 -0.02390357293 2.433042288
-25.36942101 -0.01548232324 3.270059109
-31.73870468 0.2540792525 5.016047955
-28.01141739 0.1551954746 5.519850731
-25.68998146 0.1062551886 6.05599308
-26.68774986 0.1860466748 7.239003181
-25.98339844 0.05853161961 2.414625883
-25.43606567 0.07579330355 3.274030924
-29.38373184 0.265958488 4.699622154
-30.02188683 0.3361532092 5.85674715
-25.65964317 0.1904214174 6.047645569
-27.03816414 0.2903219759 7.321589947
-18.17723656 -0.1817979813 0.6522515416
-62.13925171 1.520988464 2.498438358
-25.97425652 0.1444627047 2.411493301
-25.99378967 0.1836069822 3.326100349
-25.98100471 0.2216249406 4.244141102
-30.10680771 0.4397858679 5.868517876
-25.72084618 0.283121556 6.058007717
-26.94911385 0.3808304965 7.29791832
-20.16868782 -0.03241347522 0.6351447701
-62.35477448 1.736454129 2.497972965
-26.0942688 0.2405483723 2.41630435
-25.74752617 0.263402015 3.2995224
-25.85075188 0.3019512594 4.224525452
-27.33474922 0.4119681716 5.398293018
-25.87388992 0.3762910366 6.08733654
-27.66771698 0.5071754456 7.469491482
-19.78593636 0.02024279349 0.6357982755
-31.61306381 0.5461912155 1.65132761
-25.59267616 0.3414823413 3.282052994
-25.31411362 0.3655931652 4.150856972
-26.52296257 0.4658583403 5.259082794
-26.11444664 0.4797008038 6.134511948
-27.5798893 0.5994109511 7.446229458
-18.78985977 0.03951346874 0.6413086653
-30.45374489 0.5995928049 1.616374016
-27.17850304 0.4781985581 2.478420019
-25.5447216 0.4285843968 3.274922609
-24.98521996 0.4366335273 4.104906082
-26.72923851 0.5701601505 5.291610241
-26.73023415 0.6059941053 6.258510113
-27.44516182 0.6883475184 7.411738873
-19.81693077 0.1602968425 0.6310588121
-63.01509094 2.425587177 2.495730877
-27.23350334 0.5763216019 2.479081869
-25.55013657 0.5183424354 3.273019552
-25.1094265 0.5312668681 4.119169235
-26.40743256 0.6450095773 5.235213757
-26.64325714 0.6945360899 6.238693714
-27.42465019 0.7833935022 7.404902458
-62.92344284 2.640972853 2.486493826
-29.3866272 0.7961038947 2.609852791
-34.36841202 1.128956199 4.127593994
-25.09870338 0.6186294556 4.115555763
-26.55394363 0.746715188 5.257757664
-26.60879326 0.7858282924 6.229692936
-27.4193325 0.8793186545 7.401811123
-62.73526382 2.850043058 2.474691153
-29.35512924 0.891972363 2.605106592
-34.38334656 1.25034976 4.125845432
-25.08371925 0.7056776285 4.111416817
-26.44449043 0.8280575871 5.237361431
-26.66200066 0.8827870488 6.238684177
-19.77096558 0.3619972467 0.6247604489
-17.86004639 0.2255961746 1.266081333
-29.4285717 0.9995933771 2.606723785
-34.9778595 1.410204172 4.180347443
-25.82836723 0.8394812346 4.208019257
-26.49584961 0.9244104028 5.243974686
-27.59679794 1.037432313 6.428006172
-31.69329262 1.229699731 0.5231104493
-17.82014847 0.2855238616 1.263108969
-30.20301628 1.150231004 2.65175581
-34.26733398 1.477430344 4.108465672
-26.51277161 0.9786771536 4.296454906
-26.38978195 1.005131721 5.224261284
-27.61784554 1.135936499 6.430476189
-31.69161797 1.340665221 0.5194804072
-31.6833744 1.314880967 1.629821897
-30.20782471 1.256519437 2.6490798
-34.23933792 1.595643401 4.10267067
-26.44941711 1.062410712 4.286022186
-26.23791122 1.086329341 5.196817398
-27.81083679 1.243043303 6.468216419
-18.01314545 0.4215581417 1.264515162
-28.46084023 1.22656846 2.538781404
-34.29473495 1.714079142 4.105134487
-26.5040741 1.159575343 4.291128635
-26.23360252 1.173602939 5.194324017
-27.88780785 1.34705317 6.482217312
-20.17657661 0.6638051271 0.6123610139
-28.06137085 1.295217395 2.511473179
-33.60311127 1.779366255 4.035271168
-26.43619156 1.242568135 4.280179977
-26.12446213 1.256835222 5.174184322
-27.8222065 1.434758663 6.467250347
-27.75367546 1.363746762 2.490021944
-33.61024857 1.892163277 4.033182621
-26.40522575 1.332910895 4.274049282
-26.0881424 1.34103775 5.166418076
-26.81095505 1.444215298 6.259280205
1.088170409 76.59588623 2.38595295
1.3724823 76.62742615 2.383633614
1.88455081 76.00473785 2.365484715
1.977502942 77.5065155 5.137957096
2.140600681 76.0460968 2.363802671
2.408970356 76.04222107 2.361106634
2.675689459 75.98944855 2.357460976
2.797486782 78.28128052 5.173988342
3.05772543 77.87211609 5.14909935
3.345721006 78.18437195 5.164237976
3.488453865 76.14917755 2.353297949
3.594818592 77.59786224 5.129730225
3.803236723 77.0832901 2.369871855
4.054652214 76.93851471 2.364698172
4.308927059 76.61650085 2.355875969
4.570831299 76.68968201 2.355216503
4.843300343 76.7052536 2.353326082
1.010209799 14.58338451 0.5578963757
1.066855073 14.61766338 0.556837678
1.121161819 14.61583233 0.5563177466
1.17713058 14.635746 0.5554761291
1.228985429 14.60163212 0.5554451942
1.278636694 14.54343224 0.555781126
1.334649324 14.59488773 0.5545011163
1.38869679 14.62024784 0.5536138415
1.442500234 14.61131763 0.5532191396
1.491436362 14.58056545 0.5531847477
1.53791678 14.49964333 0.5538902283
1.582616925 14.40665245 0.5547876358
1.642630339 14.46266937 0.5534231663
1.693130732 14.45315647 0.5530840755
1.751008511 14.48490047 0.5520915985
1.806102872 14.49060535 0.5514993072
1.864425659 14.49975681 0.5508314967
1.917431235 14.48719692 0.5505256057
1.967321515 14.45065117 0.5505936146
2.015871763 14.42619419 0.5505043864
2.060004234 14.36987495 0.5509129763
2.11960125 14.40814686 0.5498344898
2.162905931 14.32937145 0.5505778193
2.224414587 14.37911224 0.5493249297
2.28098321 14.39300537 0.5486318469
2.330481768 14.37744617 0.5484253764
2.378662348 14.35382175 0.5483488441
2.436625719 14.37504292 0.5475482345
2.494440794 14.39407158 0.5467836261
2.554062128 14.4227457 0.5458684564
2.607857943 14.39947701 0.5457522869
2.659263611 14.39468098 0.5453937054
2.712066174 14.39758968 0.5449156165
2.761181593 14.3644104 0.544990778
2.810941219 14.3207531 0.5452151895
2.861773014 14.31330967 0.5449118018
14.66756535 76.85404205 2.309419632
2.91486454 14.30322361 0.5446315408
14.92727757 76.81684875 2.308293581
2.969864607 14.31702232 0.5439940095
14.88859272 74.97174072 4.97471714
3.02335453 14.30852222 0.5436940789
15.45323849 76.63248444 2.303995848
3.071668148 14.27435207 0.5438096523
15.42518711 75.10839081 2.273923635
3.123818398 14.2596159 0.5436170697
15.33412552 73.39622498 2.240242004
15.58558178 74.41993713 4.949058533
3.167102814 14.21589756 0.5439164639
15.59307861 73.34233093 2.239023209
15.69883442 73.65783691 4.908726692
3.218601704 14.19887924 0.5437684059
15.78665829 72.98247528 2.231872082
15.9145031 73.46103668 4.899605274
3.262394667 14.14650726 0.5441957712
16.0500927 72.95436859 2.231254339
3.304138422 14.08620262 0.544757247
16.27731514 72.76129913 2.227460384
16.35439682 72.99753571 4.877894402
3.384857178 14.2014122 0.5424761176
16.90218353 74.34297943 2.258404732
3.443772793 14.21679974 0.5418141484
17.157547 74.31388855 2.25790906
17.28175545 74.68864441 4.975846767
3.516867876 14.30465889 0.5399944186
17.06658745 72.73031616 2.2270751
3.577243805 14.32343578 0.539278686
17.4294529 73.17948914 2.236017704
3.630031109 14.32121181 0.5389280319
17.74154663 73.34388733 2.239450693
17.98861313 74.21981812 4.956873417
3.6840837 14.31233311 0.5386685729
17.92580223 72.97457123 2.232494354
18.30683708 74.44715881 4.971911907
3.735260725 14.29160976 0.538606286
18.21003532 73.02037048 2.233705282
3.780742645 14.23707199 0.5390830636
19.19117546 75.7931366 2.288345337
3.842406034 14.25867271 0.5383334756
3.891509771 14.25233364 0.538084507
19.35004997 74.30875397 2.260146141
3.947404146 14.25026703 0.5377287865
4.035520554 14.36979675 0.5353673697
4.092348099 14.37950802 0.5348384976
19.48837662 71.74184418 2.211506367
4.154572487 14.39793682 0.534147799
19.79821777 71.88184357 2.214897394
19.82276726 71.89598083 4.852642059
4.204767227 14.37177086 0.534198761
19.9731884 71.52709198 2.208633184
4.295680523 14.49182987 0.5318240523
20.32380295 71.8572998 2.215817928
4.365195274 14.54292488 0.5306126475
20.02394676 69.83119202 2.176816702
20.06467628 69.85972595 4.748566628
4.393202305 14.43723965 0.53199476
20.79535484 71.59081268 2.212215185
20.32623291 69.88896179 4.753412247
4.456745625 14.45637798 0.5313017368
20.66411209 70.13226318 4.770515442
4.526119709 14.49444771 0.5302939415
21.32519722 71.5284729 2.212815523
20.95201111 70.1978302 4.777752876
4.580975533 14.48238564 0.5301260352
21.62331772 71.606987 2.215349436
4.62483263 14.43375111 0.5305742621
21.71873665 71.01049042 2.204634666
21.19593048 69.22055817 4.73018837
4.673078537 14.40030098 0.5307726264
21.93071938 70.80813599 2.201725245
21.52651024 69.42896271 4.745685577
4.741231918 14.43165588 0.5298860669
21.66253281 69.00258636 4.725531578
4.765782356 14.33187389 0.5312253833
22.88165092 72.13814545 2.230240583
21.75996971 68.46179962 4.698965073
4.865410805 14.46194077 0.5286805034
22.3115139 69.50003052 2.179276705
21.97725105 68.35137939 4.696514606
4.941343784 14.52380466 0.5273009539
5.012192249 14.56820679 0.5262160897
22.93403435 69.79180908 2.187540293
22.89627075 69.62532043 4.776349545
5.075507164 14.57912064 0.5256807804
23.20781136 69.79501343 2.188958168
23.19907951 69.71971893 4.785995483
5.142107487 14.59927082 0.5249911547
23.45163727 69.70608521 2.188598156
23.48141098 69.74843597 4.79201889
5.19299984 14.57174873 0.5251120329
23.74989891 69.77931976 2.191506863
23.99942589 70.38829803 7.472650051
5.266403675 14.60183907 0.5242410302
23.77026939 68.99143982 2.177422762
5.326333523 14.60038471 0.5239251852
23.89672852 68.56778717 2.170531511
24.07100487 68.9496994 7.353415489
5.403205395 14.66480923 0.5225239396
24.00037193 68.16379547 2.163904428
5.46214962 14.65906143 0.5222849846
24.35638237 68.40796661 2.170395613
25.25045776 70.82984161 7.545547485
5.534534454 14.68227863 0.5215379
24.64075279 68.44320679 2.172776461
5.595639706 14.69019127 0.5210874081
25.9884491 71.43564606 2.234353542
24.72475052 67.84339142 4.716450214
5.655484676 14.68560505 0.5208365321
25.70529938 69.8710556 2.204878092
24.95202637 67.76122284 4.716482162
5.719501019 14.69205379 0.5203994513
25.94711494 69.73226166 4.834474564
5.800318241 14.74324512 0.5191972256
26.19293213 69.64146423 4.834569931
5.878818035 14.79508495 0.5180006027
26.11454391 68.75661469 2.18813777
25.49257469 67.02935028 4.689908028
5.946317673 14.80813694 0.5174552798
26.32607651 68.58285522 2.186633348
6.031120777 14.86573219 0.5161453485
25.65730095 66.11151123 2.138843298
25.90325928 66.72411346 4.682710648
6.099821091 14.88002491 0.5155822039
25.78687286 65.7530899 2.133625746
26.02615166 66.34294128 4.66616106
6.17596817 14.91265583 0.5147047639
26.34162331 66.46018982 4.678431034
6.25608778 14.95424938 0.5136739612
26.12910652 65.26290894 2.127868414
6.317321777 14.94717979 0.5134859085
26.75528526 66.16320801 2.148281574
6.412939072 15.02520275 0.5118275881
27.44795036 67.24276733 2.172334194
27.0916996 66.29982758 4.686197281
6.45894289 14.98717785 0.512195766
27.86181641 67.61455536 2.182099581
6.515394688 14.97492599 0.5121206641
27.07645226 65.02358246 2.131654739
27.9155941 66.98715973 7.313523293
6.608286858 15.04260826 0.5106452107
28.99013519 68.98859406 2.214972734
28.11183548 66.79393768 7.304733276
6.669309139 15.03235817 0.5105250478
28.33786201 66.67367554 7.303056717
6.757908821 15.0948925 0.5091559887
28.50837898 66.52813721 2.169545889
28.47557259 66.37782288 7.284025192
6.78703022 15.00866985 0.5103645325
27.91380501 64.46659088 4.614508152
28.48707199 65.75806427 7.234218597
6.85992527 15.0252924 0.5097852349
28.21240997 64.53401947 4.624705315
28.74874115 65.7280426 7.241482258
6.937809467 15.05260086 0.509021461
28.38273048 64.30349731 4.617509842
28.97392845 65.61299896 7.240626335
7.015165806 15.0777235 0.508297801
28.39552307 63.73300934 2.122363806
29.20990562 65.52270508 7.242280006
7.083054066 15.08056736 0.5079658628
30.00371552 66.75206757 2.187491417
29.38257408 65.28954315 7.230140209
7.137982368 15.05392265 0.5081531405
30.20018768 66.55943298 2.186334848
29.18149185 64.26944733 4.635037422
29.61749458 65.19779968 7.231852531
7.200219631 15.04349327 0.5080599189
30.40371132 66.41529083 2.186079979
30.12466049 65.7078476 7.292443752
7.332643032 15.19423389 0.5051553845
30.63820457 66.30887604 2.186796904
29.63467598 64.06455231 4.636398792
30.5843792 66.13348389 7.344531536
7.499048233 15.40837479 0.5011214018
29.9796524 64.24916077 4.653882027
7.587080956 15.44922161 0.5001296997
31.21389771 66.32572937 2.193174839
7.671564102 15.47381973 0.49941203
31.70089912 66.75608063 2.205291271
7.729244232 15.45552635 0.4994790554
31.37799644 65.49363708 2.181798458
7.844529629 15.55797768 0.497420609
31.68847656 65.54986572 2.186153889
7.928799152 15.58636951 0.4966553748
32.00320816 65.61193848 2.190695763
32.05881119 65.68927002 4.776070595
8.031968117 15.64535522 0.4953388274
30.54948425 62.02812195 2.118211269
8.119326591 15.68508816 0.4943898916
8.177177429 15.65664959 0.4946358204
8.320286751 15.80666637 0.491738379
30.66714668 60.67780304 2.09880805
8.404364586 15.83617496 0.4909749329
31.04143524 60.8885498 2.10656786
8.469968796 15.82101345 0.4909932613
31.22231293 60.7121582 2.106121302
8.521017075 15.77710152 0.4915254712
31.3805027 60.49251556 2.104783773
8.622234344 15.83081245 0.4903277457
31.11240387 59.44782257 2.08573103
8.716557503 15.86982155 0.489392966
31.32997894 59.35316849 2.087105036
8.837249756 15.95796776 0.4875859022
9.00912571 16.14094543 0.4840907156
32.03353882 59.67057037 2.100976229
9.132536888 16.22939491 0.482278347
9.218940735 16.23984718 0.4818463624
32.46183395 59.43298721 2.103232145
9.403605461 16.43785095 0.4780812562
34.65348053 62.97177505 2.184314728
9.427352905 16.35207176 0.4794062972
33.77417374 60.86511993 7.073108673
9.609108925 16.53975868 0.4758254886
34.17819595 61.11209869 2.151041031
33.71369171 60.24823761 7.023535728
9.743886948 16.63202667 0.4739387333
9.815781593 16.6171093 0.4739831984
34.26956177 60.22153473 7.048348904
9.938838959 16.69243813 0.4724147022
33.72540283 58.80464554 2.111973286
32.89519882 57.31468201 4.416642666
34.25839233 59.70645905 7.00914669
10.07232094 16.79146957 0.470433712
10.1380024 16.76314926 0.4707272947
34.42909622 59.09423447 2.126302242
10.22956467 16.78656578 0.4701068103
35.03658295 59.66268539 2.143168926
10.30836582 16.78013039 0.4700148404
35.09641266 59.28103638 2.138844013
10.51389885 16.98886681 0.4660593569
35.14791489 58.88936996 2.134300947
34.28836441 57.43326187 4.46694088
10.61909294 17.02432823 0.4652188122
35.4132309 58.8627739 2.138012886
34.59306717 57.48523331 4.479301929
10.69595718 17.01119614 0.4652554989
10.80173111 17.04572105 0.4644380212
36.75726318 60.15616226 2.176237345
10.9099493 17.08314514 0.463571161
11.08218956 17.22410965 0.4608406425
36.27238464 58.4107666 2.145534992
34.46520615 55.46403122 4.387643337
11.24505711 17.34706116 0.4584358335
11.31819057 17.32299423 0.4586855471
34.5672226 54.76858902 2.070609331
34.5702858 54.76101685 4.361233234
11.40295982 17.32435989 0.4584891796
34.72078705 54.5832901 2.070752621
11.79074097 17.79870796 0.449742347
34.96093369 54.53629303 2.074136019
35.89746094 56.03166962 4.461681843
36.35216904 56.74119568 6.899242401
11.94281673 17.89416313 0.4478391707
36.53953934 56.59410095 6.898849964
12.09677982 17.99046707 0.4459228218
34.42027283 52.84465027 2.043726206
35.2008667 54.06434631 6.64466095
12.24179745 18.0708046 0.4442975819
34.69200897 52.85533905 2.048491955
35.38528824 53.9314003 6.645317554
12.31885529 18.04472923 0.4446013868
34.90861893 52.77929688 2.051278591
35.60829163 53.8579483 6.652438164
12.44300079 18.09027863 0.4436123967
35.2555542 52.90142441 2.058795929
36.20455933 54.36191177 4.402844906
35.76463699 53.68196487 6.648675442
12.8703928 18.60865021 0.4340752959
36.59365845 54.56306076 2.102417469
35.18778229 52.44438553 4.286197662
35.97803497 53.63446045 6.657279491
13.02476501 18.69351959 0.4323759675
35.38699341 52.32191467 4.288516998
36.09685898 53.40267181 6.647655487
13.64413548 19.46305656 0.4182543457
36.12706375 53.03388596 2.075777769
35.66097641 52.33101654 4.299091339
14.00018787 19.84538651 0.4111665785
35.67058182 51.95286942 2.054762125
35.93769455 52.3421402 4.30991888
14.2333107 20.03289223 0.4076056182
36.47975159 52.74753952 2.078752041
36.24607849 52.41775894 4.324630737
36.59634399 52.92707443 6.642903805
36.69820023 52.6661911 2.081790924
36.65493774 52.61194611 6.624398232
36.88471985 52.53788757 2.08374095
39.24606323 55.96948624 7.007550716
37.18264771 52.56982422 2.089633703
37.11643219 52.07952118 2.082833052
37.33797455 52.39156342 4.365462303
37.30947113 52.34685898 6.644412994
36.90782166 51.41218948 2.07139802
37.32982635 52.00658035 4.349813938
38.01554871 52.58541489 2.105507851
37.45833206 51.81758499 4.34735918
38.06420898 52.66713333 6.71113348
37.75940704 51.8347168 2.092320919
39.68323135 54.53623199 6.935236454
37.78510284 51.48377609 2.088981867
38.70746231 52.76009369 4.433942795
38.22254562 51.70271683 2.099854708
40.55003738 54.92246628 7.013728619
39.90081406 53.63172913 2.153392792
40.19506073 53.6339035 2.159220219
39.97047424 53.34688187 6.872515202
40.4540596 53.58651733 2.163869858
40.53598785 53.30097961 2.162542582
40.80648804 53.26789856 2.167657375
38.49066544 49.82471466 2.085583925
38.6138382 49.62027359 2.08604598
38.84337234 49.55503082 2.090126276
37.71400833 47.71871185 2.048622131
38.00470734 48.11288452 4.22699213
37.96450043 47.69089508 2.05358696
38.33852005 48.17175293 4.243341446
38.23543549 47.72238541 2.059589386
38.54390335 48.11719131 4.250073433
38.73739624 48.00884628 2.072942257
38.82837296 48.12657928 4.262613297
38.64081573 47.53894043 2.066468
38.67167664 47.23241806 2.064285278
38.99352646 47.27077484 2.071590424
39.181427 47.15929413 2.074668884
38.45769119 46.29259109 4.179638386
40.25206757 48.49929428 6.574760437
39.38349533 47.08177567 2.078399658
38.95174408 46.21977234 2.061285496
40.07853699 47.61055374 6.507250786
41.41855621 48.84977722 2.138864279
40.366642 47.61459732 6.526797295
41.72790909 48.86745834 2.145917416
40.55038834 47.49200821 6.531523705
40.88002777 47.52944946 2.115549088
40.10433578 46.62285233 6.447447777
41.05507278 47.39421082 2.11837101
40.34614182 46.59007263 6.46185112
42.68218994 48.9550209 2.168201685
39.38519287 45.12662125 4.179855824
40.56274033 46.50980377 6.471699238
42.23160553 48.08197403 2.150810957
39.6103363 45.0647049 4.187992573
40.87028122 46.53421402 6.494285107
41.13048935 46.46982956 2.112587452
40.98790359 46.33740234 6.4903965
40.30294037 45.19113159 2.083362341
41.45062256 46.53631592 6.534494877
42.69075775 47.59688568 2.157607555
42.09416962 46.93591309 6.603378296
42.76935196 47.34596634 2.1575284
42.11980057 46.64727783 6.58782196
43.69628906 48.04674911 2.184622765
42.15222168 46.35163498 6.572410107
42.58236694 46.50086212 6.611617088
42.77231216 46.34443283 2.150182009
42.50634003 46.08638 6.581674099
42.99061584 46.25408936 2.154763222
39.32644653 41.94332123 4.069722652
39.19536591 41.48828506 4.048605442
38.9307518 40.93826294 4.018043041
40.26318359 42.04387665 2.059678078
39.39288712 41.14035797 4.046905994
40.09635925 41.58306122 2.052556992
40.43242645 41.94974899 4.123317242
40.19137573 41.40213776 2.053745747
40.16957474 41.38998795 4.092693806
39.98471069 40.89185715 2.045390606
40.1276741 40.73508835 2.04799819
40.53500366 41.18370438 4.104158878
40.02769089 40.32818985 2.043027639
39.46213531 39.77108383 4.007071018
36.17904663 36.1049118 1.920788646
36.19860458 36.14836121 3.732805967
41.46256638 41.54848862 6.244701385
39.47248459 39.20707321 2.022402763
40.24279404 40.00173569 4.0530653
41.59166718 41.38532257 6.245229721
39.57269669 39.04341125 2.024034977
40.62791443 40.12078094 4.076003075
40.62264633 40.12798309 6.102987289
39.67073441 38.8640976 2.025557518
40.69459915 39.92983627 6.097462654
42.89126205 41.79364014 2.124442101
41.5802536 40.50159454 4.135546684
41.03654099 39.98744965 6.126414299
42.90500259 41.4957428 2.123227119
40.72452164 39.36802673 4.058236122
41.66259384 40.30904388 6.191375256
42.95260239 41.24783325 2.123192787
40.87011337 39.23142624 4.061607838
41.10081863 39.47144699 6.103218079
42.05389786 40.09337616 2.093881607
40.62352371 38.71234131 4.033701897
41.16811752 39.25711441 6.096794128
40.7110405 38.508461 2.05082202
40.8644104 38.67050934 4.044863701
41.51926041 39.33268356 6.127757549
40.91156387 38.42722321 2.055734634
42.31886673 39.82304001 6.215423584
41.10477829 38.33816528 2.060453415
40.58333588 37.86772919 4.007125854
42.50616837 39.71938705 6.224389553
40.74211884 37.72135162 2.048008442
40.68901062 37.69855499 4.007790565
40.8895874 37.59134674 2.051395178
41.76485062 38.44370651 4.085124493
43.56708908 40.1570816 6.329794884
40.96860886 37.41060257 2.052758932
41.87815857 38.27607346 4.086352348
42.29903793 38.6850853 6.154055595
42.11077881 38.21954727 4.097024918
42.51697159 38.62623215 6.168088436
42.00507736 37.86323547 4.081571102
42.03946304 37.91051102 6.093664169
42.10144043 37.6815033 4.081691742
43.10367203 38.62995148 6.21451664
46.0741539 40.99614716 2.205789804
42.49909592 37.76096344 4.105041981
43.29859543 38.50468826 6.223591805
46.21839523 40.83387375 2.209185362
43.88974762 38.74762344 4.206074238
43.49928665 38.42528152 6.235542774
43.74825287 38.37460327 6.252869606
43.74333191 38.07910538 4.180364609
44.62762451 38.88455963 6.348772526
68.01229095 59.2347374 2.875315189
44.18403244 38.21405411 6.279852867
44.81468201 38.49507904 6.34458065
42.73377228 36.35564804 2.097807646
45.19577789 38.5521698 6.378228188
44.52599716 37.67725372 4.212486744
44.61149979 37.48015594 4.21216917
87.84500122 74.71276855 11.60195923
44.86316681 37.42556763 4.224658489
88.03650665 74.37242889 11.60128593
45.37625504 37.60494232 4.257501125
88.44917297 74.19416046 11.62665081
88.69644928 73.90098572 11.63312531
89.10834503 73.7193985 11.65860367
89.52002716 73.53582764 11.68414688
89.94442749 73.33459473 11.71010399
42.21952438 33.17268753 2.076415777
41.63743973 32.46383667 2.058357716
42.10704803 32.59976959 2.072433233
42.28315735 32.49980545 2.077584743
42.93222809 33.04384232 4.011664867
41.83133316 31.90670395 2.063615799
43.16938782 32.98768997 4.024018764
42.30507278 32.04071045 2.07791543
43.00171661 32.34299088 2.0990448
43.13565826 32.47819519 4.010848999
43.06394196 32.16381836 2.100862265
42.67643356 31.63038445 2.088995218
76.11099243 55.41596222 3.108836412
77.63451385 56.12553406 3.155524015
77.53224182 55.63534546 3.152687788
71.03339386 50.51791763 2.954756737
66.46453857 46.85832214 2.815710545
65.86566925 45.76956558 2.798221588
65.98861694 45.51194763 2.802460909
65.96302795 45.15106964 2.802213907
63.29325104 42.95967865 2.721234322
41.36365128 27.53910255 2.051692486
41.27753067 27.26843262 2.049487114
40.1545639 26.52223969 3.716082573
41.1818428 27.00367165 2.046993494
39.8616066 26.12915802 3.69134593
41.40488815 26.9446907 2.054300308
39.76519394 25.87213707 3.681020975
41.14578629 26.56257439 2.046885729
39.80493164 25.697855 3.6804986
40.62449646 26.01037025 2.03146553
40.61588287 26.03562355 3.736021519
40.79598236 26.17615891 5.469570637
40.23685837 25.55220795 2.020153999
40.6225853 25.8367939 3.733159304
40.92126465 26.05467224 5.476629734
40.33379745 25.41498756 2.023710489
41.31783295 26.11019707 5.51478672
40.12483215 25.07963753 2.017917871
40.08384323 25.08382416 3.687685251
41.25431061 25.86420441 5.500351906
40.16685867 24.91845512 2.019814014
39.97919846 24.81863976 3.677014112
41.23978043 25.65133476 5.491634369
39.97000504 24.59543228 2.014437675
39.96235657 24.6114521 3.672763348
41.33042145 25.51683998 5.495349407
40.02311325 24.43341827 2.016758919
41.42182159 25.37266541 5.498874187
41.22291946 25.045784 5.469500065
52.33525085 31.71837234 2.39679265
40.36583328 24.28899193 3.693225145
41.25357056 24.86509132 5.466328621
41.81771469 24.96082687 2.074208498
40.45993423 24.15234184 3.697178841
41.25302505 24.66560745 5.459712982
43.19580841 25.60536766 2.117470026
40.91755676 24.23898506 3.72729969
40.67671204 24.11290741 5.38808012
43.53207016 25.60325432 2.128719568
40.99881744 24.08280754 3.730271101
40.67315674 23.91607857 5.381414413
43.69599533 25.49470329 2.134698629
40.68492126 23.71968651 5.376268864
43.7996788 25.34933853 2.138855457
51.4836235 29.98251343 4.47619772
40.78458786 23.59617043 5.38173008
44.03176498 25.28020668 2.147009373
43.07781219 24.74650383 3.871415138
41.07280731 23.57518196 5.408163071
43.04471588 24.49059105 2.117535114
43.33613586 24.68608284 3.88715291
41.7195015 23.7642498 5.474883556
42.52983856 23.97746086 2.102693081
41.15977478 23.20809364 3.729061842
41.8914566 23.65979385 5.487950325
48.36065292 27.16256332 2.284178257
44.55886841 24.99112129 3.969411612
52.44380188 29.60207748 6.664622784
47.99585342 26.7387886 2.274035692
44.51713943 24.75988007 3.963933945
42.52459717 23.63490295 5.547195911
46.42703247 25.62018204 2.226645708
42.37755585 23.33026695 3.808956861
42.84013367 23.62852478 5.57700491
46.47041321 25.4305172 2.229217052
42.55801773 23.24692154 3.819669962
43.77652359 23.96282578 5.675863266
46.50954056 25.23891449 2.231688023
46.25751495 25.12293816 4.08072567
47.24957275 25.71845627 6.05749321
31.22286034 16.47953606 0.5101269484
46.65793228 25.10867119 2.237585306
42.38032913 22.74764442 3.802569628
47.57382202 25.67257309 6.087232113
46.56801224 24.8461628 2.236107588
46.83543396 25.02022552 4.11721611
47.64366531 25.50531387 6.089291096
46.6591568 24.68454933 2.240290642
47.45757294 25.1866684 6.062683105
40.91172028 21.34766197 2.062556505
47.57445145 25.0086937 4.165402889
47.40439606 24.9430275 6.050983429
31.49297905 16.06562996 0.520821929
47.02275467 24.45908165 2.254414558
47.92762375 24.98500061 4.188327789
47.21879959 24.62904739 6.024710655
46.97855377 24.22423172 2.254479408
46.81371689 24.17309189 4.107254982
47.19998932 24.40699959 6.017063141
46.94918823 23.99842453 2.255033731
46.61849976 23.85992432 4.09144783
47.57740021 24.39659119 6.05337286
38.43253708 19.31007767 1.990066528
39.20193863 19.73707199 3.564160585
47.18411636 23.97719765 6.004484653
47.16400528 23.69253922 2.264789104
38.21171188 19.04606056 3.492521763
47.16318512 23.74633408 5.996651173
38.50496292 19.01518059 1.994797468
38.45458221 19.01118469 3.508324862
49.1207695 24.56297493 6.207756519
47.1217804 23.26448822 2.266537905
39.24449539 19.25582886 3.562840939
48.86268997 24.22457314 6.174293518
47.07912064 23.0356617 2.266813993
38.26662827 18.58539963 3.492331505
38.17327499 18.56007385 4.99185276
59.66792679 29.14083481 0.331669122
39.0982933 18.80652809 2.017422915
38.03295898 18.29984283 3.474515676
48.76739883 23.74787521 6.153606415
59.76170731 28.92710304 0.3371553123
39.33477783 18.75406837 2.026257277
38.39929199 18.31722641 3.499134064
48.82046509 23.56176186 6.154499054
59.82959747 28.70068741 0.3428452909
37.56853485 17.70804405 1.971993327
38.04204559 17.9730072 3.472706556
39.02233505 18.48232079 5.07350111
59.96846771 28.50938988 0.3480218351
37.66540909 17.5927639 1.97642839
38.2130394 17.89226151 3.483618975
39.34638977 18.47284126 5.105262756
60.11033249 28.31920242 0.3531993032
38.09087753 17.63715744 1.991276145
38.15607834 17.69945335 3.478493929
39.44903564 18.35309601 5.112766266
60.38130951 28.19091225 0.357478708
38.14258575 17.49813271 1.994352698
38.34625626 17.62711143 3.490843534
39.13923645 18.03350067 5.075146198
60.32728577 27.90593719 0.3640895784
38.22265244 17.37275314 1.99835372
38.30774689 17.44419289 3.487116098
39.16511154 17.87806892 5.074400902
39.60948181 17.84318542 0.5136160851
38.26255035 17.22822189 2.001109123
38.07008743 17.16762543 3.469410419
39.12205505 17.69023895 5.066188812
60.61745071 27.52673531 0.3745443523
38.38877106 17.12440491 2.006631136
37.95018768 16.94899178 3.460056543
39.41308594 17.66065216 5.094569206
60.86139297 27.38251305 0.3791434467
37.90339279 16.76600456 3.4559021
39.78372574 17.66631699 5.131667137
60.95973587 27.17001152 0.3847487271
40.01023102 17.57867622 3.603360891
39.65991211 17.44070435 5.114830017
61.00276566 26.93223381 0.3907288313
39.55872345 17.20320129 3.570787191
39.67253113 17.2791748 5.112963676
60.82618332 26.59566498 0.3981176913
39.90490341 17.19379234 3.594386578
39.81679153 17.17784691 5.125511646
61.07763672 26.46585083 0.4024559259
39.86242294 17.01570892 3.590726376
61.12051773 26.24217033 0.4081322849
59.84700012 25.71238136 2.702698231
39.64417267 16.76014709 3.574753761
61.26248169 26.04968071 0.4135209918
59.36846542 25.25206184 2.689966917
40.00411606 16.74541473 3.59941268
47.22391891 19.66743469 0.5043128729
47.26345825 19.71306992 2.304267645
47.18341064 19.45420837 0.5093772411
47.14956284 19.46804619 2.302717209
40.24224091 16.50822639 3.61503458
47.30550766 19.30165672 0.5137282014
47.28266525 19.33022118 2.309131622
40.31342316 16.37256432 3.619564295
47.42933273 19.16892433 0.5176079273
47.42476273 19.20546532 2.315764427
40.33892059 16.22571373 3.620951891
47.60260391 19.05644989 0.5212327242
47.5681839 19.07089615 2.32258749
40.3712616 16.08196259 3.622862577
47.81234741 18.94853973 0.5249304175
47.67062759 18.9187088 2.328125954
40.43547821 15.94343853 3.62703824
47.93683243 18.80440521 0.5291281343
47.82435608 18.78733826 2.335360289
47.82011795 18.82465172 4.14525938
48.13498306 18.68982697 0.5329577923
47.94255829 18.64082146 2.341484308
47.96557617 18.67967415 4.155176163
48.1072464 18.54225159 4.164896488
32.65159988 12.12295628 0.621507287
48.21146774 18.3892765 4.17204237
48.52349854 18.25838661 0.5456998348
48.39353943 18.27655792 4.18471241
48.6571312 18.11519623 0.5499740839
35.74797821 13.12118435 3.29697752
35.33687973 12.81807613 3.268114328
48.90822983 17.82097816 0.558673203
34.66144562 12.41705227 3.220735788
35.43503952 12.54363251 1.948535204
34.69997025 12.29331398 3.223513603
49.22500229 17.54944992 0.5671717525
35.26262665 12.33778477 1.944731474
34.90989304 12.23411369 3.238363743
49.29660416 17.38036728 0.5718463659
35.67014694 12.34907722 1.959989905
35.0019989 12.12973881 3.244982719
35.62021637 12.38246441 4.625195503
49.35821915 17.20761299 0.57657516
35.62784958 12.19218063 1.960502505
35.73049927 12.25944996 3.29632473
35.67712784 12.26239109 4.629810333
49.48692322 17.05916595 0.5810361505
36.82062912 12.49230957 2.001656771
35.32966232 11.972188 3.268414497
35.63455963 12.1059351 4.623772621
49.61020279 16.91802216 0.5852926373
35.18917084 11.76009846 1.949780345
34.63250732 11.58165264 3.219728708
36.08130264 12.13395882 4.67052412
62.49859238 21.30167389 0.5390589833
35.00889206 11.55753136 1.945752263
34.80877304 11.51516056 3.23239851
35.41785431 11.75503349 4.597797871
62.492733 21.04207611 0.5457215309
37.54146194 12.30423832 2.031723976
34.90644073 11.40624428 3.239621639
35.26091003 11.55379772 4.57958889
62.5916214 20.81957436 0.5519860387
37.73254776 12.22379875 2.040174007
35.16583633 11.35327148 3.258251905
35.19878769 11.38731194 4.571649551
38.2917366 12.2763195 2.060796976
34.91168976 11.13527966 3.240799665
35.233284 11.26878738 4.574274063
36.25017166 11.40949821 0.6581080556
34.39142609 10.80675888 1.932979107
35.1853447 11.09947586 3.260470152
35.27679443 11.15336609 4.577917576
36.30026627 11.2924757 0.6614152789
34.55306625 10.73421574 1.940255046
35.44779205 11.05816078 3.279395103
35.63848495 11.14549637 4.615788937
34.60312271 10.5968008 1.944242001
35.48758698 10.91346455 3.282820463
35.56148148 10.96102715 4.606390953
36.86823273 11.42822552 6.123962879
34.5003891 10.43592167 1.942734718
35.4428978 10.76840782 3.280234337
35.6908989 10.87315845 4.619412899
34.51108551 10.30628204 1.945139408
35.58358002 10.68434143 3.290721655
35.61960983 10.71917915 4.610938072
51.20363235 15.49759769 0.6305690408
34.98191833 10.32451248 1.963025212
35.21699905 10.42942047 3.265589237
35.70307159 10.60902691 4.619086266
34.93118668 10.1740427 1.963429809
35.28646469 10.31626797 3.271171331
35.71794891 10.4766922 4.61992979
63.80866241 19.04492569 0.6048089266
34.80542374 10.0007925 1.961316228
35.36890411 10.20693874 3.277707577
36.05306244 10.44535542 4.655183792
63.82818985 18.80685997 0.6112032533
34.79156494 9.863385201 1.962986946
36.27052689 10.35143757 3.341976404
36.4092865 10.41831684 4.692746162
63.72058487 18.53036499 0.6179410815
34.82686615 9.741412163 1.966338038
36.16048431 10.17245102 3.335095644
36.35112381 10.26160049 4.685916901
63.92158508 18.33602142 0.6241892576
35.84726334 9.909919739 2.003227949
37.11923981 10.32478428 3.403530121
36.21806335 10.07600307 4.671090126
64.13020325 18.15503693 0.6301388144
35.78117371 9.754039764 2.003243685
37.15599442 10.18769455 3.40709877
36.20043564 9.933197975 4.668728828
33.49602509 8.918344498 0.7089114189
35.59735489 9.557570457 1.999377012
53.76424408 14.94086647 4.579387665
59.71979904 16.73517799 7.189577579
33.45708847 8.780288696 0.7123859525
35.65653229 9.440055847 2.003679276
32.24642944 8.478161812 3.062695503
59.35242462 16.40225792 7.14961338
33.49643326 8.665176392 0.7156842947
36.36103058 9.507084846 2.030059338
32.13101959 8.323317528 3.05546093
59.82852554 16.31526947 7.200156212
43.39908218 11.32993507 0.6988136768
57.31836319 15.29056168 2.749912739
32.0955658 8.192209244 3.053899527
60.10185623 16.16758156 7.22905302
43.35286713 11.15379047 0.703294456
57.33385849 15.07928848 2.754214525
32.08841324 8.069516182 3.054368734
60.29443741 15.99562168 7.249385357
43.39274216 11.00195026 0.7076076269
57.52589417 14.9168644 2.764616251
30.27844429 7.449848175 2.92746067
59.0906105 15.43655109 7.120162964
42.76025009 10.66816902 0.7131021023
30.29560852 7.341098309 2.929656982
60.19063568 15.51537609 7.237929821
34.22091293 8.235967636 0.7312709093
34.22564316 8.266191483 1.968209147
32.00102234 7.691468716 3.051255465
59.29507828 15.06055737 7.14193058
42.60779953 10.32434082 0.721565485
34.24376297 8.143214226 1.971157432
31.61826515 7.47657299 3.025214911
59.63346481 14.94030666 7.178250313
42.70671844 10.19122028 0.725738585
57.9631958 14.19250488 2.794929743
31.73199463 7.388502121 3.034388781
59.67420197 14.72887611 7.18276453
42.72579193 10.03720951 0.7300407887
58.00559616 13.98780346 2.800395966
30.30548859 6.903116226 2.934490204
31.88903427 7.354052067 5.372561455
42.62989807 9.85433197 0.7344916463
58.71001434 13.95062256 2.828917503
30.31489182 6.793000698 2.93629384
31.80197334 7.213550568 5.359200001
42.34885788 9.626394272 0.7391373515
59.0521698 13.81832504 2.844947338
31.90919113 7.079459667 3.050526381
30.366745 6.714125156 4.042449951
31.84879875 7.107557297 5.365151882
42.44555664 9.493322372 0.7433338761
61.38188171 14.1719408 2.930443048
32.00440216 6.984880447 3.058545113
30.22089958 6.565787792 4.027077675
31.88757706 6.999459743 5.370008469
42.36491394 9.317049026 0.7477183342
58.83825684 13.32994366 2.845826626
32.32037354 6.943403721 3.082278013
30.36624718 6.489600658 4.042965412
31.89905167 6.884581566 5.371004581
42.4917717 9.190899849 0.7519147396
50.3551178 11.09237766 2.552682161
32.29878235 6.819085121 3.082089663
31.64304733 6.683804512 4.180211067
32.08729172 6.812314034 5.397459984
42.54035568 9.04581356 0.7561956048
57.75442123 12.64223289 2.816214323
32.22621918 6.68312645 3.078309536
30.30600929 6.251768112 4.037259102
32.62427902 6.821434498 5.474070072
42.5065918 8.881629944 0.7605421543
57.00452423 12.25687599 2.794016838
32.15310287 6.547798634 3.074516058
30.17154312 6.109211922 4.023283005
32.4884758 6.669983864 5.454092503
44.07558441 9.080963135 0.7640270591
57.03622437 12.05488968 2.799308538
32.30119705 6.463607788 3.086493254
30.10238838 5.98274231 4.016353607
32.47749329 6.548371315 5.452110767
43.48546219 8.787946701 0.7687681913
57.10816956 11.8619976 2.806058168
32.36079025 6.352757931 3.092288733
30.71193314 6.009695053 4.082275391
32.52209473 6.439575195 5.458176136
42.61610794 8.430487633 0.7737018466
57.40810013 11.70856476 2.821137667
32.60581589 6.288451672 3.111264229
30.43757057 5.83112812 4.053456306
42.59170532 8.269555092 0.7780495882
57.4847374 11.51544857 2.828155518
32.48225021 6.142616272 3.104011297
30.15147781 5.657786369 4.023385048
42.50017929 8.09480381 0.7824038863
57.62311172 11.34575558 2.837193012
30.82242584 5.670266628 2.987148523
30.1407547 5.545618534 4.022904873
32.33419418 6.043199539 5.430559635
43.51659393 8.159392357 0.7864973545
57.67113876 11.1459446 2.843279362
30.83320618 5.560334682 2.989454031
32.3649559 5.909531116 4.262378693
32.06316376 5.868348122 5.391560555
32.7227478 6.036723614 6.683821201
43.57537079 8.013142586 0.7909444571
57.98866272 11.00140858 2.859030962
31.53032303 5.597568035 3.040758371
32.51280212 5.822490692 4.279069424
32.34593582 5.810547352 5.432144165
32.81551743 5.937212944 6.699664593
61.90517044 11.58059788 3.003699303
30.9698391 5.369605541 3.002310991
30.24149704 5.242995739 4.035964489
31.98441315 5.619493484 5.380277634
32.04935074 5.661315441 6.560857296
31.95183945 5.403123856 0.7965835929
31.99459076 5.433394432 1.935432553
32.1516571 5.492378712 3.088522911
30.35602188 5.156260967 4.049118996
31.41612434 5.389844894 5.298780441
32.44213867 5.624261856 6.630908012
31.94615173 5.286282063 0.7998509407
31.99870491 5.318370819 1.938078046
32.05015182 5.356182575 3.082983494
30.35903931 5.047029018 4.050341606
30.798069 5.154648781 5.210193157
32.55487823 5.529203892 6.650586605
42.99212646 7.270474911 0.8084893227
57.54349136 10.0760479 2.861036777
32.10876846 5.25154829 3.088942528
30.08432579 4.884473801 4.021752357
30.85352325 5.054105282 5.218379498
32.54940033 5.410595894 6.649050236
43.09508133 7.134401798 0.8129546642
57.61068344 9.880811691 2.868018627
30.75534058 4.881160259 2.993654966
30.06097984 4.771489143 4.020220757
30.77439308 4.927799225 5.207298279
32.90334702 5.360561848 6.712312698
43.10317993 6.980399609 0.8173803091
57.8483696 9.727082253 2.880982161
34.67150879 5.492533207 3.276530027
30.00982475 4.653681278 4.015740871
30.69183922 4.807112694 5.195764542
32.95144653 5.251037121 6.720576286
43.51884079 6.907435417 0.8219112754
34.0867157 5.261929989 3.236522436
30.08252716 4.564274311 4.02457428
30.69744873 4.697682858 5.196968079
33.44755554 5.229375839 6.809594631
43.90233994 6.818270206 0.8267233372
61.44781876 9.946077347 3.021129608
31.04430389 4.605709553 3.01967907
31.80847359 4.76352644 4.211465359
30.69096947 4.586204052 5.196494102
33.52531433 5.117130756 6.823338032
43.83572006 6.641109467 0.8313967586
60.80148697 9.602604866 3.002828836
31.02666855 4.485553741 3.020361185
31.85605049 4.65188694 4.217870235
31.24287224 4.567150593 5.276329994
43.75062943 6.461574078 0.8360391855
60.42761993 9.321146965 2.994156599
31.05577087 4.373633385 3.024441242
31.86794281 4.533969402 4.220486641
31.3198204 4.468329906 5.287976265
43.95042038 6.345505714 0.8405609727
60.51196671 9.118535042 3.002225399
30.98911858 4.251265526 3.021560431
31.83049965 4.41927433 4.21770525
31.20898056 4.337563038 5.272697926
25.69972038 3.243895054 0.821218133
60.80700684 8.960553169 3.017817974
30.79707718 4.11462307 3.009557486
32.01139832 4.334973335 4.238569736
31.26478386 4.240703106 5.28139019
25.63034248 3.145587683 0.8236404657
78.44104004 11.54013824 3.671133041
30.62698746 3.977428198 2.999242783
32.04981613 4.232431412 4.244059086
31.27030754 4.12989521 5.282950878
25.61860847 3.052175283 0.8262705803
61.73498154 8.669761658 3.062199593
30.61910629 3.872282028 3.000561237
32.10644913 4.12690258 4.251632214
31.29500008 4.022172451 5.287328243
25.65269661 2.961290598 0.8291070461
62.19227219 8.507588387 3.084577084
30.79193878 3.783897638 3.015182495
32.24220657 4.027412415 4.267876625
31.41016579 3.922727585 5.304823875
25.74383926 2.878623724 0.8320529461
61.07925415 8.110598564 3.048935175
30.78495979 3.667641401 3.016841888
31.34305191 3.772717237 4.172422886
31.39772987 3.803428173 5.304038048
25.77072525 2.790781498 0.8347697854
61.14963913 7.903227806 3.056788206
30.76888084 3.555732727 3.01776886
31.33715057 3.660316706 4.173358917
31.48007202 3.703779221 5.316901207
35.94470596 4.120730877 0.8571210504
61.213871 7.705650806 3.064192057
31.08423615 3.490872383 3.042770624
31.42535019 3.561465979 4.184510708
31.37316513 3.582212687 5.302539825
35.73126984 3.97023797 0.8602332473
61.9348526 7.597904205 3.096117973
31.07269478 3.38437438 3.043998957
33.1040802 3.688203335 4.367641449
31.39914513 3.480027199 5.307353973
31.48976326 3.515751839 6.459325314
35.7373085 3.850464106 0.8637751937
61.03280258 7.25741148 3.067831039
31.23872757 3.301930428 3.058160067
33.57789612 3.64072299 4.420618534
25.82040024 2.609882832 4.505299091
35.75763321 3.726283312 0.8675397635
61.04280472 7.042190075 3.073575974
31.25295067 3.193018913 3.061441183
25.81049728 2.517062426 4.504900455
35.70607758 3.593024492 0.8711447716
61.22257233 6.848614216 3.085728884
62.00525665 7.002762794 5.303378105
25.83560562 2.428909063 4.50959444
35.7612381 3.47329855 0.8750041127
61.64571762 6.683875084 3.107106924
62.13093948 6.798858166 5.31712389
25.81129837 2.334475517 4.507217884
35.48830032 3.314292431 0.8780439496
61.94143295 6.501127243 3.123788357
25.85739517 2.248858929 4.515038013
35.28224564 3.165031433 0.881208539
61.53383636 6.234867573 3.113969088
25.82653046 2.153911114 4.51181221
35.26837921 3.03881979 0.8848642111
61.70309067 6.036530972 3.125972033
62.23041916 6.151399612 5.338552952
25.81892586 2.061900616 4.511988163
35.11488342 2.897677183 0.8881222606
61.88957977 5.83910656 3.138694525
29.26621056 2.311858892 2.930139542
35.16172409 2.778716564 0.8919464946
62.57034302 5.692565918 3.170310259
28.44590569 2.121506214 2.872331858
26.18318939 1.899958014 3.633301735
26.73767853 1.978896618 4.647306919
26.30112267 1.95606935 5.532001019
35.11862564 2.650385141 0.8955099583
67.17367554 5.941009521 3.351823092
28.38511467 2.010022402 2.870261669
