# .PCD v0.7 - Point Cloud Data file format
VERSION 0.7
FIELDS x y z
SIZE 4 4 4
TYPE F F F
COUNT 1 1 1
WIDTH 1294
HEIGHT 1
VIEWPOINT 0 0 0 1 0 0 0
POINTS 1294
DATA ascii
51.77275085 -10.88780785 3.283182383
52.3214798 -11.18306637 3.317531109
24.41739273 -5.633032799 4.600028992
101.9804306 -22.42280006 5.78117466
24.3531189 -5.973910332 4.612464428
24.53784752 -6.144217968 2.872045517
24.31551933 -6.054586411 4.612307549
22.74875069 -5.845011711 2.72423768
23.90471077 -6.054687023 4.553397655
22.980299 -6.007452488 1.923802495
22.66799355 -5.914465427 2.721762657
24.38144112 -6.250915527 4.634672165
22.6826725 -6.028569698 1.912851214
22.74647903 -6.019265175 2.732909203
23.82879639 -6.2211833 4.553566933
22.65868187 -6.106291771 1.915263653
22.82542038 -6.120707512 2.743944407
23.80389786 -6.302816868 4.555489063
22.65388298 -6.188437462 1.918646574
22.95828438 -6.235412121 2.759673834
22.83909988 -6.187830925 3.575658321
23.55529785 -6.332842827 4.521989822
22.69931984 -6.282602787 1.924565673
23.06540298 -6.34515667 2.773269653
22.84147644 -6.272373199 3.580985308
22.46565819 -6.305900097 1.916312933
23.14683723 -6.449662209 2.784722567
22.84354019 -6.356996059 3.586318731
22.99590111 -6.368779659 4.444601536
22.78614616 -6.467135906 1.936119795
23.06709099 -6.51569891 2.782302141
22.89260101 -6.448923588 3.597205877
23.15496063 -6.491970062 4.475812912
22.86534691 -6.571072578 1.943851829
22.0845871 -6.354157448 2.701426506
23.57859421 -6.702273846 3.686730146
22.86808968 -6.507164478 4.436016083
22.83561516 -6.648330688 1.946104765
22.07681656 -6.433997154 2.705083609
23.42911911 -6.731348515 4.531623363
22.82497978 -6.730382442 1.949341297
23.24623489 -6.792759418 3.656513691
23.20894241 -6.762586594 4.502537727
22.88753128 -6.831467152 1.956333041
23.32629967 -6.920340061 2.822859764
23.25023079 -6.880132675 3.662400246
23.19560432 -6.845329762 4.506554604
22.36233711 -6.778716087 1.933256984
22.26192474 -6.728608131 2.734454632
23.40185165 -7.006199837 3.686621904
22.99834824 -6.88033247 4.481086254
22.35508537 -6.860256672 1.936648369
22.40497398 -6.849617481 2.751489162
23.45112228 -7.106487751 3.6982584
22.89286613 -6.938210011 4.470331192
23.57408714 -7.29404211 1.15017724
23.27506447 -7.192502022 1.987876058
22.28572845 -6.90124321 2.745570898
23.32544518 -7.160367489 3.688209534
22.94571686 -7.037809372 4.485091209
23.57281303 -7.382069111 1.153357267
23.64007187 -7.379715919 2.010724545
22.49021721 -7.044731617 2.768378019
23.2245903 -7.220212936 3.681239605
22.91041183 -7.114063263 4.48570776
23.32351112 -7.384912491 1.998541236
22.44538689 -7.116680622 2.769064665
23.16458511 -7.295094013 3.679649115
22.96138382 -7.218225956 4.500632286
23.27947044 -7.460231304 2.000266075
22.4279995 -7.200387478 2.772428989
23.27568054 -7.413195133 3.699198723
23.27571106 -7.392096519 4.557989597
22.85565567 -7.431282043 1.982349038
22.45358658 -7.29215765 2.779400349
23.58753777 -7.593664646 3.744305134
23.28747559 -7.487369537 4.566814899
22.86138725 -7.519268036 1.986635566
22.16861916 -7.294735432 2.758802891
23.17824745 -7.564991951 3.698754072
23.14206696 -7.683702946 2.005212307
22.13448906 -7.368600368 2.760475636
22.93911934 -7.582963467 3.674461842
23.33189774 -7.823380947 2.019109249
22.1490345 -7.452593803 2.766279221
24.02114487 -7.984525204 3.816390991
23.03391838 -7.822494507 2.007466555
22.96504021 -7.776762009 2.843882084
33.95531845 -11.0359745 5.077178478
50.57553101 -15.94985867 9.052350998
50.5741806 -15.7956934 14.81570625
23.31142426 -7.994630814 2.026322365
22.98454666 -7.870059013 2.850621223
50.54537964 -16.17950439 7.185959339
50.55208588 -16.13499451 9.063474655
23.07452011 -8.010583878 2.017874241
22.77890396 -7.894563675 2.837146759
33.99295425 -11.30601025 5.099431515
24.75027466 -8.732566833 0.3024061918
22.65349388 -7.971840382 1.99972105
22.64254189 -7.943559647 2.830117941
33.85929871 -11.4008894 5.091743946
24.6809597 -8.805474281 0.3062603474
22.48571396 -8.005648613 1.99482739
22.53273582 -8.000022888 2.825466871
24.56769562 -8.863791466 0.3109525442
22.46256828 -8.084607124 1.997688174
22.62911224 -8.11724472 2.839245796
24.45431709 -8.921437263 0.3156248927
33.55838776 -11.79227734 1.369274735
22.44863701 -8.166575432 2.001063824
22.86656189 -8.276518822 2.865668297
24.375 -8.989712715 0.3196201622
33.51442719 -11.90740013 1.373303652
33.08312225 -11.73562145 2.582027912
22.6554203 -8.30016613 2.851879835
24.35805893 -9.078542709 0.3224086463
31.91871834 -11.47775936 2.524806976
22.79195595 -8.432822227 2.869530439
24.23665237 -9.131990433 0.3271786273
32.41925812 -11.76927376 2.558114767
22.93160439 -8.56780529 2.887567997
24.1095047 -9.182717323 0.3320321143
104.7960434 -36.5340538 2.664323807
32.02157211 -11.76034832 2.542420626
23.04175949 -8.689624786 2.902732372
24.12774086 -9.28320694 0.3341285884
31.78303528 -11.8032465 2.53536582
32.07322693 -11.86687851 3.739271402
24.18141937 -9.396503448 0.3355663717
33.91653061 -12.66740608 2.659146786
32.00056076 -11.96686268 3.740111589
23.94440842 -9.407211304 0.3424203992
33.76010895 -12.7452631 2.656983137
33.05603027 -12.46108627 3.845326424
23.87511444 -9.476524353 0.3461258709
33.70708084 -12.85889912 2.660543919
32.56607437 -12.42381763 3.808167219
32.46207809 -12.35652733 5.012352467
23.86014175 -9.565237045 0.3488186002
33.63111496 -12.96420097 2.662842989
32.16892242 -12.40971279 3.779064655
32.44592667 -12.47190285 5.019106865
23.83732796 -9.651205063 0.3516527712
33.11921692 -12.91118336 2.640760422
31.6393795 -12.33871174 3.737100124
32.37688828 -12.57476807 5.019478321
23.70734787 -9.697447777 0.356431514
33.17631149 -13.06298828 2.650464058
31.59879875 -12.45510387 3.741410255
32.3168602 -12.68066311 5.021062851
23.61322784 -9.761087418 0.3606568277
33.04330063 -13.15175247 2.649847031
31.58974457 -12.57688999 3.748325586
23.68693924 -9.883113861 0.3617253006
34.13352585 -13.69151878 2.718069792
23.4332943 -9.880577087 0.368662864
33.62901306 -13.63646507 2.696258307
23.47087288 -9.989009857 0.3703730404
23.49654198 -10.08860493 0.3721827865
23.45696068 -10.167593 0.3752650023
23.30752563 -10.20270157 0.3802605867
23.14167023 -10.23492432 0.3856296539
23.27774239 -10.38909149 0.3857528865
23.30002022 -10.49310017 0.3877403438
23.19075966 -10.54285526 0.3919771612
23.1551857 -10.6229496 0.3949443698
23.07329941 -10.68340015 0.3986864388
26.40078545 -11.97245026 2.340866804
22.95451355 -10.72764778 0.4030312896
26.36366653 -12.06520939 2.344321251
22.89810562 -10.79817009 0.4063152373
26.29684258 -12.14528561 2.346034527
22.78650475 -10.84441471 0.4105024934
26.26829529 -12.24162674 2.35002923
26.4969101 -12.28276539 4.39203167
22.66021919 -10.88355255 0.4149101973
26.21924591 -12.32915592 2.352824926
26.66056252 -12.46342945 4.423208237
22.55037689 -10.92925453 0.4190255105
26.18453598 -12.42290401 2.356492996
26.64983177 -12.59586048 3.404563189
26.60694122 -12.55064774 4.424861908
22.48793602 -10.99559021 0.4223499894
26.36414909 -12.63779831 1.365017653
25.27892876 -12.1298933 2.307809114
26.7433567 -12.74836636 3.421233654
26.56029129 -12.64085674 4.427506924
22.39797211 -11.04924393 0.4261080921
26.27373695 -12.70754528 1.367298603
25.12828064 -12.16812706 2.304328442
26.0796814 -12.56340504 3.363228798
22.2169838 -11.06080437 0.4313093424
25.97373199 -12.68183994 1.364911914
25.15961075 -12.28776741 2.311839819
26.58503342 -12.90086937 3.420687914
26.45703316 -12.8166399 4.431544304
22.19415474 -11.14413548 0.43395558
25.73787308 -12.68330574 1.363882303
25.19767189 -12.41109371 2.319810867
26.24362755 -12.85719872 3.394382238
26.42032242 -12.9111948 4.435677528
21.94803619 -11.12358761 0.4401343167
25.3080883 -12.59355068 1.358421326
25.30047417 -12.56489563 2.331784725
26.00602341 -12.85870934 3.378274441
26.25702858 -12.94769382 4.422333717
22.02268982 -11.25197983 0.4412187636
25.123909 -12.6150074 1.358418226
25.39706421 -12.71705055 2.343462229
25.53718567 -12.75669098 3.339354038
25.99295425 -12.9365406 4.394963741
21.95034409 -11.31630421 0.4447310865
25.06629944 -12.70011902 1.361478209
25.32451439 -12.79635048 2.345111132
25.44488335 -12.82195568 3.337574244
26.00939941 -13.06008816 4.406974316
21.93916512 -11.40492821 0.447168678
25.04839706 -12.79863262 1.36524713
25.60389137 -13.03680515 2.36819911
25.41186333 -12.914814 3.341753244
25.58416748 -12.97030449 4.356988907
21.75296402 -11.40922737 0.4523040652
24.98324394 -12.87467289 1.367931008
25.46574402 -13.08033848 2.365582705
25.26885605 -12.95525742 3.334877491
26.03242111 -13.29301357 4.428950787
21.73958397 -11.49645042 0.4547571242
24.91425514 -12.94868565 1.370524168
25.22150612 -13.07184601 2.35634017
25.34840393 -13.10198021 3.350476265
26.02798462 -13.40250683 4.437826157
21.65586281 -11.54930782 0.4582799673
24.86302948 -13.03111935 1.373532295
25.24694252 -13.19292068 2.3638587
25.50607681 -13.28767586 3.374099016
26.05523491 -13.5277071 4.451230049
26.21035385 -13.57573223 5.508835793
21.57383537 -11.60258579 0.4617620707
24.77923012 -13.09745789 1.375770688
24.59613991 -12.98243237 2.329046249
25.34577179 -13.32482338 3.365919352
25.58460617 -13.41009903 4.394536972
21.54347038 -11.68603611 0.4645669758
24.67881203 -13.16054153 1.377814412
24.61236763 -13.10254669 2.336219549
25.33592033 -13.42983627 3.372662544
25.14319038 -13.30868053 4.342172146
21.48254585 -11.74941921 0.4677111804
24.56789398 -13.21250725 1.379380822
24.54091263 -13.17397976 2.337607145
25.29177094 -13.51805496 3.375948191
24.93062592 -13.31217861 4.321512699
21.45186234 -11.82328796 0.4702867866
24.5247345 -13.29811382 1.38257277
24.61762238 -13.31451797 2.34809494
26.01233482 -13.99105072 3.457760572
25.00203514 -13.45681763 4.341129303
26.37480736 -14.11278248 5.585307121
21.3460598 -11.86336422 0.4740739465
24.43000984 -13.35206223 1.384298444
24.07030106 -13.14409447 2.319245815
25.04982567 -13.61648846 3.366788864
25.16701889 -13.64433098 4.373726845
17.35821342 -9.672422409 3.953013182
21.27576065 -11.92122078 0.4773239195
24.36146164 -13.42439938 1.386868715
24.14809227 -13.28990555 2.330097437
24.83885002 -13.61314487 3.352494717
25.43123055 -13.88982105 4.421181202
17.35529709 -9.74714756 3.960416079
21.1911335 -11.97132206 0.4807699025
24.46489525 -13.58568192 1.393696785
24.14179802 -13.39328957 2.33563447
24.80468941 -13.7051096 3.356832743
25.25484467 -13.91109753 4.405796528
17.32223511 -9.806601524 3.96235466
21.14533997 -12.04147339 0.4836429656
24.31588936 -13.61626434 1.394283652
24.28730965 -13.57622719 2.350979567
24.60590363 -13.71145344 3.344102144
25.70889282 -14.25874996 4.480920315
17.3397789 -9.892298698 3.973629951
21.08519554 -12.10391235 0.486713618
24.25009155 -13.68980694 1.396930814
23.89822578 -13.47946262 2.331889391
17.89216042 -10.29987526 2.65260458
25.5158844 -14.27177048 4.463267326
17.25548172 -9.925174713 3.966228724
17.33860779 -9.949941635 4.685138702
17.38444519 -9.954748154 5.410132408
20.92418861 -12.11686134 0.4913142025
24.41484261 -13.89121723 1.405627251
23.9734993 -13.631464 2.343069553
17.80450058 -10.33327103 2.649242163
17.35813713 -10.07852936 3.295366526
17.34938812 -10.05542469 3.992136955
17.33080864 -10.02300644 4.692881107
17.33329201 -10.00520897 5.407352924
20.96590805 -12.23353004 0.4929235578
24.439785 -14.0141077 1.410626054
17.60244751 -10.32745647 1.934144616
17.76083946 -10.39365292 2.650770664
17.27146721 -10.11000443 3.289778471
17.30828285 -10.11112881 3.992795944
16.93997955 -9.896792412 4.614644527
17.27005768 -10.05295277 5.401922226
20.88939857 -12.28652382 0.4961946905
24.17874718 -13.98835468 1.408531547
17.50432396 -10.35366821 1.932204843
17.81330872 -10.50178146 2.662141562
16.9874897 -10.03873253 3.255856276
17.2722168 -10.16946793 3.994420052
16.35305977 -9.658489227 4.491168022
17.21348 -10.10012627 5.397748947
20.72339821 -12.28999329 0.5006917715
24.18959427 -14.09807396 1.41295886
17.02395058 -10.17115498 1.90515101
17.73925591 -10.5419302 2.660234213
17.00220108 -10.11946869 3.264582396
16.58498383 -9.875455856 3.874865532
16.36326027 -9.733923912 4.502218723
17.1635685 -10.14680481 5.394834995
20.69781685 -12.36541271 0.5031191111
24.12582588 -14.17271709 1.41568768
17.01227188 -10.23805714 1.908548951
17.86246872 -10.68572903 2.678910255
16.84433746 -10.11012363 3.248508692
16.35902596 -9.823471069 3.840397596
16.39050484 -9.822689056 4.517698765
16.63641739 -9.937971115 5.264088631
20.64026833 -12.42780685 0.5060892105
24.46111298 -14.4629612 1.428654909
16.95327187 -10.28280163 1.909057498
17.89600182 -10.78546143 2.688485622
16.33219337 -9.900630951 3.180113792
16.32227898 -9.877511024 3.841581106
16.32262993 -9.856066704 4.511118889
16.53421021 -9.953635216 5.246830463
20.75302315 -12.5907011 0.5068560839
24.24827957 -14.46688843 1.427967191
16.9169178 -10.34382343 1.911291122
17.82466698 -10.83148575 2.687256336
16.07532883 -9.839755058 3.149872065
16.33726692 -9.963914871 3.852907419
16.23622131 -9.889987946 4.501710415
16.51925278 -10.0281229 5.254754543
16.54957199 -10.02211094 5.962703228
20.68779945 -12.64922333 0.5099300742
24.1421566 -14.51279545 1.429392695
16.92725563 -10.42721558 1.916427851
15.9666338 -9.869617462 2.494695425
16.00730133 -9.871558189 3.146279097
16.23975563 -9.984132767 3.842750788
16.0364151 -9.84901619 4.464868546
16.50715256 -10.09306431 5.26189518
16.4901104 -10.06459522 5.956429958
20.55474281 -12.66866302 0.5138965845
24.36214828 -14.74907207 1.439755082
17.05182838 -10.57581806 1.929248571
15.89678478 -9.899864197 2.492427826
15.99810505 -9.939935684 3.151714087
16.17325211 -10.0212307 3.838412285
15.88676739 -9.838420868 4.439875603
16.44564247 -10.13422775 5.25623703
16.42045021 -10.10112667 5.946975231
20.4928093 -12.72832012 0.5168995261
24.42118835 -14.8955698 1.445883512
17.04731369 -10.6520586 1.933489084
15.84263229 -9.942359924 2.492114305
16.04550171 -10.04076099 3.165583611
16.55276489 -10.31154251 3.918434858
15.82097435 -9.874302864 4.43411541
16.29259872 -10.12330914 5.22565794
16.37257195 -10.14962006 5.944386482
20.31315994 -12.71930695 0.5214355588
24.42754745 -15.0126667 1.450629473
16.89891243 -10.64560127 1.928046942
15.83151913 -10.00942802 2.496452093
16.54652023 -10.40277767 3.246971846
16.57941818 -10.40345764 3.931995153
15.83183765 -9.957354546 4.446544647
16.24124527 -10.16931248 5.22273922
20.23182106 -12.77137947 0.5247670412
24.29269409 -15.05371189 1.451771498
15.89814091 -10.14636993 1.865018487
15.88569736 -10.11824703 2.508174181
16.5216217 -10.4691906 3.250814438
17.27028656 -10.88368034 4.072419167
15.86438274 -10.05334473 4.464102268
15.95368576 -10.0829649 5.155731678
16.21621895 -10.21513367 5.920770645
20.25364494 -12.88411331 0.526755929
24.58194542 -15.34312153 1.464568138
15.94671822 -10.25297356 1.872866035
15.6281929 -10.04559422 2.48611021
16.45877647 -10.51353836 3.249022722
16.36713219 -10.44191647 3.909622669
15.84034252 -10.09525108 5.136241436
15.85596466 -10.08578205 5.81975174
20.19113159 -12.94242382 0.5297228098
24.50898552 -15.41550636 1.467224479
15.75575161 -10.21504498 1.864186883
15.66290855 -10.139431 2.495485783
15.71208286 -10.15120983 3.144301891
17.30660439 -11.07065105 4.097952366
15.66231155 -10.08320999 4.436397552
15.86815643 -10.18566322 5.154990196
15.78497219 -10.11847496 5.809673309
20.25188065 -13.07461262 0.531118989
24.45812607 -15.50090122 1.470496655
16.03006554 -10.45283222 1.887352586
15.47806263 -10.10339546 2.480910063
15.66240311 -10.19575024 3.143831015
15.64497948 -10.14662457 4.442033291
15.73797703 -10.18346596 5.130280495
15.79704285 -10.19969749 5.826087475
20.1682663 -13.12033558 0.5343453288
24.39669228 -15.57992268 1.473477244
15.96742821 -10.49118519 1.887490749
15.68309975 -10.29953098 2.509037256
15.56834412 -10.21359444 3.13667655
15.54697227 -10.18344879 3.777977705
15.44209003 -10.09967136 4.40427351
15.72509575 -10.25007153 5.137932301
19.86610413 -13.03221321 0.5402783751
24.34012985 -15.66181374 1.476598382
15.96962452 -10.5684948 1.892108202
15.597188 -10.32221031 2.505316496
15.63742256 -10.32919598 3.154182673
15.39750767 -10.16730785 3.757553816
15.34899521 -10.11700916 4.392125607
15.69524765 -10.3066988 5.140958786
19.8509388 -13.11823273 0.5426087976
24.29182053 -15.74870396 1.479958892
16.1691761 -10.76656342 1.910463572
15.63377094 -10.4189539 2.515111685
15.54824066 -10.34961605 3.14778614
15.31077766 -10.18810558 3.749172211
15.3096447 -10.16630173 4.39260006
15.78177643 -10.43364525 5.176404953
19.8732605 -13.22295189 0.5443737507
15.45093632 -10.38173389 2.500650167
15.4811039 -10.38298798 3.144720793
15.56751728 -10.4146204 3.806963682
15.16971111 -10.1541748 4.369358063
15.85097694 -10.55119801 5.207248211
19.84205246 -13.29964161 0.5469046831
15.58380699 -10.55557442 1.878458023
15.56322098 -10.52557373 2.518927813
15.36589432 -10.36528969 3.776375532
15.11186218 -10.18784809 4.364965916
15.72557163 -10.54655743 5.183308125
19.7682476 -13.34961319 0.5499450564
16.60666847 -11.26957989 1.954831481
15.63131905 -10.62195587 3.181792974
15.18493938 -10.32714272 3.749663591
15.03898048 -10.21559334 4.357500553
15.78732967 -10.66051197 5.212321281
19.72303391 -13.41744518 0.5526335239
16.61926842 -11.35824108 1.960528016
16.2322464 -11.09265995 2.605341434
16.00205803 -10.93015003 3.246122837
15.1901083 -10.40401459 3.759234428
14.93116188 -10.22115612 4.341710091
15.50666904 -10.56208134 5.145304203
19.63379478 -13.45708179 0.5558357835
16.58594322 -11.41823769 1.963009477
16.76005173 -11.50577545 2.67086792
15.22997379 -10.50313187 3.775690317
14.91476727 -10.28347778 4.347682953
15.41307926 -10.57871437 5.130680084
16.52188301 -11.548522 0.5943743587
15.75159931 -10.96648216 1.90850544
15.58450508 -10.83839226 2.544792414
15.26861763 -10.61968136 3.148012638
15.23103142 -10.57830238 3.784627914
14.92791367 -10.36470413 4.360792637
15.31463528 -10.5916872 5.114644051
16.4662075 -11.59412766 0.5968277454
16.52633667 -11.56145096 1.281487107
16.40111923 -11.46228313 1.959574342
15.54955864 -10.89262104 2.546900272
14.99230576 -10.51755524 3.112541199
15.22343349 -10.64828491 3.791933775
14.96710205 -10.46301937 4.380257607
15.01454353 -10.47546768 5.041432381
16.69381714 -11.52587795 6.250984192
16.43050385 -11.65260696 0.5990434885
16.46719933 -11.60486221 1.283072114
15.83482265 -11.17602348 1.923822999
15.46594524 -10.9153614 2.543504477
15.04335785 -10.62460423 3.127785206
15.22879887 -10.72688484 3.801869869
14.95139027 -10.52670288 4.386647224
14.78420162 -10.40144253 4.987673759
19.28813934 -13.61870098 0.5683698654
16.45145035 -11.67646122 1.285966158
16.17137337 -11.47477913 1.952821255
15.48575497 -11.00508499 2.551871538
15.0705719 -10.71698093 3.139420748
15.35288715 -10.8830595 3.835457087
14.84003162 -10.52853012 4.370015144
14.77010822 -10.46547127 4.995257854
19.22702599 -13.67485142 0.5711829662
16.23595619 -11.59807682 1.962377191
15.53992367 -11.12184048 2.564542294
15.05256081 -10.78028297 3.144062757
15.32423687 -10.94076824 3.838855743
14.87479973 -10.62880135 4.389210224
14.95763779 -10.66499424 5.061118126
19.1784687 -13.74409771 0.573953867
15.65998459 -11.27929592 2.584557772
14.99615192 -10.82213211 3.143095016
15.02854824 -10.82603264 3.789418459
14.72253132 -10.60284805 4.362616539
15.15052509 -10.86658859 5.128334045
15.85798073 -11.31232071 6.034581661
19.10539055 -13.79191685 0.5768830776
16.33631516 -11.83261108 1.979862213
15.67794418 -11.3741188 2.593281031
14.94964504 -10.86659431 3.143317699
14.9540844 -10.85206032 3.783567905
14.88731194 -10.78994846 4.4136343
15.20258141 -10.98094559 5.156118393
15.75828552 -11.32590389 6.015936375
19.10063553 -13.88102341 0.5789490938
16.35119438 -11.92123032 1.985741138
15.64646149 -11.42433739 2.595397711
14.85208416 -10.87288761 3.135106087
14.88466072 -10.87728977 3.778261423
14.98617935 -10.92367554 4.447291374
15.33542633 -11.13861942 5.205517769
15.61563015 -11.30627537 5.982224464
19.03875923 -13.93629646 0.5817430019
15.82034969 -11.64398479 1.951759934
15.32433128 -11.2855854 2.564474821
14.90892696 -10.98677063 3.151720524
14.92137146 -10.97761536 3.794791698
14.88895321 -10.9341383 4.434209824
15.29913521 -11.19188023 5.20761013
15.55306721 -11.34328461 5.975812912
19.06892395 -14.05487442 0.5835431218
15.76947117 -11.6900444 1.95295155
15.28781414 -11.33891678 2.566571951
14.87011719 -11.03639126 3.153238535
14.87438011 -11.02172947 3.794524431
14.76899338 -10.93229675 4.416030884
15.27714252 -11.25483894 5.213899136
18.95002556 -14.07556534 0.5870401263
15.62945843 -11.67856979 1.947780013
15.24927711 -11.39477158 2.568771839
14.84405899 -11.09855938 3.157204151
14.77666855 -11.03474236 3.784455061
14.75275993 -11.00056839 4.423335552
15.28839207 -11.34454918 5.230561733
18.93114853 -14.16555309 0.5894679427
15.58482742 -11.73228073 1.949666619
15.32667446 -11.53104687 2.584587574
15.47638702 -11.6166544 3.266674042
14.66933155 -11.04044914 3.772385359
14.93806553 -11.20427132 4.479992867
15.1886549 -11.3583889 5.215018749
18.78184319 -14.15887451 0.593141675
15.50757694 -11.759058 1.948870778
15.66791058 -11.84889317 2.631244421
14.86292553 -11.26891804 3.176275253
14.60278606 -11.07003689 3.768123627
15.09314442 -11.38925552 4.529526234
15.16597366 -11.42111683 5.221307755
18.73876381 -14.22663879 0.5956991315
15.44174194 -11.79349232 1.948921204
15.7433691 -11.98362637 2.646859169
14.85722542 -11.34227562 3.183290958
14.57013226 -11.12305641 3.770793438
14.97417641 -11.38437939 4.511240959
15.20361519 -11.5261364 5.245358944
18.69868279 -14.29660225 0.5982223749
15.41653633 -11.85650349 1.952034354
15.69953823 -12.03495121 2.648452282
14.74345589 -11.32170105 3.815810919
14.93229771 -11.4330225 4.512104988
15.4728508 -11.7949791 5.337696552
18.55293655 -14.29036999 0.6018002033
15.26123619 -11.82650661 1.945298195
15.85315514 -12.22729111 2.673551559
14.73881149 -11.39583683 3.824466467
14.98451805 -11.54846382 4.53654623
15.54051781 -11.92408657 5.371172905
18.47216988 -14.33032227 0.6047073007
15.37995434 -11.99289513 1.959375262
15.41424751 -11.99524212 2.628091812
14.62397957 -11.40898609 3.169496059
15.06559944 -11.70802307 3.901705503
15.19227219 -11.77617168 4.600200176
15.54418564 -12.00857449 5.385955811
18.39295387 -14.37106323 0.6075869203
15.25867748 -11.98660088 1.955203414
15.37041759 -12.0453701 2.629647017
14.67209816 -11.52145386 3.185432434
14.91715431 -11.68069267 3.880916357
15.18878841 -11.85417461 4.611104488
16.0461216 -12.45218277 5.548713207
18.48589897 -14.5384407 0.6087887883
15.11829281 -11.96545506 1.949521065
15.29588032 -12.07301903 2.627524614
15.23471642 -11.99138069 3.956960201
15.08823586 -11.86202812 4.597595692
18.37561798 -14.55634022 0.6119606495
15.00877666 -11.96597195 1.946164846
15.26142502 -12.12977695 2.630230188
14.95664787 -11.88745975 3.248659372
15.27033615 -12.09915352 3.974676847
15.05739212 -11.92023849 4.6016922
15.92798138 -12.53710461 5.542376041
18.4207592 -14.6898756 0.6136453152
14.89944744 -11.96585655 1.942786574
15.31912231 -12.25903416 2.644476891
16.10693741 -12.81916714 3.447053909
15.76226807 -12.54477501 4.088078022
15.15211678 -12.07517147 4.638356686
15.685853 -12.44879055 5.485147476
18.39888573 -14.77895069 0.6160781384
14.95936966 -12.09565735 1.952810049
15.10854912 -12.18488789 2.625847816
16.0294857 -12.85309505 3.443878412
15.17807102 -12.19957447 3.976699829
15.30923271 -12.27386284 4.690591812
15.64339256 -12.50210381 5.486860752
18.38382721 -14.86846447 0.6183431149
14.82924175 -12.07924557 1.947789907
15.01003265 -12.19318485 2.620768547
15.95728493 -12.88621712 3.441106081
14.95833206 -12.11746597 3.940897465
15.26433086 -12.32352257 4.691522121
15.63345814 -12.57969475 5.498428345
18.30006218 -14.90578651 0.6212359071
14.8552084 -12.18035793 1.954985976
14.96083069 -12.23819256 2.621699095
14.87313652 -12.1349802 3.933333397
15.22865391 -12.38009453 4.694857597
15.59366608 -12.63513565 5.501079082
18.31131744 -15.01593208 0.6232622266
14.79345322 -12.21508312 1.955313802
14.93322754 -12.30371857 2.625650883
16.31737328 -13.33588982 3.520025492
14.88373184 -12.22488689 3.946072578
15.55623627 -12.69667816 5.505247116
18.26739883 -15.08906841 0.6258941293
14.74386215 -12.26306629 1.956865907
15.79094696 -13.04611969 2.73867178
16.27296638 -13.39668465 3.52269125
14.84179115 -12.27919674 3.948261976
15.8455267 -13.02408409 4.88007164
15.58399296 -12.80379009 5.52857542
18.19103622 -15.13176727 0.628698647
14.74659157 -12.3474226 1.962328315
15.96384335 -13.26805592 2.767628193
15.49312115 -12.86468315 4.098093033
15.78562737 -13.06596375 4.877871037
18.1877861 -15.2266283 0.6307549477
14.85471821 -12.51049614 1.976001382
15.58299255 -13.06034374 2.72786355
15.47016335 -12.92915821 4.103832722
15.71633244 -13.10038376 4.873249054
18.1126442 -15.27011681 0.6335356832
15.53870583 -13.11332512 2.729863167
15.39980793 -12.96103287 4.099998951
15.66612244 -13.14501667 4.872934818
18.08526039 -15.34629822 0.6357977986
15.48389339 -13.15357304 2.730183363
15.37024498 -13.02043056 4.104400635
15.61979008 -13.19700718 4.87433672
18.04257011 -15.41557217 0.6382938027
15.46574497 -13.22729206 2.735508442
15.37537575 -13.11186504 4.116936207
15.59081268 -13.25828552 4.879654884
18.00172806 -15.49165249 0.6408792734
15.45130825 -13.30870056 2.741731882
15.66888237 -13.43897915 4.192831039
15.59022808 -13.3557539 4.894578457
17.93214607 -15.53919125 0.6435856223
15.58782578 -13.46374416 4.187015057
17.92733002 -15.63977432 0.6457705498
15.59864616 -13.56264305 4.201287746
17.88044739 -15.70605469 0.6482890844
17.83685875 -15.7804327 0.6508865952
17.83539772 -15.88502216 0.6530555487
17.79066277 -15.95362186 0.6555532813
17.72851944 -16.00213051 0.6580665708
17.70914268 -16.09253502 0.6603735685
17.67572594 -16.17123032 0.6627832055
17.59519768 -16.20918083 0.6655196548
17.50443268 -16.24321747 0.668422401
17.45381165 -16.30684662 0.6709343195
17.47322464 -16.43274689 0.6729823351
17.36231804 -16.44293594 0.6758826375
17.25899696 -16.45921707 0.6787153482
17.2120285 -16.52606201 0.6811829209
17.17070961 -16.59816742 0.6836131811
17.14234734 -16.68235779 0.6859648228
17.1634655 -16.81277847 0.6880316138
17.11225319 -16.87665367 0.690523088
17.08703423 -16.96502495 0.6928665638
17.01356316 -17.01376343 0.6955848336
16.91963196 -17.03713417 0.6982911229
16.87761116 -17.1042099 0.7006053329
16.85554123 -17.20207405 0.7030386925
16.76275635 -17.22590256 0.7057116032
16.77569008 -17.34717941 0.7077564597
16.84918213 -17.5348587 0.7096446753
16.76694298 -17.56957626 0.7122632861
16.78775597 -17.71296501 0.7145336866
16.73041725 -17.77285576 0.7170382142
16.74303818 -17.90379715 0.7192522287
16.73955917 -18.01930809 0.7215445638
16.63376999 -18.03025627 0.7242365479
16.54753876 -18.06083488 0.7268392444
16.53600121 -18.16901398 0.7291653752
16.41916275 -18.1671772 0.7318574786
16.40689278 -18.2752533 0.7341885567
16.36671448 -18.35426521 0.7366147637
16.36672592 -18.48290825 0.7390381694
16.26457214 -18.49584198 0.7416470647
8.936512947 -10.65363884 0.3018068075
16.22029877 -18.57741356 0.7442002892
8.894416809 -10.67590809 0.3036138415
16.17336273 -18.65015221 0.7466441393
8.89248085 -10.74248505 0.3032259047
16.07242775 -18.66346741 0.7492164373
8.831449509 -10.7437191 0.306048125
16.15474701 -18.88009453 0.7513610125
8.779826164 -10.75509167 0.3083513677
15.96277428 -18.79158974 0.7541179657
13.39514065 -15.77897549 2.861649752
8.75737381 -10.79915047 0.3090543151
16.10186768 -19.07470703 0.7561863065
13.35619259 -15.8403635 2.865772963
8.706607819 -10.81466293 0.3112692833
16.26370049 -19.39338112 0.7583882809
13.3328352 -15.92480564 2.872890711
8.70223999 -10.87964344 0.3109630346
17.5226078 -20.96541214 0.7587251663
13.2446003 -15.93085384 2.869368315
8.650417328 -10.89032173 0.3132466674
17.49443436 -21.0747776 0.7613812089
13.21282196 -16.00083733 2.87472868
8.64294529 -10.95227623 0.3130893409
16.58609772 -20.16272926 0.7652312517
8.598793983 -10.97174835 0.3149358332
17.31946945 -21.15683174 0.7668561339
12.98888397 -15.98184395 2.162250042
8.531350136 -10.96359062 0.3180572689
17.31600761 -21.29641533 0.7694897652
12.94900894 -16.04217911 2.165653944
8.506544113 -11.00554562 0.3188250065
17.19061661 -21.29247665 0.7722468376
13.01995659 -16.23319626 2.180943489
8.468729019 -11.03211403 0.3203006387
16.11802101 -20.15612602 0.7756819725
12.50963306 -15.73699474 2.13384223
12.77429199 -16.02496529 2.857067823
8.430835724 -11.05853748 0.3217726052
16.84337807 -21.16583633 0.7777507901
12.43843651 -15.75755119 2.133724213
12.72123814 -16.06934547 2.859068871
8.375065804 -11.06322765 0.3242256939
17.0030098 -21.50366402 0.780303359
12.39914322 -15.81614017 2.137066126
12.82840061 -16.30614662 2.887317896
12.13325787 -15.4515419 3.443129539
8.243411064 -10.97484303 0.3308778107
16.94624138 -21.58142471 0.7829819322
12.21987152 -15.70538902 2.12511611
12.85294247 -16.44576073 2.902266264
12.95623589 -16.54934692 3.637295961
8.188099861 -10.97874069 0.3333006799
16.87526131 -21.64196777 0.7856608629
13.27971172 -17.1042366 2.249418974
12.90754509 -16.60198402 3.64072752
8.03998661 -10.86725903 0.3408748806
16.24224281 -21.00685692 0.788310349
13.15619469 -17.06839561 2.244129181
12.63184738 -16.39768982 2.887719154
12.92877483 -16.74040222 3.659738541
8.15215683 -11.08232403 0.3339421153
16.73639679 -21.76700783 0.7910041213
13.10206604 -17.11723709 2.246492624
12.56350136 -16.42984962 2.887936831
13.06267643 -17.01916504 3.704105377
8.079321861 -11.06378841 0.3373200595
13.00655556 -17.11454582 2.244238615
12.47165394 -16.42698097 2.883650064
12.8790741 -16.91247368 3.678418159
8.022116661 -11.06071472 0.3398582637
14.67011547 -19.45475769 0.7953153253
12.86398411 -17.0520916 2.236647367
12.36757088 -16.40811729 2.877251863
12.19270134 -16.16275406 3.537607431
7.99284029 -11.09652424 0.3407964408
12.6997385 -16.96066666 2.226499557
12.93218613 -17.22691154 2.983785152
11.85847092 -15.8513279 3.475933552
7.949358463 -11.11786366 0.3424849808
12.51534081 -16.84162903 2.213926792
12.79337311 -17.17401314 2.97251749
12.54848862 -16.83534431 3.647031069
7.951598644 -11.19458961 0.3416374922
24.25195885 -32.25251007 0.812487185
12.43831253 -16.86369896 2.213922262
11.79516602 -16.0127964 2.812965631
12.4506855 -16.83115196 3.640198231
7.89987421 -11.20166874 0.343806237
24.1862812 -32.39403534 0.8164429069
12.39215469 -16.91956329 2.217046022
11.80672836 -16.13709259 2.826006413
12.18953705 -16.60997581 3.594940662
12.49367523 -16.97998238 4.391260147
7.872421265 -11.24031448 0.3446039855
24.15941048 -32.57579422 0.8202542663
11.63870907 -16.04928207 2.137722015
11.73387241 -16.15289116 2.824537039
12.46188831 -17.077425 3.672729015
12.37857437 -16.94165421 4.375381947
7.828517914 -11.25360966 0.3463573158
11.60984707 -16.12145996 2.142422915
11.6236248 -16.11937141 2.816524506
11.87842941 -16.42651939 3.55143857
12.38562202 -17.06745529 4.395869255
7.821205616 -11.31924057 0.3460001647
12.25551987 -17.07893372 2.225927591
11.4611311 -16.01037407 2.798693657
11.81670094 -16.45829964 3.551676035
12.52717113 -17.36529732 4.455022812
7.768757343 -11.32108688 0.348221153
12.21204376 -17.1390686 2.229470253
11.51701069 -16.19475365 2.819760561
11.74094009 -16.46565247 3.547885418
12.27340698 -17.14948463 4.399414062
7.744777679 -11.376297 0.3486653566
12.01661968 -17.01355743 2.216293573
11.32348347 -16.05871391 2.797937155
11.69940281 -16.54104996 3.555126667
12.03174877 -16.96360016 4.349623203
7.646729469 -11.3194809 0.3534222245
11.97842884 -17.19947433 0.8142451048
11.97560787 -17.07616997 2.22009635
11.22766113 -16.04054451 2.792165279
12.05768681 -17.13806915 3.655305624
11.76491165 -16.72248459 4.28897953
7.712809563 -11.48665524 0.3488476276
11.90311623 -17.21000862 0.8160563111
11.96670246 -17.20401573 1.521077633
11.93832684 -17.13822174 2.22394371
11.56014347 -16.60322952 2.863226175
11.65049076 -16.70496178 3.573539257
11.58922291 -16.59493637 4.254061699
7.716399193 -11.56561661 0.347846061
11.86491776 -17.27734947 0.8180564046
11.90428352 -17.23225594 1.522429705
11.90261936 -17.20872307 2.228459597
11.32199574 -16.39291 2.832059383
12.08435822 -17.40803528 3.692312717
11.35589123 -16.39216042 4.202391148
7.683859825 -11.59898472 0.3488486707
24.01717949 -34.29380417 0.853515029
11.85253239 -17.25977516 2.23126626
11.21547127 -16.35462952 2.823854208
11.77610779 -17.10558701 3.633800268
11.95950985 -17.33587456 4.40321064
7.659306049 -11.64364815 0.3493849933
12.08178234 -17.69936562 2.26833415
11.39145756 -16.71305466 2.867727757
11.4562149 -16.78194237 3.571822882
11.89709854 -17.37096977 4.4037714
7.577240944 -11.61127472 0.3531629443
12.18175602 -17.96377945 2.289909601
11.26426888 -16.6523304 2.856430292
11.27016926 -16.63978767 3.541872025
11.56034279 -17.02340126 4.320518017
11.6355257 -17.10611916 5.063430786
7.536865234 -11.63733959 0.354546845
11.07304192 -16.53183937 2.162179947
11.62173557 -17.27886581 2.935157061
11.59404087 -17.21833038 3.637709856
11.54874897 -17.13287163 4.337255955
6.922269821 -10.83539295 0.3890294731
11.42281914 -17.15159035 2.214996576
11.00039673 -16.52451324 2.832869768
11.44373322 -17.13273239 3.61743474
11.12541962 -16.66020584 4.226922035
7.51986599 -11.77354145 0.3537012041
11.38306427 -17.18861961 2.916510582
11.34017754 -17.10593796 3.607757568
11.07451153 -16.70524025 4.23017168
7.479680538 -11.79643154 0.3550873101
11.55140877 -17.57479477 2.249016523
10.9722929 -16.7183609 2.851869822
11.33974838 -17.22659302 3.623768806
11.49627781 -17.42373276 4.380221367
7.46158886 -11.84760475 0.3552327454
11.30026531 -17.3133316 2.926269054
11.38308239 -17.40577888 3.650159121
11.36768818 -17.36153221 4.359985352
7.393163204 -11.82888508 0.358240962
11.19844723 -17.28166962 2.919092178
11.13502979 -17.14599609 4.306651115
7.336422443 -11.83101845 0.3605194688
11.03542328 -17.17109489 2.901391745
10.89959908 -16.92253876 4.251846313
7.329331398 -11.90314007 0.3599460125
10.95837879 -17.1797123 2.899393797
10.93363094 -17.12176704 3.586261988
11.25348759 -17.57413673 4.385835171
7.264491081 -11.88864326 0.3627330065
11.63585854 -18.34626389 2.30846858
10.97198868 -17.3235836 2.914948702
10.90310192 -17.19918633 3.594905853
10.6897316 -16.85913277 4.225288391
7.182293892 -11.84708786 0.3665365577
11.09578037 -17.66315651 2.24741888
11.32430458 -17.97981834 2.99676466
11.20615482 -17.77964973 3.690063953
10.65651035 -16.93061829 4.234496117
7.171649456 -11.91857338 0.3660877943
11.72053051 -18.74199295 2.33981204
10.76089478 -17.26025391 2.900504351
11.1926403 -17.8879528 3.703881264
10.51124001 -16.83282471 4.207375526
7.121294022 -11.92506695 0.3680130541
23.48061943 -37.20145416 0.9147762656
10.69919109 -17.29094315 2.901472807
11.17333031 -17.99500465 3.717236757
10.48799896 -16.92543221 4.220894337
7.080679893 -11.94649696 0.3693579733
11.2456398 -18.28926277 2.297350407
10.66009235 -17.35646057 2.906949043
11.08098888 -17.98393822 3.710612774
7.099018574 -12.06054115 0.3672039807
23.49537468 -37.78609848 0.9243528247
10.64862347 -17.46538925 2.91802001
11.01350117 -18.01072693 3.710513592
6.991799831 -11.97707367 0.3724789619
10.92869377 -18.06098366 2.274652004
10.67930412 -17.64148331 2.9377141
11.14312553 -18.34588814 3.76305151
6.992427349 -12.06409645 0.3713466227
23.34368706 -38.11855698 0.9330769777
10.58869267 -17.62815666 2.933083057
11.07444954 -18.37283707 3.762970924
6.964045525 -12.10541534 0.3719251752
23.21369934 -38.19975662 0.9371094108
10.65696144 -17.86695099 2.960787773
6.901873589 -12.09222889 0.3745140731
23.05820847 -38.23966217 0.9409629107
10.32611561 -17.46860123 2.906935453
6.865059376 -12.12427235 0.3755229712
23.05735207 -38.53133774 0.9458585382
10.35712624 -17.65505219 2.927825212
6.854950428 -12.19602108 0.3749717474
58.76937103 -96.87098694 9.065858841
10.26303101 -17.63337708 2.922271967
6.809459686 -12.21422005 0.3764789701
10.22726345 -17.71323395 2.929559231
6.771020889 -12.23964405 0.3776112795
10.2392025 -17.86618042 2.946291685
6.76097393 -12.30846691 0.3770716488
22.8662796 -39.43121338 0.9647147059
10.15930271 -17.86758995 2.943749428
6.726253033 -12.34061527 0.3779555559
22.66675186 -39.40045166 0.9682289362
56.60655212 -96.30815125 8.988690376
10.11294556 -17.91818237 2.947615147
6.606813431 -12.23222446 0.3839423656
22.50407028 -39.43091965 0.9720050097
6.571296215 -12.26214027 0.3848694563
22.33165932 -39.45945358 0.9759345055
6.496865273 -12.22892666 0.3881158531
22.17009354 -39.4902916 0.9796746969
6.435601711 -12.21331406 0.3906178474
22.0095768 -39.52220917 0.9834023714
6.404995918 -12.24678326 0.391287595
21.85009003 -39.55521774 0.9871178865
6.359539032 -12.26320839 0.3927383423
21.68867111 -39.58411407 0.9907950759
6.32859087 -12.30567265 0.3932773173
21.52251816 -39.61958694 0.9946637154
6.298454285 -12.34520912 0.3938193321
21.35543251 -39.65261078 0.9985004067
6.222136497 -12.30045223 0.3972458839
21.19897652 -39.68826294 1.00216043
6.266134739 -12.47680664 0.3931057751
21.03777122 -39.71451187 1.00575161
53.12306976 -98.13689423 9.079075813
6.167129993 -12.38941097 0.397954464
6.140208721 -12.4355793 0.3982508183
6.102926254 -12.45764637 0.3992640674
6.054273605 -12.46294308 0.4009229243
6.050604343 -12.55958366 0.3996193707
6.055681229 -12.66951466 0.3977991641
6.01257658 -12.69163513 0.3989844918
5.894107342 -12.55452728 0.4052049518
5.863971233 -12.60107613 0.4055495858
19.67411804 -40.08763504 1.038165689
5.868527412 -12.71278477 0.4036868513
19.53012085 -40.14170074 1.041778207
5.824970722 -12.72321987 0.4050316513
19.3822422 -40.17033386 1.045049906
5.784924507 -12.74067688 0.4061398506
19.22401428 -40.19458389 1.048439503
5.763343811 -12.80678844 0.4058540761
19.07456207 -40.23621368 1.05193007
5.730463982 -12.84486198 0.4063807726
18.91819954 -40.28056717 1.055584669
5.665267944 -12.82064915 0.4089695215
18.76003075 -40.30298233 1.058915734
5.639878273 -12.87471962 0.4089746475
18.59678078 -40.33162689 1.062431097
5.610803604 -12.92150974 0.4092102647
18.43705177 -40.34915543 1.065694928
5.555446625 -12.91199589 0.4112098515
18.28417015 -40.3805542 1.069040775
5.518955231 -12.94863701 0.411836803
18.12962532 -40.40773392 1.072341681
5.480238438 -12.97511768 0.412691474
17.96985054 -40.44109726 1.075827241
5.429109573 -12.97411919 0.4143888056
5.36147356 -13.04372215 0.4154661
5.300698757 -13.02023792 0.4178185761
5.28888607 -13.11480904 0.4166461527
5.239197731 -13.11666298 0.4182079434
5.193463326 -13.12752151 0.4194859564
5.184935093 -13.22666264 0.4181067646
5.090260029 -13.11461735 0.4229655564
5.08503294 -13.22286987 0.4213133752
5.069172859 -13.30073929 0.4204968214
4.938287258 -13.1079607 0.427821219
4.993089676 -13.36825657 0.4217082262
4.898035526 -13.2555151 0.4265493155
4.892206192 -13.3738966 0.4247003794
4.867527962 -13.4393568 0.4243242741
1.97695446 -5.919634342 1.782216072
4.773600578 -13.32564068 0.4291218221
1.960040927 -5.928294182 1.782993555
4.776458263 -13.46369934 0.4266446233
4.745314598 -13.51398373 0.4266997576
4.690860271 -13.5023737 0.4285181761
5.417393208 -15.21137238 4.1702981
4.695284367 -13.65000057 0.4258019924
2.192035437 -6.753916264 2.169647217
5.068184853 -14.41392326 4.511937141
4.618655205 -13.57802773 0.4293146133
5.035422802 -14.47131729 4.52402401
4.598850727 -13.66178799 0.428414464
4.972626209 -14.49129772 3.464288235
2.159584522 -6.792793274 2.176205397
5.076399803 -14.7304287 4.591619492
4.573589802 -13.73883152 0.4277825952
4.926903248 -14.51400471 3.466460705
2.12519002 -6.765725136 2.168483496
4.988053799 -14.63869286 4.562708378
4.517277241 -13.72911358 0.4295770526
5.058038235 -15.0569458 3.031025648
4.874043941 -14.52444458 3.466134548
2.019238234 -6.538115025 2.113612175
4.962120533 -14.72597313 4.582864761
4.477138519 -13.75802708 0.4302104414
4.99338007 -15.03984737 3.026581287
1.822367787 -6.05217886 1.799418092
2.017023087 -6.594768047 2.125736713
4.508289814 -13.60880852 4.272687435
4.45343256 -13.82762623 0.4296399653
4.798131466 -14.63235664 2.960548162
1.810776114 -6.077024937 1.803464413
2.002524614 -6.614270687 2.129189253
4.502987862 -13.72951603 4.302670479
4.419313908 -13.87526989 0.4297499061
4.71250391 -14.54048729 2.944466352
1.782953382 -6.055395603 1.79839921
1.979242802 -6.611942768 2.127469301
4.445120335 -13.70842457 4.293653965
4.382996559 -13.9171505 0.4300168157
1.775036693 -6.091313839 1.804632187
1.93953824 -6.561501026 2.114486456
4.395632267 -13.71089458 4.291139126
4.304494381 -13.42779922 4.712173939
4.386235237 -14.07843876 0.4270125926
4.656246662 -14.70737839 2.450071096
1.765627265 -6.123515129 1.810138464
1.906477809 -6.529346466 2.105824947
4.383498192 -13.8231945 4.318682671
4.271448612 -13.4752636 4.723369122
4.328603268 -14.06594753 0.4288390279
4.604186058 -14.72050667 2.450724602
4.653965473 -14.84396648 2.987883568
1.754143119 -6.150117874 1.814552188
4.337576389 -13.84452343 4.321225166
4.228342056 -13.49357033 4.725470066
4.275279522 -14.05816555 0.4304514825
4.610469818 -14.90250492 2.471752644
4.639147758 -14.97165871 3.006474257
1.722143888 -6.115086555 1.806919217
4.284090519 -13.83554554 4.315692902
4.182139397 -13.50263023 4.724723816
4.550340652 -14.88442707 2.468720436
4.650508881 -15.16551971 3.03564024
1.695899487 -6.096722126 1.802565455
1.813659787 -6.446770191 2.083262205
4.216126919 -13.77410412 4.296061993
4.129954338 -13.49330235 4.718284607
4.202090263 -14.13842392 0.4309856594
4.447801113 -14.72534847 2.448805094
4.524653435 -14.94624424 2.999646902
1.701518655 -6.173385143 1.816820264
1.804368019 -6.484594822 2.091053247
3.988978863 -13.22678661 4.144032955
2.031175852 -7.165174007 2.741162062
4.1965518 -14.27437782 0.4286413193
4.687723637 -15.64776611 2.558787584
4.50186348 -15.03646183 3.012509823
1.679420948 -6.168007851 1.815021396
1.7875036 -6.496074677 2.09275198
3.943624258 -13.22690678 4.141396999
2.009684086 -7.173969746 2.742200375
4.136965275 -14.26366329 0.4304412305
4.097971439 -13.93391228 2.837608814
1.665314436 -6.190962315 1.818723321
3.884645462 -13.19867134 4.130816936
1.984733224 -7.175724983 2.740983486
4.090373993 -14.28638935 0.4312660992
4.329916477 -14.86847973 2.463552475
4.049965858 -13.94875145 2.838619471
1.646978021 -6.200737953 1.819865108
1.818287849 -6.744089603 2.148352385
1.799998999 -6.673843384 2.355510235
1.95351243 -7.157250404 2.733500957
4.073729515 -14.40012646 0.4296018183
4.240163326 -14.75877571 2.449587822
4.005961895 -13.97665215 2.841704845
1.62224865 -6.189775467 1.816980362
1.724319935 -6.511483669 2.093188047
1.776385903 -6.672932148 2.353947163
1.921322703 -7.134970188 2.724873304
3.960107088 -13.99046516 2.84265852
1.611657858 -6.221706867 1.822491527
1.725581288 -6.586531162 2.109673023
1.761135221 -6.69570303 2.358890295
1.897678971 -7.136054993 2.723620653
4.01564312 -14.55100632 0.428322047
4.404887199 -15.66563797 2.556787968
4.201217175 -14.96489239 2.994374037
1.603493094 -6.259001732 1.8290838
1.679809093 -6.506443977 2.090094328
3.738542318 -13.35004997 4.161107063
1.877910376 -7.145909786 2.725190878
3.84209466 -14.12266731 0.4408331811
4.215877056 -15.20552921 2.500953436
3.889001131 -14.07954121 2.854323387
1.591197252 -6.283102036 1.833114505
1.683257341 -6.58680582 2.107868195
3.694712639 -13.35482216 4.159951687
1.837890863 -7.087707043 2.705675602
3.926259995 -14.58119583 0.4300749302
3.942230701 -14.44291782 2.408958673
3.839003801 -14.07139301 2.851947308
1.570097089 -6.281029224 1.832034945
1.676874161 -6.635397434 2.118257761
3.711816072 -13.57557011 4.217151642
1.734076738 -6.814390659 2.61948514
3.65515542 -13.80610752 0.4515814483
6.54740715 -23.73219872 2.682795525
3.927158356 -14.56919384 2.423408985
3.9153018 -14.51035976 2.919585466
1.550116539 -6.282654285 1.831685662
1.689742565 -6.755567551 2.145201683
1.801883221 -7.135436058 2.473160505
1.710576773 -6.811123848 2.617057323
6.412672997 -23.56107903 2.668330669
3.890110731 -14.62097836 2.428951502
3.84379673 -14.44014263 2.907442808
1.539286494 -6.316355228 1.837568402
1.629048586 -6.620568275 2.112982988
1.682235718 -6.799108028 2.381054163
3.844453335 -14.35955429 4.950870514
3.565103054 -13.83132267 0.4533942342
6.342485428 -23.61588478 2.672634602
3.85596633 -14.68414783 2.435867548
3.792038202 -14.43815327 2.906013012
1.502241492 -6.246558189 2.02546525
1.594347596 -6.566378117 2.317071915
1.662661076 -6.800629139 2.611051321
3.74145174 -14.65785694 0.4333257377
6.275709152 -23.68392372 2.67805171
3.844150782 -14.82960415 2.452631235
3.729283333 -14.39593601 2.898314714
1.490752578 -6.288983822 1.830990195
1.431812525 -6.065493107 1.982736945
3.401546955 -13.1518507 4.092923641
3.6874578 -14.65796661 0.4346714616
6.209057331 -23.75370026 2.683626652
3.759535789 -14.72082329 2.438986301
3.672072411 -14.37252808 2.893586874
1.479601622 -6.322559357 1.836872578
1.575382113 -6.665661335 2.120740891
1.447670579 -6.191053867 2.213684797
1.61953795 -6.806396484 2.610166311
3.640502214 -14.67462826 0.4355182648
6.143129826 -23.84361649 2.690877438
3.694127321 -14.67046547 2.432377577
3.635283947 -14.43354893 2.902026892
1.465233088 -6.348782539 1.841306806
1.497710347 -6.458097935 2.071911335
1.443177938 -6.248338699 2.228149891
1.599189758 -6.817764759 2.612308979
3.207633495 -13.21932507 0.4739069045
6.077610493 -23.92073059 2.697090387
3.65617466 -14.73185635 2.439105749
3.585285902 -14.43650818 2.901465178
1.456689596 -6.393725395 1.849397302
1.379989743 -6.097506523 1.987769842
1.421425819 -6.246047974 2.226522207
1.570936441 -6.795453072 2.604153633
3.523595333 -14.62868595 0.4392605722
5.950861454 -23.76422119 2.683939695
3.647303581 -14.89634609 2.458181858
3.450551271 -14.1241703 2.851656914
1.446853399 -6.434869766 1.85675621
1.364688993 -6.113572121 1.990741014
1.517008066 -6.687142849 2.344268322
1.559908032 -6.837902546 2.615978003
3.156212807 -13.36881351 0.4722984433
5.817840576 -23.5781498 2.66835475
3.797990561 -15.6863327 2.551906109
3.416356564 -14.1737566 2.858487129
1.510843277 -6.763469219 1.919635296
1.486029387 -6.647109032 2.332549095
3.290413857 -13.60459328 4.697607994
3.401176214 -14.53596878 0.4439958036
5.571855068 -22.93916702 2.615225792
3.483102322 -14.63213158 2.929041147
1.524139404 -6.902036667 1.945776939
1.307758689 -6.039413929 1.972239375
1.507876992 -6.817238808 2.377291918
1.562144041 -7.021208286 2.669912338
3.392276525 -14.70503712 0.4409554005
5.561236382 -23.22535133 2.638841391
3.481375217 -14.84812927 2.450856447
3.517908573 -14.97601318 2.981705427
1.555101991 -7.115137577 1.986283302
1.511571765 -6.920010567 2.403905869
1.536369562 -7.009818077 2.665182114
3.345553637 -14.7226305 0.4417242706
5.499742985 -23.31230736 2.645948648
3.422082186 -14.81767941 2.446726084
3.280362844 -14.22389984 2.863556862
3.149395704 -13.67488384 3.25057292
1.271620274 -6.04831934 1.972928524
1.483885527 -6.898880959 2.397248268
1.51392436 -7.011345863 2.664447546
3.070707083 -13.79343033 0.4661532342
5.500023842 -23.65682411 2.674426556
3.430240631 -15.07528687 2.476924181
3.286314249 -14.45233822 2.898266077
1.433507323 -6.804811954 1.925257683
1.375764847 -6.559258461 2.089847803
1.457598925 -6.887285233 2.393126965
1.494210839 -7.023963928 2.667140484
3.237117052 -14.70535374 0.4446010888
5.320606232 -23.56035805 1.037097573
5.380182743 -23.55360985 1.849637628
5.289555073 -23.14339638 2.631776333
3.407763958 -15.20112133 2.491444111
3.269449234 -14.60268593 2.920766115
1.358602405 -6.575361729 2.092841387
1.434728384 -6.884742737 2.391504288
1.467531323 -7.012546062 2.662419319
2.969516277 -13.77612305 0.4688426554
3.372433186 -15.49245071 0.9490777254
5.30236721 -23.57803535 1.851392269
3.417528629 -15.49848652 1.997849822
3.323872328 -15.07997704 2.476528406
3.23587203 -14.67552567 2.931250572
1.360387206 -6.684700489 1.901000261
1.185501814 -5.934342861 1.944715858
2.988756418 -13.57094002 4.181948185
1.454815984 -7.054855824 2.674258471
3.141932964 -14.74377918 0.4460513294
3.310519934 -15.46764755 0.9496560693
3.355998278 -15.49542713 1.472630262
3.354058981 -15.46811676 1.995302081
3.295647144 -15.18433762 2.488516092
3.288429499 -15.13418102 3.001729965
1.354133368 -6.754714012 1.913926721
1.276258469 -6.40610981 2.05253005
