# .PCD v0.7 - Point Cloud Data file format
VERSION 0.7
FIELDS x y z
SIZE 4 4 4
TYPE F F F
COUNT 1 1 1
WIDTH 1267
HEIGHT 1
VIEWPOINT 0 0 0 1 0 0 0
POINTS 1267
DATA ascii
-23.03475189 -40.05941391 4.672467232
-23.02891541 -40.01397705 6.270141125
-23.05356598 -40.00446701 7.885606766
-24.53966331 -42.4702301 10.07199287
-23.24427605 -40.00099182 1.490940332
-23.15533638 -40.00226593 3.078900099
-23.17063332 -39.9769516 4.671289921
-23.16785431 -39.93659592 6.269612312
-23.18456459 -39.91333008 7.882741451
-24.70162773 -42.41100311 10.0769577
-23.37033844 -39.90248489 1.489598989
-23.29185677 -39.92115784 3.077877522
-23.30213165 -39.8871727 4.66941309
-23.30653381 -39.8587265 6.269064903
-23.32536697 -39.83870697 7.882947445
-24.83922958 -42.31072998 10.07283688
-23.59731865 -39.97132111 1.491261721
-23.43427277 -39.84983444 3.077440023
-23.43945122 -39.80719376 4.668540001
-23.44495583 -39.78036499 6.268499374
-23.4822731 -39.7906456 7.888076305
-24.98659706 -42.22681808 10.07247353
-23.12627792 -38.89117432 1.472211719
-23.83852196 -40.21010971 3.102430582
-23.84749222 -40.17299652 4.712246895
-23.85125542 -40.14266205 6.330226898
-25.4708786 -42.75159836 8.44378376
-25.11937332 -42.11890411 10.06680489
-22.96382713 -38.32955933 1.46248138
-23.97785187 -40.13002014 3.101541758
-24.04928017 -40.19478226 4.72170496
-23.98135948 -40.04714203 6.327455521
-25.68679428 -42.77503204 8.463299751
-25.28870392 -42.07081604 10.07470989
-23.00598717 -38.10632324 1.458836675
-24.11481476 -40.04603958 3.10043335
-24.1824646 -40.10370255 4.719910622
-24.13820839 -39.99512482 6.330895424
-26.8883152 -44.39079666 8.775445938
-25.46421432 -42.03207016 10.08485699
-23.11456108 -37.99186325 1.457143426
-24.25885963 -39.97346115 3.100009441
-24.3174057 -40.01556015 4.718438625
-24.27190781 -39.90539932 6.329045773
-25.58569908 -41.90595627 10.07535553
-23.22254181 -37.89131546 1.455673456
-24.39103889 -39.88172531 3.098462343
-24.45578003 -39.94811249 4.718706131
-24.40844345 -39.82026672 6.327896118
-26.76197624 -43.51539993 8.646369934
-25.74124527 -41.85052109 10.08099365
-23.3707695 -37.84047318 1.455110431
-24.51820374 -39.79720688 3.097156763
-24.59653854 -39.86914062 4.71821785
-24.55103874 -39.74472427 6.328163624
-26.91444397 -43.44286728 8.648236275
-25.87866402 -41.75014496 10.07749367
-23.48453331 -37.74929428 1.453792214
-24.66257286 -39.72483063 3.096777678
-24.64897346 -39.66618729 4.704855919
-24.67489052 -39.6545639 6.325839996
-24.69769096 -39.63777924 7.959878922
-26.02332497 -41.67704391 10.07931995
-23.63030243 -37.69403458 1.453132033
-24.79672813 -39.65121078 3.096139669
-24.8049221 -39.61168289 4.706882954
-24.82877541 -39.59643173 6.328704357
-24.83415985 -39.56708145 7.960891724
-26.15687752 -41.57077789 10.07465172
-23.7369709 -37.59198761 1.451599836
-24.93201637 -39.56437302 3.094922066
-24.93024635 -39.524086 4.705214977
-24.95099258 -39.50371933 6.326107025
-24.96969032 -39.47992325 7.959666729
-26.30744743 -41.50658798 10.07870483
-23.86271667 -37.50557327 1.450357676
-25.0689621 -39.49484253 3.094549417
-25.07395363 -39.4500885 4.705335617
-25.07853699 -39.40456772 6.32319212
-25.10247803 -39.40330887 7.959719181
-26.43922806 -41.39774704 10.07362175
-24.01056099 -37.4111824 1.449008226
-25.21731758 -39.38382721 3.092505693
-25.24202728 -39.3690033 4.705926418
-25.23876762 -39.32606125 6.324437618
-25.26091003 -39.30691147 7.959192753
-26.61346626 -41.30733109 10.07586193
-24.15001106 -37.34550476 1.448122025
-25.36708069 -39.3188591 3.092631578
-25.37540245 -39.27888489 4.704478741
-25.37218285 -39.23590469 6.322919846
-25.40207481 -39.22815323 7.959760189
-26.75094414 -41.2073288 10.07299995
-24.26629066 -37.2585907 1.446827292
-25.49899101 -39.22671509 3.091138363
-25.51280975 -39.20935059 4.70477438
-25.50857544 -39.15023804 6.322100639
-25.53642082 -39.1390152 7.9584589
-26.91591644 -41.16381836 10.08225155
-24.41349602 -37.21776962 1.446359992
-25.63500214 -39.15518188 3.090691805
-25.63781738 -39.1211319 4.703187943
-25.64020729 -39.07187271 6.321806908
-25.67258263 -39.06702042 7.959671021
-27.0567627 -41.08381653 10.08319187
-24.51768494 -37.09923553 1.444488525
-25.75741577 -39.06330109 3.089030027
-25.77812386 -39.04120636 4.702873707
-25.77160072 -38.99305344 6.321496487
-25.81298065 -39.00108719 7.962098122
-27.18677902 -40.97256088 10.07801247
-24.65244293 -37.0124588 1.443197012
-25.90628624 -38.98180771 3.088413715
-25.93157578 -38.96612167 4.703489304
-25.91942978 -38.9096489 6.321749687
-25.95877266 -38.91413879 7.962215424
-27.345541 -40.88852692 10.0802784
-24.80214691 -36.9608078 1.442520499
-26.04474068 -38.8849144 3.086879253
-26.07140923 -38.88512802 4.703135967
-26.06812286 -38.82730484 6.322220325
-26.08858681 -38.80384445 7.957999229
-27.48589897 -40.79251862 10.07882881
-24.92499924 -36.88331604 1.441353083
-26.17866898 -38.80980682 3.086261511
-26.19076157 -38.78853226 4.700801849
-26.216856 -38.77315521 6.325675964
-26.23282433 -38.74288559 7.961602688
-27.618927 -40.70085144 10.07743263
-25.04358292 -36.78628159 1.439834356
-26.322649 -38.74898148 3.086522579
-26.32776451 -38.70331192 4.700073719
-26.355299 -38.70376587 6.326963902
-26.36111069 -38.65871429 7.960878372
-27.75862503 -40.60388947 10.0759449
-25.18249321 -36.71829605 1.43883419
-26.45936394 -38.66337204 3.085499763
-26.46907043 -38.62413025 4.700003624
-26.49081039 -38.60186386 6.32474947
-26.50824165 -38.58724213 7.963449955
-27.89798927 -40.50643921 10.0744381
-25.32863235 -36.64699554 1.43777597
-26.59662247 -38.56446838 3.083888054
-26.62133408 -38.54627991 4.700518608
-26.62278366 -38.50899887 6.323303699
-26.65150833 -38.49603653 7.963159561
-28.05759621 -40.4228096 10.07735252
-25.53806686 -36.67720413 1.438544035
-26.73853111 -38.48601151 3.083324432
-26.75640297 -38.45789337 4.699563503
-26.76134682 -38.42537308 6.323271275
-26.79133034 -38.4138031 7.96384573
-28.16204262 -40.27638626 10.06451321
-16.72167778 -24.1546402 1.210827708
-26.88370323 -38.41189194 3.083039284
-26.89814377 -38.37873459 4.699604034
-26.9124012 -38.35897446 6.325842381
-26.92629051 -38.32463455 7.963282585
-27.03336143 -38.34370041 3.08313179
-27.02565575 -38.27967072 4.69759798
-27.58958626 -39.01906586 6.436139107
-37.61880493 -52.80048752 10.76207256
-27.17112541 -38.25876617 3.082211733
-27.16973686 -38.21713257 4.699028015
-27.72301865 -38.92235947 6.434588432
-37.08515549 -51.68858719 10.57117748
-27.29974365 -38.17486191 3.081151247
-27.32139778 -38.15089035 4.700530529
-27.85610962 -38.82518768 6.433019638
-37.20981216 -51.50452805 10.55750084
-27.43104935 -38.08091354 3.079699039
-27.46582413 -38.07442856 4.701001167
-27.98223686 -38.73244858 6.431512356
-37.48836136 -51.5105896 10.58180809
-16.80535126 -23.43910217 1.198381662
-22.8208046 -31.60721779 2.684194088
-27.59101105 -37.97183228 4.69875288
-28.15738106 -38.69169235 6.43847847
-27.69748116 -37.89802933 3.077135563
-22.93273544 -31.48923302 4.021906853
-28.30635262 -38.615242 6.440185547
-38.25356674 -51.7936058 10.68376541
-27.86752319 -37.85530853 3.078891754
-22.63010597 -30.86661911 3.96310544
-28.42819595 -38.48889542 6.435125828
-23.5251503 -31.86024094 2.7110672
-22.75174332 -30.80956841 3.964141369
-23.18598175 -31.20456886 2.673809767
-22.87811279 -30.75835991 3.965834141
-28.76837921 -38.3900032 6.447001934
-16.91341019 -22.78470612 1.186885476
-23.17957687 -30.97785759 2.663360596
-22.75570488 -30.39508438 3.933912992
-16.90615845 -22.61824799 1.183918595
-23.36994934 -31.01757812 2.669348001
-22.8380146 -30.28864288 3.929697752
-16.94737816 -22.50737762 1.181962967
-22.78513527 -30.04258728 2.612209082
-23.06259727 -30.3537178 3.944237232
-22.75337982 -29.79335976 2.600203514
-22.76938438 -29.77066422 3.888886929
-22.90140343 -29.7732048 2.602563858
-22.98186684 -29.83137131 3.902628183
-24.27229118 -31.42090225 5.450516224
-23.34383011 -30.12068176 2.628104687
-23.07801819 -29.74467087 3.900554419
-29.66814232 -37.9384346 6.460324764
-23.49967766 -30.10591316 2.630897999
-22.99376678 -29.44442177 3.875035048
-29.79779625 -37.83448029 6.458502769
-23.59778786 -30.0293541 2.62962079
-23.00689888 -29.25712585 3.862038374
-23.8207016 -30.09535789 2.637574196
-23.21825981 -29.31391144 3.875538588
-24.94028664 -31.38558578 5.491295338
-23.95938683 -30.0567627 2.63893199
-23.41130066 -29.34648514 3.886495829
-30.17814636 -37.52518845 6.453021049
-9.819753647 -12.74774361 0.4667976797
-23.85863876 -29.72824097 2.621861458
-24.00295258 -29.8583107 3.949875116
-30.39766312 -37.52948761 6.46819067
-9.914806366 -12.77789497 0.4644241035
-9.995500565 -12.85621834 1.005980611
-23.87740326 -29.54655457 2.61409688
-23.99560738 -29.64422989 3.934125423
-30.56155205 -37.46565628 6.47290659
-9.876358032 -12.64835644 0.4663904011
-9.986149788 -12.76488113 1.004315972
-23.77059937 -29.21668625 2.596845627
-23.9217968 -29.36303902 3.910582781
-9.817019463 -12.49957943 0.4689792991
-9.982236862 -12.67657185 1.002703786
-24.11466026 -29.43366241 2.614358902
-24.07150841 -29.3386116 3.915584326
-25.55683327 -31.04647064 5.499221325
-9.823656082 -12.42570972 0.4694429338
-9.977828026 -12.58843803 1.00109148
-24.07570648 -29.18652534 2.602373362
-24.17220306 -29.25585365 3.91421032
-9.853344917 -12.3792429 0.4691474438
-9.975535393 -12.50350857 0.9995344281
-24.27194595 -29.21603584 2.608139277
-24.49462128 -29.43131447 3.941406012
-31.12969017 -37.11545563 6.476971149
-9.914214134 -12.36901188 0.4678352773
-9.971463203 -12.41722775 0.9979495406
-24.39949799 -29.16437912 2.608714342
-24.36492157 -29.08022881 3.910415888
-9.977425575 -12.34317493 0.9965848327
-24.60038185 -29.19659996 2.614722967
-24.50792694 -29.04603195 3.914509773
-31.44811249 -36.9717598 6.484743595
-24.65703583 -29.06244087 2.610005379
-25.17267799 -29.60606384 3.984844923
-31.57438469 -36.8616066 6.482687473
-9.842991829 -12.04882812 0.4719955325
-10.0212841 -12.23281765 0.9945355058
-25.21232605 -29.44922829 3.975518942
-31.70027351 -36.75100708 6.480612755
-9.859196663 -11.9890337 0.4720692933
-25.6916256 -29.83359337 2.668117762
-25.18628693 -29.21949577 3.958016396
-9.873770714 -11.92776966 0.4721830189
-25.78861237 -29.73924446 2.666126013
-25.28128242 -29.12687492 3.955847502
-9.893393517 -11.87248039 0.4721235633
-25.80103493 -29.551054 2.658014536
-25.75773621 -29.4571991 4.001299381
-9.90334034 -11.80682564 0.4723605216
-25.83393097 -29.38680458 2.651449203
-31.27564621 -35.33149338 4.672602177
-9.900806427 -11.72795677 0.4729817212
-25.98993874 -29.3583889 2.653778315
-31.41482925 -35.24260712 4.672829628
-9.904615402 -11.65659237 0.4733879566
-31.47020149 -35.11788559 3.036566257
-31.54026794 -35.13851166 4.671374798
-32.71673965 -36.37023163 6.514930725
-9.916205406 -11.59412956 0.4735348821
-31.60998726 -35.02978134 3.035883188
-31.7046814 -35.07632828 4.674720764
-32.84090424 -36.2556572 6.512711048
-9.923387527 -11.52733326 0.4738092721
-31.75635719 -34.94842148 3.035662413
-31.82413673 -34.96536255 4.672562122
-33.01351929 -36.19285202 6.518952847
-9.920635223 -11.45042133 0.4743850231
-31.89296913 -34.85626221 3.034745455
-31.98095703 -34.9060173 4.675807953
-9.929389 -11.38990688 0.4745614827
-32.03026581 -34.77642441 3.034400463
-32.11307144 -34.81995392 4.676044941
-9.925434113 -11.31642437 0.4751274288
-32.16738129 -34.69604492 3.03403616
-32.26327133 -34.7407341 4.677645206
-9.933980942 -11.25289345 0.4753110111
-32.31850815 -34.61813736 3.034117699
-32.41468048 -34.66232681 4.679389
-33.62796783 -35.87983704 6.533086777
-9.944986343 -11.19230652 0.4754057825
-32.46671295 -34.53671265 3.033985138
-32.56594467 -34.58327103 4.681111336
-9.953286171 -11.12573433 0.4755951762
-32.61194992 -34.45180511 3.033639193
-32.62110901 -34.40504074 4.671389103
-9.95946312 -11.06097603 0.4758179486
-32.75445557 -34.352005 3.032582521
-32.77310562 -34.32645798 4.673239231
-6.146265984 -7.140709877 2.449321747
-9.956528664 -10.99092007 0.4762941897
-32.89622116 -34.27448273 3.032500505
-32.91374969 -34.23587036 4.673743725
-6.242908478 -7.194490433 2.469016075
-9.963441849 -10.92777061 0.4764713347
-33.04506683 -34.19203186 3.03237772
-33.05134964 -34.14189529 4.673897743
-6.296951294 -7.204577446 2.477144718
-9.974600792 -10.86578369 0.4765236974
-32.98047638 -33.89561081 3.017812252
-32.99830627 -33.85721588 4.651736259
-9.987973213 -10.80981445 0.4764769077
-9.864212036 -10.67373466 0.9651862383
-33.10845566 -33.78152466 3.015825748
-33.12623596 -33.75437164 4.650872231
-34.71392441 -35.26977921 6.554665089
-9.986542702 -10.74298573 0.4768625796
-9.89513588 -10.63958073 0.9644908309
-33.24876785 -33.70239258 3.015676737
-33.26231766 -33.67083359 4.651757717
-34.89904404 -35.22396088 6.564025879
-9.990492821 -10.68187141 0.4770706892
-9.91047287 -10.58682251 0.9634507895
-31.91216469 -32.17549896 2.916970015
-31.9649086 -32.17313004 4.486005783
-6.200893879 -6.938743114 2.426964998
-9.998710632 -10.62188339 0.4771529436
-9.942784309 -10.55078983 0.9627116919
-32.01700974 -32.05971146 2.914389372
-32.02417755 -32.01266861 4.477939129
-6.219272137 -6.914277554 2.425773144
-10.00831413 -10.56021214 0.4771977365
-9.987925529 -10.52713776 0.9621942043
-32.16453934 -31.98522377 2.914643288
-32.17595291 -31.94212723 4.480564117
-6.295676231 -6.945551395 2.439831972
-6.072496891 -6.720891953 2.68606329
-10.01471233 -10.4958353 0.4773302972
-10.02891731 -10.49600887 0.9615333676
-32.32456207 -31.91135979 2.915232182
-32.32010269 -31.85284805 4.481568336
-6.08268261 -6.687772751 2.682076931
-10.02056217 -10.43466568 0.4774532914
-35.64409637 -34.84562683 3.122796297
-36.84852219 -35.93091965 4.981579304
-6.361580849 -6.919384956 2.444444418
-6.112967491 -6.675819874 2.68471384
-10.02029419 -10.36808014 0.4777550101
-35.79303741 -34.74980164 3.122182131
-36.99125671 -35.8211441 4.981187344
-35.88830566 -34.73177338 6.592074871
-6.398472309 -6.911888123 2.448067188
-6.0991292 -6.622352123 2.673704147
-10.01822472 -10.30024433 0.4781017303
-10.15530491 -10.41197205 0.9597101212
-35.94174194 -34.65334702 3.121545315
-37.13221741 -35.70943832 4.980609417
-6.43682909 -6.905548096 2.45205617
-6.197781563 -6.674096107 2.697452784
-10.14889908 -10.33970833 0.9582973719
-36.13842773 -34.60123444 3.124003887
-37.19844055 -35.52790833 4.971640587
-6.455034733 -6.880319595 2.450838327
-6.230983734 -6.664285183 2.700954199
-36.26922226 -34.48707962 3.122186661
-37.29020309 -35.37070084 4.965613842
-6.496285439 -6.876320839 2.455559969
-6.152100563 -6.551381111 2.670150042
-10.07323265 -10.15569019 0.477191776
-36.40848541 -34.38053513 3.120914936
-36.70582199 -34.59325409 4.884183407
-6.496956348 -6.835002899 2.449879408
-5.90598774 -6.277219296 2.882325172
-10.15107536 -10.16539478 0.475025326
-36.41623306 -34.1652832 3.111756086
-36.55552673 -34.23221207 4.852437019
-6.528402328 -6.82393837 2.452389002
-6.407711506 -6.705722809 2.735185862
-6.727632523 -6.984062195 3.166017532
-10.23515415 -10.17693043 0.4726728499
-36.22748184 -33.76145172 3.089671373
-36.24351883 -33.71634674 4.802244186
-6.593013763 -6.840519428 2.463033199
-6.448444366 -6.701521397 2.740858316
-6.779304028 -6.98759985 3.176165581
-10.30903053 -10.17862701 0.4706274867
-35.95026016 -33.28179932 3.062167168
-35.97429657 -33.24438477 4.757168293
-6.606551647 -6.810864925 2.460683584
-6.484861374 -6.693209648 2.745206594
-6.826751709 -6.986988544 3.184784412
-10.14299965 -9.965425491 0.4759465754
-35.64034653 -32.77786255 3.032828331
-35.67843628 -32.75347519 4.709517002
-6.996702671 -7.127381325 2.218493938
-6.561182976 -6.728987217 2.443497419
-6.519839287 -6.683417797 2.749110222
-6.869934082 -6.982273102 3.191874981
-10.11769009 -9.879569054 0.4769278467
-35.36021805 -32.30566025 3.005596638
-35.39001083 -32.27428818 4.663053036
-7.033352375 -7.115967751 2.220985413
-6.643564224 -6.760592461 2.45857358
-6.51382637 -6.637350082 2.740713835
-6.895729542 -6.962006092 3.192876101
-10.12491035 -9.823081017 0.4768999815
-35.11618423 -31.87017441 2.980840206
-35.13458633 -31.82911491 4.620550156
-6.721812725 -6.787807465 2.472524881
-6.202022076 -6.32426405 2.641008377
-6.889396191 -6.913648605 3.182723761
-10.18001461 -9.808781624 0.4753941894
-34.84549713 -31.41572189 2.95462513
-34.85547638 -31.36774826 4.575801849
-6.226999283 -6.307637691 2.642292261
-6.923751354 -6.900883675 3.186759233
-10.25023556 -9.807319641 0.4734172225
-34.57206345 -30.96353912 2.928450823
-34.59614563 -30.92831802 4.533540726
-6.254890919 -6.293450832 2.644449711
-6.953701973 -6.884169102 3.18927002
-10.4038353 -9.877307892 0.468878597
-34.31101608 -30.52669525 2.903249979
-34.33956146 -30.50618362 4.492590427
-6.858668327 -6.783369541 2.489894152
-6.27386713 -6.271523476 2.643970966
-6.952726841 -6.840928555 3.181140423
-34.04830933 -30.10319328 2.878592014
-34.0750618 -30.07106018 4.450407505
-6.829948425 -6.717290878 2.477151632
-6.300743103 -6.258213997 2.64614439
-6.845740318 -6.710112572 3.137086153
-10.10216141 -9.497962952 0.4784140885
-33.81557846 -29.69918251 2.855516434
-33.84239578 -29.67762947 4.412623882
-6.926395416 -6.768942833 2.170768499
-6.799837112 -6.652675629 2.464439631
-7.00383997 -6.802032948 3.18363905
-33.61513519 -29.33656311 2.835021257
-33.59265518 -29.26347351 4.372631073
-6.950485706 -6.749721527 2.171164513
-6.789939404 -6.603573799 2.456515551
-6.367342472 -6.240156174 2.653961897
-7.020638466 -6.7762146 3.182112455
-33.36555862 -28.9260807 2.811272144
-33.38015747 -28.88471794 4.336900711
-6.981618881 -6.734256268 2.172734261
-6.770721912 -6.547059536 2.446373701
-6.405629635 -6.234066486 2.659165382
-7.045817852 -6.755300999 3.183086157
-33.22092438 -28.60725212 2.794047594
-33.24201965 -28.57156181 4.309318066
-7.368586063 -7.025704384 1.905414224
-6.714854717 -6.460670948 2.427361488
-6.924652576 -6.613624096 3.134477615
-10.24878693 -9.382206917 0.4744207561
-11.61751842 -10.49619961 0.9587174058
-33.33760071 -28.50766945 2.792671204
-33.37254333 -28.48322487 4.310303688
-7.394624233 -7.003709316 1.905536175
-6.793606281 -6.485820293 2.441253424
-6.204736233 -5.993504524 2.5889678
-6.965753555 -6.606502533 3.141018391
-10.30762863 -9.370529175 0.4727257192
-33.48947906 -28.4367981 2.793402672
-7.757387638 -7.267682552 1.603484631
-7.432893276 -6.991680145 1.907506347
-6.828456402 -6.474447727 2.444417715
-6.199965 -5.95326519 2.581914663
-7.00088501 -6.594279766 3.145529985
-10.31228542 -9.31430912 0.4726774991
-13.53712273 -11.92739868 0.9838295579
-33.63044739 -28.35635757 2.793464184
-7.002837658 -6.609678268 1.521604419
-7.452676296 -6.96441412 1.906693578
-7.362274647 -6.879063606 2.229160547
-6.271382332 -5.985121727 2.304652452
-6.260231495 -5.965899944 2.593685389
-7.008915424 -6.560004234 3.140936375
-10.38668251 -9.317857742 0.4704869986
-13.63461685 -11.9278841 0.9836177826
-33.75249863 -28.26983261 2.792805433
-7.039834499 -6.598978043 1.522835732
-7.466175556 -6.932090282 1.904952407
-7.434528828 -6.896774769 2.238827229
-7.001093864 -6.503584385 3.466984034
-10.41282845 -9.279076576 0.4697660208
-13.73851776 -11.9328289 0.9834794402
-33.893116 -28.18817329 2.792824507
-7.044207096 -6.561869621 1.520665169
-7.631901741 -7.0241189 1.926124573
-7.458645344 -6.873216152 2.238842726
-6.368457794 -5.990197659 2.318429947
-7.050777435 -6.514421463 3.140868425
-6.995379448 -6.458757401 3.456697941
-34.03826523 -28.10960197 2.793096781
-7.257225037 -6.691381931 1.540147543
-7.724822044 -7.054342747 1.936150789
-6.469497681 -6.033854008 2.337853909
-6.531383514 -6.074247837 2.654770374
-7.031098843 -6.458498955 3.127175331
-7.004484653 -6.425907135 3.45213747
-10.41612434 -9.162759781 0.4697933197
-34.17545319 -28.0241375 2.792887211
-7.294651985 -6.67961359 1.541350007
-7.48768568 -6.82276535 1.89720583
-6.509151936 -6.028217793 2.342505693
-6.630908489 -6.11528635 2.677427053
-7.079625607 -6.456540585 3.136213779
-7.046640396 -6.419051647 3.460165024
-10.45427036 -9.133806229 0.4686804712
-34.3281517 -27.95041656 2.793572664
-7.288206577 -6.633150578 1.538028717
-7.533420086 -6.81619072 1.900304675
-6.547299385 -6.021157265 2.346782446
-6.640031338 -6.084842205 2.674276829
-6.224412441 -5.750311375 2.846310139
-7.041929722 -6.375511646 3.450449467
-10.51754379 -9.124388695 0.4667926431
-13.91642094 -11.75969601 0.9794570208
-34.47445297 -27.87103653 2.79386735
-7.246957779 -6.559817791 1.531161547
-7.463247776 -6.718993664 1.886325836
-7.705766201 -6.895796299 2.26795125
-6.453487873 -5.911437511 2.319717884
-6.468529224 -5.9145298 2.619995117
-6.255293846 -5.739140034 2.850356817
-7.036998272 -6.332073689 3.440734148
-10.55876541 -9.097466469 0.4655691087
-34.60957718 -27.78239059 2.793498993
-7.282490253 -6.546683788 1.532194734
-7.070391655 -6.373121738 1.8250947
-6.439952374 -5.864834309 2.311831713
-6.613025188 -5.989444256 2.655302525
-7.348453045 -6.543309212 3.203660011
-7.060756207 -6.310882092 3.441886663
-34.74450302 -27.69312477 2.793108463
-7.354356766 -6.561333179 1.536924601
-7.31483984 -6.521455288 1.857480407
-7.570392609 -6.705816746 2.232862711
-6.423047066 -5.815998554 2.303210974
-6.33468008 -5.740005016 2.571350336
-7.392983913 -6.536312103 3.21114397
-7.116488934 -6.31395483 3.455042839
-10.94274139 -9.273890495 0.4539015591
-34.8935051 -27.61417389 2.793517113
-7.36621666 -6.529561043 1.535530806
-7.587269783 -6.688626766 1.893741965
-7.208383083 -6.388291359 2.159483194
-6.471628189 -5.817280293 2.310060263
-6.384376526 -5.742568016 2.580010414
-7.411317825 -6.509222984 3.210044384
-7.170800686 -6.31554842 3.467618227
-10.95592403 -9.223584175 0.4535079598
-8.409851074 -7.293560982 1.269094229
-7.380141735 -6.50147438 1.534486294
-7.417462349 -6.518165112 1.865510583
-7.21658659 -6.354711533 2.156807423
-6.798789978 -6.030135632 2.382460356
-6.343723774 -5.676767349 2.563344955
-7.409999847 -6.469425201 3.20291996
-7.32699728 -6.395122051 3.518508673
-11.12706661 -9.295605659 0.4482888877
-8.579342842 -7.37757349 1.276909113
-7.47834444 -6.536939621 1.541951418
-7.444087505 -6.499481678 1.866092682
-7.375534058 -6.43634367 2.18288517
-6.776581287 -5.978050709 2.372737885
-6.392529964 -5.680188179 2.572021961
-7.437970638 -6.451688766 3.20537591
-7.242446423 -6.29402113 3.479658604
-11.25559902 -9.334218025 0.4443610907
-8.464922905 -7.247226238 1.268530846
-7.408646107 -6.443915367 1.532360673
-7.406995773 -6.433133125 1.857473373
-7.441552639 -6.447264671 2.191291571
-6.66033411 -5.854606628 2.340916872
-6.399113178 -5.651928902 2.568912268
-7.039184093 -6.115735531 3.069169283
-7.239929199 -6.25266552 3.471072435
-11.15977287 -9.201845169 0.447266072
-35.45010376 -27.28216362 2.793566465
-7.415212631 -6.408496857 1.530477762
-7.493399143 -6.456908703 1.866524577
-7.49916172 -6.449438572 2.197863102
-6.665088177 -5.821939468 2.337433815
-6.434698105 -5.643399715 2.57362628
-7.109039783 -6.128890514 3.085228205
-7.266575336 -6.232937813 3.473339558
-11.14680099 -9.131996155 0.4476356208
-35.59838867 -27.19979858 2.793859243
-7.291643143 -6.277284145 1.515616298
-7.092003345 -6.120990276 1.805511594
-7.553693295 -6.448937893 2.203827858
-6.63163805 -5.761412144 2.32512641
-6.711344242 -5.810987949 2.645045519
-6.974272728 -5.992146015 3.035271645
-7.252886772 -6.183754921 3.460754395
-11.23668766 -9.137987137 0.4448592663
-35.74330521 -27.1143589 2.793946981
-7.310431957 -6.251783371 1.515022516
-7.095840931 -6.085628033 1.80286777
-7.338240147 -6.251254559 2.159300566
-6.624873161 -5.720839977 2.319072485
-7.045527935 -6.006303787 3.051828384
-7.030783176 -5.984262943 3.371665478
-11.44638634 -9.230498314 0.4384185672
-35.89613724 -27.0341053 2.794462442
-7.32751894 -6.225047112 1.514265776
-7.146162033 -6.084128857 1.806876421
-7.288117409 -6.175716877 2.145861626
-6.552554131 -5.633189201 2.297956228
-6.440219879 -5.543625355 2.559844732
-7.116970539 -6.02002573 3.068372965
-7.325971127 -6.158508301 3.472693443
-11.45084095 -9.169802666 0.43822667
-35.9209137 -26.86065483 2.787829399
-7.561188698 -6.354508877 1.534922123
-7.129734516 -6.032343388 1.801217556
-7.378900051 -6.202121258 2.158694506
-6.66026926 -5.675522327 2.318352699
-6.641562939 -5.651642323 2.609821796
-7.206836224 -6.044418812 3.090415001
-6.838686466 -5.772527218 3.28718996
-12.97465229 -10.20139027 0.3916633725
-35.63606262 -26.45636559 2.76366806
-7.575383186 -6.324586391 1.533822536
-7.112132549 -5.981993198 1.795591116
-7.351719856 -6.141711712 2.149406672
-6.587339878 -5.588374615 2.297245741
-6.803142548 -5.731192112 2.648905277
-7.044914722 -5.891616344 3.032441854
-6.988960266 -5.842594147 3.335123539
-35.68983459 -26.31602478 2.759176731
-7.448073864 -6.194169044 1.518839359
-7.081299305 -5.922635555 1.78813529
-7.428916454 -6.159538269 2.159864426
-6.581331253 -5.549427986 2.291564703
-6.788990498 -5.687180519 2.640100241
-7.055315018 -5.863702297 3.029876709
-7.036248207 -5.839000702 3.345384121
-12.7599287 -9.916815758 0.398052752
-35.83071136 -26.22818756 2.759108067
-7.363021851 -6.097018719 1.50821197
-7.167863846 -5.948283672 1.797421932
-7.410144329 -6.107388496 2.152395487
-6.780255318 -5.64549017 2.632575035
-7.083939075 -5.84672451 3.032814264
-7.089016438 -5.840760708 3.357947826
-12.69803429 -9.810189247 0.3998501301
-14.10313606 -10.77434635 0.9580412507
-35.97025681 -26.14825058 2.759344101
-7.472629547 -6.135315418 1.5165236
-7.222995281 -5.949382782 1.802090168
-7.326929569 -6.012601376 2.133341312
-6.596980095 -5.493201256 2.286834002
-6.841022968 -5.65410614 2.644224167
-7.100523472 -5.823134899 3.032255888
-7.026072025 -5.760293484 3.328280449
-12.77493382 -9.797842026 0.3973951638
-34.63098526 -24.96442986 1.20224607
-36.12062836 -26.06592751 2.75976634
-7.350139618 -6.011322498 1.502216816
-7.339366913 -5.994471073 1.815466881
-7.435921669 -6.049996853 2.149409533
-6.595327377 -5.457807064 2.282253504
-7.129374981 -5.817401409 2.717167139
-7.106731892 -5.790565968 3.02814579
-7.06380558 -5.749753952 3.335106134
-34.87281799 -24.95245171 1.201243281
-36.26100159 -25.97604561 2.759627581
-7.351587772 -5.974299431 1.500015855
-7.327746391 -5.948508739 1.810743928
-7.29424572 -5.914206028 2.119620562
-7.39783287 -5.973922729 2.459443092
-7.351298332 -5.932432652 2.771798611
-7.074429035 -5.731818199 3.011970043
-7.003316402 -5.67209816 3.306591034
-7.756388664 -6.21143961 0.8787373304
-36.39789963 -25.88323021 2.75928688
-7.510781765 -6.045469284 1.513067722
-7.381507397 -5.94754076 1.815156937
-7.302030563 -5.881989479 2.117227077
-7.431921482 -5.959077835 2.46248889
-6.921679974 -5.602865696 2.650769949
-7.242124081 -5.809092522 3.058618307
-7.023369312 -5.649684906 3.307145119
-7.758995533 -6.185352802 0.5503761768
-7.748405933 -6.166361809 0.8777816892
-7.752761841 -6.183269024 1.205921531
-7.3919034 -5.926186085 1.499264717
-7.346562386 -5.886021614 1.807237625
-7.742068291 -6.142456055 2.193342209
-7.456220627 -5.937455654 2.463332176
-7.394748688 -5.886316299 2.772740602
-7.185554028 -5.734014988 3.034900665
-7.046536446 -5.629326344 3.308834791
-7.774041176 -6.156022549 0.549828589
-7.761760235 -6.135940552 0.877075851
-7.766219616 -6.152815342 1.205006361
-7.606146812 -6.03302002 1.517520666
-7.507408142 -5.956868172 1.826464653
-7.545392513 -5.970880508 2.153753757
-7.516392231 -5.939807892 2.472224474
-7.417179585 -5.863665581 2.773423433
-7.172020435 -5.688411236 3.024753809
-7.068051338 -5.607801914 3.309951305
-7.795618534 -6.1311059 0.5490752459
-7.806574821 -6.126623631 0.8767282367
-7.767946243 -6.114539623 1.203467011
-7.402084827 -5.857795238 1.49564755
-7.46563673 -5.890862942 1.81762898
-7.301529408 -5.770026684 2.105879545
-7.421144962 -5.838348389 2.44634366
-7.41514492 -5.824723244 2.7675879
-7.216360092 -5.681445122 3.03268671
-7.059108734 -5.566105366 3.300246
-34.95239258 -24.11802673 1.182793975
-7.408593178 -5.815327168 1.806750059
-7.312015533 -5.740106583 2.104076862
-7.417171001 -5.798279762 2.440963268
-7.509115219 -5.849228859 2.787368774
-7.280154228 -5.686988354 3.046636105
-7.016289711 -5.502452374 3.278588057
-35.03488541 -23.99703026 1.179866552
-8.449291229 -6.486539841 1.236424804
-7.37505579 -5.765360355 1.488546729
-7.198413849 -5.639751911 1.774936795
-7.286009312 -5.68628931 2.095741987
-7.46728611 -5.793859959 2.447649956
-7.557596207 -5.843220711 2.794980526
-7.214353561 -5.607531071 3.020425081
-7.037392139 -5.480985165 3.27970171
-35.14541245 -23.89435959 1.177240491
-37.31505966 -25.37846375 2.762066603
-7.330328465 -5.699179649 1.48207581
-7.53109026 -5.821023941 1.817555904
-7.29285717 -5.654310703 2.093345642
-7.514163494 -5.787003994 2.453597069
-7.200089455 -5.562258244 3.010280609
-7.082593441 -5.475028515 3.289346218
-35.24222565 -23.78248024 1.174448371
-37.45402145 -25.28293419 2.761733294
-7.342080593 -5.670291901 1.48098135
-7.645027637 -5.857364655 1.830105424
-7.256388187 -5.594419956 2.083237648
-7.531342983 -5.76069355 2.452959538
-7.211483479 -5.545005798 2.693067312
-7.490223885 -5.712798119 3.09393692
-7.18918848 -5.508118153 3.320598364
-37.67467499 -25.18455315 1.197231889
-37.59859848 -25.19980431 2.762064695
-7.544548035 -5.756694794 1.813582063
-7.248733044 -5.555336475 2.07850194
-7.59394455 -5.76533699 2.46257782
-7.241837502 -5.530470848 2.696387053
-7.328423023 -5.574407101 3.038671494
-7.183646202 -5.470794201 3.312623262
-36.10138321 -23.99260712 1.176182985
-37.74053955 -25.10508537 2.761860609
-7.295563221 -5.56967783 1.472354889
-7.631891727 -5.775218964 1.822478056
-7.225028992 -5.504463673 2.070774078
-7.562920094 -5.708163261 2.451342583
-7.254852772 -5.503011703 2.69490242
-7.333473206 -5.54147768 3.034536839
-7.125227928 -5.39853096 3.285856009
-36.05681229 -23.7871933 1.171773791
-37.89913559 -25.02038956 2.7625103
-7.569410324 -5.707672119 1.495828748
-7.722815514 -5.79531765 1.831812978
-7.212759495 -5.461212635 2.065123081
-7.541568279 -5.657559872 2.442302942
-7.352044106 -5.528553963 2.71551609
-7.749987602 -5.76695013 3.15619874
-7.10214138 -5.349124432 3.271604061
-36.02816772 -23.59304047 1.167550683
-38.05421829 -24.93275833 2.762957811
-7.560902596 -5.665266991 1.492821932
-7.754269123 -5.775410652 1.832934141
-7.255573273 -5.452787399 2.069242001
-7.511618137 -5.601949215 2.431442499
-7.551364899 -5.615233421 2.762505054
-7.222328663 -5.398672104 2.989156723
-7.173267365 -5.358627319 3.290316582
-36.07323456 -23.44599724 1.164111257
-38.20656586 -24.83342171 2.762864828
-7.514998436 -5.599728584 1.486358047
-8.165891647 -5.994335651 1.885307789
-7.478923321 -5.554639339 2.104976892
-7.566575527 -5.599506378 2.439185381
-7.118117809 -5.310185909 2.644501448
-7.373293877 -5.456804752 3.02960968
-7.202105522 -5.341526508 3.294245005
-36.25708389 -23.38534164 1.162103653
-38.35375214 -24.74878693 2.763248205
-7.475503922 -5.53877306 1.480530143
-7.609193802 -5.610273361 1.807591796
-7.633329391 -5.603955269 2.449470282
-7.122901917 -5.28036499 2.641322136
-7.30274725 -5.379628181 3.002966881
-7.185105801 -5.296264172 3.282264471
-36.40006638 -23.29853058 1.159646511
-38.4896431 -24.64728737 2.762656689
-7.471334934 -5.500097275 1.478004217
-7.645182133 -5.597470284 1.809686184
-7.250939846 -5.344414711 2.058205128
-7.123334408 -5.246266365 2.636812925
-7.29044342 -5.336928368 2.993826151
-7.2072258 -5.27505064 3.28391552
-36.63506317 -23.26725769 1.158096552
-39.2473259 -24.92586899 2.793838024
-7.351272106 -5.390851021 1.464819193
-7.646357059 -5.561422348 1.806990623
-7.56374073 -5.488251209 2.425933361
-7.168721676 -5.239510536 2.643984556
-7.397296906 -5.366409779 3.020722151
-36.89717102 -23.25971222 1.15697372
-39.39772034 -24.82917404 2.793841362
-7.461667538 -5.424309254 1.472986817
-7.547040939 -5.464766979 1.79095614
-7.244773388 -5.271138668 2.050454855
-7.553796768 -5.447887421 2.419850111
-7.14048624 -5.188271046 2.632119417
-7.383168221 -5.322582722 3.011074781
-7.922224522 -5.634886742 3.518811226
-37.23551559 -23.28746414 1.156359434
-39.55573273 -24.74584579 2.794597626
-7.607338428 -5.476310253 1.484233022
-7.503378391 -5.40259409 1.782394528
-7.113378525 -5.159688473 2.024477243
-7.552903652 -5.41135931 2.415555239
-7.112905502 -5.139528275 2.620722055
-7.822514057 -5.55025053 3.138015509
-7.856496811 -5.558223248 3.489750624
-37.66382217 -23.36640358 1.156561494
-39.70577621 -24.64762306 2.79454875
-7.690108776 -5.489553452 1.489669919
-7.574707031 -5.411209583 1.789227009
-7.565384865 -5.382914543 2.414171219
-7.176599503 -5.143427849 2.632637024
-7.870637894 -5.541523933 3.146835566
-7.710968494 -5.435421467 3.433471203
-38.17918396 -23.49354553 1.157522678
-39.88311386 -24.56495476 2.795858145
-7.941223145 -5.60179615 1.510397911
-7.638413429 -5.41301012 1.794886231
-7.650671005 -5.397276878 2.428421974
-7.910439491 -5.527629375 3.153147697
-7.712118626 -5.399693489 3.427694082
-38.63724518 -23.58293533 1.157831907
-40.02419281 -24.46005058 2.795322657
-8.143351555 -5.683061123 1.526557207
-7.669645786 -5.395336151 1.796249747
-8.117816925 -5.645768166 2.188227415
-7.77013588 -5.430906296 2.449928522
-7.829629898 -5.443553448 3.123470306
-7.628443718 -5.315031528 3.392998934
-39.06528091 -23.6512928 1.157766461
-40.19435501 -24.37158394 2.796227932
-7.713810444 -5.394686222 1.485473394
-7.666487694 -5.357528687 1.793100953
-7.328382969 -5.150092125 2.048792601
-7.721371174 -5.366298199 2.435441017
-7.365609646 -5.139902115 2.979895353
-7.545929432 -5.23196888 3.358885527
-40.42248154 -24.25313568 1.166322112
-40.36785126 -24.28421021 2.797275543
-7.544778824 -5.260989666 1.468135476
-7.668321133 -5.32277441 1.790628076
-7.365591526 -5.13726902 2.051977396
-7.743904591 -5.34318161 2.436216831
-7.822955132 -5.366549492 3.110608101
-7.699629307 -5.28426218 3.405260086
-40.59397507 -24.16366768 1.163613796
-40.50483704 -24.1750145 2.796488285
-7.797022343 -5.37044239 1.488788009
-7.759714127 -5.339363098 1.799857497
-7.756114006 -5.314127922 2.4348104
-7.960087299 -5.407827854 3.145870686
-7.629973412 -5.209180832 3.375687361
-40.75780869 -24.07841301 1.161022067
-40.67627335 -24.08493805 2.797392368
-7.671466827 -5.264708519 1.475547194
-7.846132755 -5.352423668 1.808395982
-8.304365158 -5.599988461 2.205956936
-7.781144142 -5.294137001 2.436339378
-7.482849121 -5.114468098 2.684051752
-8.003931046 -5.397456169 3.153690338
-7.61770153 -5.168775558 3.365985155
-40.90759277 -23.98447418 1.158276796
-40.836586 -23.99713326 2.798102856
-7.725897312 -5.261772633 1.478477359
-7.959662437 -5.381917477 1.820550203
-7.795829773 -5.268262863 2.435687542
-8.008882523 -5.365158081 3.150024891
-7.566682339 -5.107069016 3.343260288
-41.07517242 -23.89043427 1.155449748
-41.01244354 -23.91732597 2.799555779
-7.812473774 -5.27469492 1.484156489
-8.14114666 -5.448497295 1.84144485
-8.638073921 -5.713192463 2.255977392
-7.787125111 -5.227602482 2.429921865
-7.480255604 -5.047590256 2.675036192
-7.921262264 -5.279949188 3.118884325
-7.574866772 -5.076841354 3.340326071
-41.22510529 -23.78581047 1.152438402
-41.1660347 -23.81484413 2.799517155
-7.838219643 -5.253190994 1.484395862
-8.160550117 -5.421951771 1.841173887
-8.661894798 -5.686794758 2.256387472
-7.792012215 -5.19465065 2.427057505
-7.52397728 -5.037387371 2.681698322
-8.016571045 -5.295948982 3.141622305
-7.485307217 -4.993248463 3.304562569
-41.40985107 -23.69970894 1.149706602
-41.32991028 -23.71736336 2.799962044
-7.753861904 -5.170975685 1.474876523
-8.235609055 -5.425945282 1.848076701
-8.663081169 -5.647934914 2.252978086
-7.765696049 -5.144742012 2.417670488
-7.519702911 -5.000757217 2.676292419
-8.100179672 -5.304860592 3.160853386
-7.563898563 -5.001745701 3.325398922
-41.56640625 -23.59725571 1.146698833
-41.47608185 -23.60942078 2.799527645
-7.838788509 -5.182096004 1.48037529
-7.567327976 -5.024450779 1.759481788
-8.683224678 -5.619513035 2.252794981
-7.728746414 -5.089449883 2.406115055
-7.539320469 -4.977208614 2.676915169
-8.127685547 -5.282914162 3.163621664
-7.580124855 -4.976140499 3.325290918
-41.74385834 -23.5054245 1.143843293
-8.350037575 -5.435668468 1.191132307
-7.878298283 -5.167987347 1.481841445
-7.501337051 -4.954533577 1.748505116
-8.671923637 -5.574120045 2.247331142
-7.824924469 -5.106152058 2.422441244
-7.555419922 -4.951730251 2.676673651
-7.702920914 -5.007317066 3.360809088
-41.92468643 -23.41451454 1.14098525
-8.365847588 -5.406493664 1.190388799
-7.462978363 -4.900145531 1.741121411
-8.852359772 -5.63141489 2.274101734
-8.100122452 -5.217494965 2.476021051
-7.559362888 -4.919772148 2.67341733
-7.304555416 -4.773290634 2.913603544
-7.849779129 -5.050230503 3.404220343
-42.64161301 -23.61770248 1.142781854
-8.229195595 -5.297760487 1.182407737
-8.428219795 -5.391743183 1.52611661
-7.386782646 -4.827784538 1.729080319
-8.868141174 -5.601993561 2.27335
-8.373680115 -5.32750845 2.529227257
-7.303852081 -4.741769791 2.908998489
-8.273258209 -5.23874855 3.539776325
-42.38641357 -23.2922287 1.136218786
-8.255119324 -5.274620533 1.182178617
-8.392780304 -5.335274696 1.520895243
-7.335482121 -4.767670155 1.720148802
-8.898659706 -5.578329563 2.274897575
-8.290343285 -5.210635185 3.539598465
-42.19324875 -23.0022316 1.130219221
-8.413576126 -5.308712959 1.52060473
-7.419486523 -4.778835773 1.72842586
-8.901046753 -5.539885044 2.271758795
-8.273223877 -5.164880753 3.528119087
-42.2488327 -22.84381676 1.126259804
-50.56734085 -27.23617935 3.186711788
-8.28917408 -5.206703186 1.50770402
-7.383657455 -4.72729063 1.721509218
-8.330927849 -5.193478107 2.508544683
-8.271259308 -5.127156258 3.521725416
-42.22712326 -22.65512848 1.121903419
-50.51712418 -26.986166 3.17545104
-7.70783329 -4.872362137 1.455390811
-7.485457897 -4.746876717 1.731997252
-8.35929966 -5.172940254 2.510720015
-8.275234222 -5.094414234 3.517627954
-42.29210663 -22.50220108 1.118013859
-50.42213821 -26.72559547 3.16258359
-7.677314281 -4.822747707 1.4508605
-7.831900597 -4.890260696 1.773225784
-8.348014832 -5.130349636 2.504551411
-8.29868412 -5.069717407 3.519701958
-42.40649414 -22.37439156 1.114497542
-50.42131424 -26.50330353 3.153769016
-8.023709297 -4.964352608 1.478827834
-7.859371662 -4.871413708 1.774335384
-8.362904549 -5.101131916 2.503796101
-8.315192223 -5.041486263 3.519514084
-42.47404099 -22.22271156 1.110606313
-50.84436035 -26.49515152 3.164815187
-8.173358917 -5.004292965 1.489737868
-7.864394188 -4.839481354 1.772511005
-8.381215096 -5.073616505 2.503759146
-8.353973389 -5.024231911 3.526657104
-42.61623383 -22.10825157 1.107266784
-8.217749596 -5.0026021 1.170402527
-8.237688065 -5.000597954 1.493279338
-8.243168831 -4.993123055 1.817393303
-8.404726028 -5.04863596 2.50480032
-8.36860466 -4.994953632 3.525897026
-42.91598892 -22.07091522 1.105068326
-8.244585037 -4.980095863 1.170238495
-8.171532631 -4.932113171 1.485656023
-8.357380867 -5.013433456 1.829090595
-8.539505959 -5.077989578 2.528535604
-58.62448502 -29.56545448 1.215203166
-8.217867851 -4.919318676 1.487659693
-8.421811104 -5.008602619 1.834548354
-8.462157249 -5.003484249 2.509030342
-58.82136154 -29.40784264 1.210557938
-52.18249512 -26.26143265 3.191665888
-52.25566864 -26.22136497 5.226780891
-8.420095444 -4.971372128 1.831782818
-59.04668808 -29.2630558 1.206080437
-50.2509346 -25.10617828 3.094183445
-52.13204956 -25.93687248 5.204038143
-8.457660675 -4.953092098 1.833896399
-51.98171997 -25.64678955 1.150646567
-49.69513702 -24.62502098 3.060310364
-50.42248154 -24.89940262 5.047446251
-8.680134773 -4.959965706 3.599780798
-59.44997025 -28.96055222 1.196985483
-49.79410172 -24.45911026 3.056498766
-50.71500015 -24.83241653 5.060987949
-8.343859673 -4.827057362 1.814851522
-8.699054718 -4.93349123 3.600711584
-59.63992691 -28.79617691 1.192153454
-49.62790298 -24.17930794 3.041067362
-50.5240593 -24.52676773 5.033256531
-8.310772896 -4.776048183 1.808331728
-8.730816841 -4.91101408 3.605538607
-59.85123062 -28.64091301 1.187431097
-49.91744995 -24.10280418 3.045933008
-50.59035492 -24.34265518 5.027244091
-60.08763504 -28.4961853 1.182835817
-50.60457611 -24.20761871 3.068662167
-52.80908585 -25.14685631 5.201165676
-60.29165649 -28.34825325 1.178297877
-50.05861282 -23.74464035 3.03582406
-52.97492599 -25.01036072 5.203646183
-60.47641754 -28.17802048 1.173292041
-52.47393799 -24.63678741 3.136143208
-52.75921249 -24.68997765 5.173808098
-60.70454788 -28.02641678 1.168525815
-50.90083313 -23.71147156 3.057444572
-52.78046036 -24.47794342 5.163787365
-54.03849411 -24.97333145 7.348335743
-60.90856934 -27.86302376 1.163569212
-49.86985779 -23.04068375 3.003382683
-52.83186722 -24.27977371 5.156324863
-54.28654099 -24.85663223 7.363143444
-57.72735596 -26.21435738 1.138026595
-50.43362427 -23.08046913 3.020290375
-52.56471252 -23.9422245 5.122641087
-57.85754013 -26.0311203 1.132902145
-50.27826691 -22.80293846 3.00533247
-55.47160339 -24.98563004 5.350216866
-56.4635582 -25.20352936 1.119102955
-50.39680862 -22.64552498 3.002499104
-54.8700943 -24.50828171 5.289387226
-56.25018311 -25.02120399 7.554094315
-61.75649643 -27.22656441 1.143874288
-51.35450745 -22.85693359 3.036818027
-57.22770309 -25.28591537 5.470425129
-61.99451828 -27.08554268 1.139239788
-51.35374451 -22.64483261 3.028640509
-54.53246307 -23.9239006 5.238729954
-62.21283722 -26.92233658 1.134135842
-50.86922455 -22.24097061 2.999865294
-54.52276993 -23.69564819 5.226275921
-62.44924927 -26.76557541 1.129090786
-51.14476013 -22.14684296 3.003806353
-59.24249268 -25.42589378 5.597911835
-62.63351059 -26.58624458 1.123721719
-51.05802155 -21.90206337 2.992054462
-54.94904709 -23.42399025 5.237687588
-58.31411743 -24.73161888 7.725198746
-62.66346741 -26.34348106 1.117506385
-51.39033127 -21.82924461 2.998392105
-53.73043442 -22.70553017 5.127715111
-62.80013275 -26.14410019 1.11183989
-51.72275543 -21.75435829 3.004665852
-55.71470261 -23.28429222 5.276368141
-63.32454681 -26.09860039 1.108111739
-51.74522018 -21.54318428 2.997233629
-55.73734283 -23.06750107 5.266631126
-58.50016785 -24.08257866 7.700510025
-63.49954987 -25.9119606 1.102547169
-51.95297623 -21.42656136 2.998511791
-55.66264725 -22.81283379 5.249153614
-59.45501328 -24.22070122 7.797968388
-63.772789 -25.76291466 1.097427726
-51.95191956 -21.2167244 2.990507126
-55.22074127 -22.41632271 5.202418327
-59.23248672 -23.90666199 7.75728035
-63.9711113 -25.58345604 1.091899157
-53.13537598 -21.46587563 3.032582283
-55.27361679 -22.21476364 5.195389271
-59.36139679 -23.71815109 7.757312775
-65.38157654 -25.86591721 1.091976523
-55.12450409 -21.93629837 5.172339916
-65.65727234 -25.70905113 1.086602926
-53.53220749 -21.19077301 3.033116102
-56.78594589 -22.34324837 5.293069839
-59.44625854 -23.27484512 7.737286091
-53.74137497 -21.05573654 3.033793449
-56.89080048 -22.16732597 5.290579319
-54.42638016 -21.10695076 3.054665327
-56.78554535 -21.90213585 5.270957947
-54.09157944 -20.7680397 3.032635212
-55.97872925 -21.39278221 5.196746349
-53.99583054 -20.52985382 3.021024942
-55.90782928 -21.14558792 5.180175781
-54.91802216 -20.64826965 3.051026821
-56.2677803 -21.0538044 5.197464943
-54.8644371 -20.41293335 3.040715933
-56.67477036 -20.97641754 5.21835804
-54.86642838 -20.19811821 3.032728195
-56.68846893 -20.75861549 5.208488464
-57.92743301 -21.04766273 3.149498224
-56.96709442 -20.63301086 5.219288349
-59.57759476 -21.38864326 3.208087444
-58.52122879 -20.79718971 3.156664848
-61.10253525 -21.43702888 3.252315998
-61.27672195 -21.2696209 3.250947237
-60.03061676 -20.40258408 3.184065819
-59.83214188 -20.1074295 3.167610645
-60.02858734 -19.93956947 3.166897774
-60.15540695 -19.73736572 3.162986755
-19.71565437 -6.982260704 0.8418872356
-19.5743351 -6.932112217 2.274364948
-19.74440384 -6.915769577 0.8399708271
-19.74572563 -6.937321186 1.561891675
-19.75953865 -6.913660049 2.284878254
-19.75717926 -6.865476608 1.559576035
-87.47040558 -26.97108459 4.193153858
-86.95228577 -26.15694809 4.148869991
-86.67853546 -25.76599693 4.126932144
-82.06162262 -22.62273598 3.883108854
-82.33063507 -22.38665962 3.882176638
-14.96708202 -4.747049809 2.981170177
-14.93287849 -4.716906548 3.526827812
-14.87927532 -4.684514046 4.072383404
-14.90538311 -4.669412136 4.64229393
-14.90348625 -4.646914959 5.215444565
-14.89678669 -4.718833923 0.8077440262
-14.90273857 -4.735439301 1.345753431
-14.91078663 -4.716508865 1.884360909
-14.90178585 -4.695923805 2.42414546
-14.903862 -4.675285339 2.968434095
-14.90056801 -4.653141022 3.516935349
-14.88704967 -4.631027699 4.069635391
-14.89062214 -4.610202312 4.633504391
-14.9113512 -4.593337536 5.212286949
-14.90833378 -4.681435585 1.343970418
-14.88737106 -4.655158997 1.880168319
-14.88810349 -4.637072563 2.419689894
-14.92101669 -4.624141216 2.967499495
-14.89666367 -4.596760273 3.512292147
-14.90223026 -4.579405308 4.068557262
-14.9208498 -4.562240601 4.636381149
-14.94516468 -4.54612875 5.216873646
-14.91529751 -4.612867832 0.804744184
-14.91179466 -4.626959801 1.342113495
-14.91210938 -4.60603857 1.879523635
-14.89736176 -4.584092617 2.417771339
-14.964921 -4.579536915 2.970487356
-14.94419575 -4.553073883 3.51708293
-14.92483139 -4.529574871 4.069146633
-14.9344635 -4.577280045 1.340973973
-14.9554224 -4.564147949 1.880364299
-14.99918652 -4.553674221 2.42598176
-81.52559662 -20.67844009 3.798161268
-85.28097534 -21.15436554 6.991173744
-82.82965088 -20.38345337 3.824507713
-84.57475281 -20.67479897 6.926159859
-86.19927216 -20.73729706 7.030247688
-82.73503113 -19.3476696 6.75371027
-81.8502121 -18.96578407 3.746448755
-45.97724915 -10.84454441 0.7990807891
-81.9802475 -18.70956993 3.741076946
-45.96079254 -10.67326832 0.794391036
-82.23932648 -18.34959602 6.679923534
-46.02592468 -10.5194149 0.7897055149
-82.18315887 -18.03791237 6.663156986
-83.04444885 -17.91504478 6.711932182
-49.13778687 -10.64297962 0.7750402093
-49.13024139 -10.46347523 0.7700164318
-81.03160095 -16.74870872 3.645223379
-49.13579941 -10.28676414 0.7649841309
-49.13481903 -10.109025 0.7599503994
-49.21187592 -9.945872307 0.7548611164
-49.13135529 -9.762844086 0.7501249909
-49.14030075 -9.587556839 0.7450711727
-82.01105499 -15.47378922 3.628700495
-83.84053802 -15.68055439 6.669157982
-81.81358337 -15.14428139 3.611660004
-83.88043213 -15.38570786 6.659662724
-83.27198792 -14.79992485 3.641330719
-83.39129639 -14.52081203 3.635114431
-83.31227875 -14.2095089 3.622151136
-43.38816833 -4.79375267 2.161168814
-43.6040535 -4.469056606 0.6282983422
-44.27520752 -4.561962128 2.178939819
-44.29383469 -4.407894135 2.174386501
-42.91801071 -4.155838013 2.126591682
-43.2656517 -4.037950039 2.132691145
-44.04156113 -3.902276039 0.6084448099
-43.28445435 -3.887491703 2.128288507
-43.99187088 -3.744747877 0.603954196
-43.60594177 -3.75679183 2.133234024
-43.13140869 -3.567023516 2.113397121
-43.29226685 -3.425317287 2.113388538
-43.39875793 -3.279578686 2.111696005
-43.35063934 -3.132802963 2.105537415
-43.39587784 -2.990891218 2.102226973
-43.36909103 -2.837920427 2.096497536
-43.35806274 -2.678249121 2.091013193
-64.94789124 -2.850642204 0.4472788274
-65.09989929 -2.639275074 0.4397654533
-64.61566162 -2.400808334 0.4353233278
-64.91040039 -2.181108952 0.4266423881
-64.79035187 -2.232193232 2.692730904
-65.92628479 -1.97106266 0.4137948751
-65.01765442 -1.72947526 0.4118352234
-65.59423065 -1.779276609 2.701388836
-65.51586151 -1.530091763 0.4024945199
-65.71760559 -1.302764893 0.394094944
-65.0151825 -1.351727009 2.671147823
-65.35641479 -1.126002192 2.673802137
-53.28961945 -0.8607875109 7.943888664
-53.16495132 -0.84600842 0.4572593868
-53.18203354 -0.8893976212 2.316280365
-53.26396561 -0.8119388819 4.180543423
-65.20882416 -0.6589858532 2.654795408
-27.42930794 -0.02599908412 0.5901529789
-26.99995613 0.8856412172 0.5632076859
1.138655782 77.27909088 2.399612427
1.413584948 77.40666199 2.39939189
1.384319186 63.36753464 2.108131647
1.528336406 60.16404343 2.040163994
1.739620924 60.10242081 2.036795139
1.101263046 33.01533508 8.728865623
1.703869939 52.33362198 1.875908613
2.015157938 55.86842728 1.946283698
1.068668962 28.76132011 2.430640936
1.001171827 26.35429192 3.254430056
1.115600824 28.89625931 4.537550926
1.005996466 25.58989716 5.066006184
1.079662681 27.00611877 6.301065922
1.140620351 28.04538155 7.564745903
1.179845929 28.95701408 2.440643787
1.10422802 26.55572701 3.272021294
