# .PCD v0.7 - Point Cloud Data file format
VERSION 0.7
FIELDS x y z
SIZE 4 4 4
TYPE F F F
COUNT 1 1 1
WIDTH 1263
HEIGHT 1
VIEWPOINT 0 0 0 1 0 0 0
POINTS 1263
DATA ascii
-7.609685421 -11.46094227 4.409262657
-7.845133781 -12.23810101 5.13404417
-7.482425213 -10.34029102 0.3262473345
-9.055858612 -14.8535223 0.6001179814
-10.5597353 -19.22118187 1.205632329
-10.49144363 -19.26556778 1.948110819
-7.851207733 -11.70914936 2.096850872
-7.786396027 -11.58731174 2.550995588
-7.729271412 -11.48005104 3.001577854
-7.811739922 -11.78307247 3.526848793
-7.525517464 -11.00005054 3.831439257
-7.574308395 -11.21257591 4.349020481
-7.872673988 -12.16747189 5.11973238
-7.531598568 -10.34834576 0.3269311488
-9.140331268 -14.90850353 0.6008702517
-13.80256557 -28.12324905 1.25833869
-10.5625639 -19.23212814 1.951801062
-7.899963379 -11.70047092 2.099955559
-7.81643343 -11.5261755 2.548226357
-7.79268074 -11.51647854 3.012105465
-7.872883797 -11.80951309 3.537580013
-7.535531521 -10.88668823 3.811265945
-7.661131382 -11.32168865 4.38496542
-7.9242239 -12.16147041 5.125695705
-7.573488235 -10.3418808 0.3285441101
-9.223880768 -14.9678278 0.6013796329
-16.58784866 -35.56592178 1.306100011
-7.940537453 -11.67546558 2.101591587
-7.916609764 -11.66566563 2.568893194
-7.848571777 -11.53018475 3.019188881
-7.993505001 -12.01302624 3.582142115
-7.623943329 -11.00867367 3.844996214
-7.73088932 -11.38527107 4.408502102
-7.717131138 -11.40784454 4.900488377
-7.622333527 -10.36034012 0.3283801377
-9.30308342 -15.02213287 0.6019397378
-16.79442024 -35.75925064 1.31403625
-8.561288834 -13.28339863 2.233556509
-7.810561657 -11.29146385 2.986772776
-7.655636787 -10.97231388 3.842026472
-7.532013893 -10.68237495 4.225028038
-7.688795567 -11.19357777 4.840979576
-7.683710098 -10.4059515 0.3264105916
-9.384771347 -15.08171654 0.6023462415
-17.14169502 -36.31166458 1.324583769
-8.262145042 -12.2993269 2.158745289
-7.82245636 -11.14165878 2.515352249
-7.765697956 -11.0382328 2.951960087
-8.019248009 -11.80697441 3.553260326
-7.681929588 -10.92113972 3.835635662
-7.838829041 -11.42444038 4.431814671
-7.746205807 -11.22165585 4.856744766
-7.727973938 -10.4045372 0.3276535869
-9.483668327 -15.1688385 0.6021513343
-17.48882484 -36.85083008 1.335277438
-8.327954292 -12.33677578 2.165616035
-7.862441063 -11.11426163 2.516422033
-7.807308674 -11.02293205 2.954218864
-8.062207222 -11.78696728 3.554947853
-7.736392021 -10.93647289 3.845237732
-7.902160168 -11.4589138 4.448111534
-7.778222561 -11.177104 4.850049973
-7.776507854 -10.41415596 0.3281335831
-9.553715706 -15.18540382 0.6040343046
-17.82758522 -37.33496094 1.346217394
-8.361880302 -12.2795105 2.165068388
-7.897460461 -11.08004665 2.516487598
-7.87402916 -11.06990719 2.966440439
-8.053574562 -11.68357468 4.024692535
-7.947878838 -11.45013809 4.452428818
-7.785538197 -11.05761051 4.820406437
-7.817325115 -10.40306282 0.3300165236
-9.650948524 -15.27268219 0.6037470698
-18.79798698 -39.49547958 1.368114829
-8.6488657 -12.90880775 2.219997644
-7.939896107 -11.0662384 2.518973351
-7.915063858 -11.05236912 2.968413353
-8.205091476 -11.89525795 3.587506294
-8.049788475 -11.53678036 3.996728897
-7.974365234 -11.38839149 4.442383766
-8.160051346 -11.96034527 5.10898447
-7.861710072 -10.40113258 0.3312639594
-9.730941772 -15.3128252 0.6049211025
-19.34326172 -40.49906921 1.382969975
-8.75886631 -13.05477715 2.235975027
-8.006723404 -11.11741543 2.529203176
-7.944259167 -11.0031786 2.965442896
-8.318237305 -12.06271744 3.625859737
-8.036898613 -11.36819172 3.963579416
-8.020562172 -11.38116074 4.447185516
-8.196982384 -11.92161942 5.104662418
-7.917015076 -10.42692089 0.3306184113
-9.806937218 -15.34142494 0.6064526439
-9.412186623 -14.62394714 2.368337631
-8.060572624 -11.1329546 2.535242319
-7.988535881 -10.99466038 2.968855381
-8.412549973 -12.17611313 3.653847933
-8.11250782 -11.43958759 3.986445427
-8.034330368 -11.28659821 4.428181648
-7.965969086 -10.43575001 0.3311185241
-9.903659821 -15.42179871 0.6064226031
-8.863196373 -13.03595352 2.242768526
-8.065537453 -11.02018642 2.52596879
-8.051844597 -11.03589535 2.980129719
-8.457435608 -12.15657425 3.655958414
-8.071286201 -11.19992352 3.936510086
-8.100012779 -11.33172798 4.447358131
-8.021674156 -10.4610672 0.3304933608
-9.988495827 -15.4701004 0.6073768735
-14.84834003 -28.16175652 2.401040554
-8.875617027 -12.92402458 2.237751245
-8.137202263 -11.08177757 2.537559748
-8.119771957 -11.08790398 2.99317193
-8.630500793 -12.47116375 3.723654985
-8.121833801 -11.20526314 3.943940639
-8.397335052 -11.98502922 4.633416176
-8.010469437 -11.02235794 4.845776558
-8.064957619 -10.45464897 0.3320096135
-10.06332779 -15.492033 0.6091299653
-8.879832268 -12.80013847 2.231492043
-8.147825241 -10.98566914 2.530243158
-8.679753304 -12.46645927 3.728578091
-8.114818573 -11.06095409 3.916189671
-8.427680016 -11.92921638 4.625413418
-8.06366539 -11.04251385 4.859199047
-8.121757507 -10.48135853 0.3312768042
-10.13629341 -15.51663685 0.6106853485
-8.938583374 -12.80889225 2.236381054
-8.231601715 -11.07632923 2.545425177
-8.622571945 -12.12714386 3.167670488
-8.703395844 -12.38919735 3.719546795
-8.15229702 -11.03963089 3.917045832
-8.365782738 -11.6430769 4.553619385
-8.431547165 -11.87061787 5.127911568
-8.181081772 -10.51334667 0.330183208
-10.21991634 -15.55828476 0.6118585467
-8.553136826 -11.70867538 2.149031878
-8.307335854 -11.15078449 2.558519363
-8.553295135 -11.82013226 3.124190569
-8.940021515 -12.85153866 3.817105532
-8.229701042 -11.1136694 3.940787554
-8.563960075 -12.07777023 5.201495171
-8.240684509 -10.54506111 0.3291040361
-10.31516361 -15.61869907 0.6126061082
-8.633733749 -11.78135204 2.158972502
-8.508975029 -11.52358532 2.608348846
-8.566680908 -11.72493267 3.114285946
-8.813493729 -12.39542198 3.733239412
-8.265007019 -11.07392502 3.938005447
-8.270571709 -11.14020443 4.429491043
-8.517037392 -11.82544041 5.129902363
-8.285152435 -10.53966904 0.3305162787
-10.40729237 -15.67798615 0.6132796407
-8.489301682 -11.35114479 2.591863155
-8.902871132 -12.42088985 3.231174707
-8.693426132 -11.96410275 3.653911352
-8.679024696 -11.98270893 4.160235405
-8.40756321 -11.36022282 4.497539997
-8.251196861 -11.02827358 4.885161877
-8.344402313 -10.56904221 0.3295821846
-10.50010967 -15.7454195 0.6136063933
-15.65216827 -28.40965652 2.456249952
-8.735732079 -11.77801895 2.166539192
-8.479818344 -11.20657825 2.578681946
-8.643369675 -11.66106319 3.114637613
-8.769449234 -12.02192402 3.67155838
-8.741526604 -12.01378441 4.174174309
-8.444549561 -11.33429813 4.497242928
-8.292080879 -11.0091238 4.886845112
-8.404254913 -10.60449982 0.328183502
-10.59323502 -15.80382919 0.6143319607
-15.66397953 -28.15121651 2.45173645
-8.780760765 -11.76777935 2.169429302
-8.577054977 -11.32740307 2.597709894
-8.661437035 -11.580513 3.107008457
-8.740364075 -11.8293314 3.639045715
-9.09176445 -12.73933125 4.354237556
-8.432303429 -11.18184948 4.462125301
-8.332262039 -10.99426746 4.889544487
-8.48771286 -10.68833637 0.3235913217
-10.68393803 -15.86303329 0.6149256229
-15.73599911 -28.05347633 2.454263687
-8.818701744 -11.73439026 2.170568943
-8.550499916 -11.14439964 2.579748392
-8.649409294 -11.43519688 3.088640213
-8.780961037 -11.80141354 3.639627934
-8.736643791 -11.7529459 4.125414848
-8.453141212 -11.11827564 4.45130682
-8.37519455 -10.98016644 4.892919064
-8.552724838 -10.72778797 0.321973592
-10.78175926 -15.92113113 0.6158071756
-8.855556488 -11.69260311 2.171193123
-8.666851997 -11.30211258 2.60366416
-8.71299839 -11.45960712 3.098150969
-8.802304268 -11.72164917 3.630144835
-8.742275238 -11.63578892 4.104598522
-8.488945961 -11.07971954 4.448186874
-8.414282799 -10.9508419 4.891867161
-8.602032661 -10.73036766 0.3228164315
-10.8955822 -16.02215195 0.6153504848
-9.769562721 -13.69994831 2.346571445
-8.73359108 -11.34037971 2.612962008
-8.741340637 -11.40639687 3.094871759
-8.822491646 -11.64647579 3.621242523
-8.782175064 -11.60786533 4.104798317
-8.548736572 -11.10444736 4.462442875
-8.426718712 -10.86391163 4.871977806
-8.656263351 -10.74369717 0.3229317367
-11.05941677 -16.23416519 0.6117555499
-9.783946037 -13.59361553 2.342106581
-8.728975296 -11.21230888 2.601692915
-8.794389725 -11.41128826 3.10102725
-8.856927872 -11.60566807 3.619233608
-8.83190918 -11.60316181 4.110612392
-8.59513092 -11.09681988 4.467704296
-8.484921455 -10.88656235 4.887246132
-8.703322411 -10.74038601 0.3241481185
-11.2768755 -16.56213188 0.6049301028
-8.93474102 -11.56897068 2.650637627
-8.805779457 -11.31979752 3.091515064
-8.882563591 -11.54491615 3.613203049
-8.739991188 -11.31857491 4.537551403
-8.523762703 -10.86309147 4.887760639
-8.760654449 -10.75417709 0.3242638111
-11.47540283 -16.84137154 0.5995697379
-9.453718185 -12.57331276 2.263311625
-8.834133148 -11.22226906 2.612143993
-8.876955986 -11.36606026 3.104470491
-8.927504539 -11.52920055 3.616272449
-8.792901039 -11.27443886 4.045139313
-8.97646904 -11.7473278 4.666100979
-9.199591637 -12.31682968 5.364999294
-8.839304924 -10.81948948 0.3208968937
-11.69232273 -17.14715195 0.5936697721
-9.552640915 -12.66878414 2.275943041
-9.026153564 -11.53465176 2.656120539
-8.925307274 -11.35951424 3.108850956
-8.97955513 -11.5295105 3.622626543
-8.984260559 -11.58868217 4.128611565
-9.032864571 -11.74953175 4.675116539
-9.291606903 -12.40154076 5.4015975
-8.917628288 -10.88258743 0.317677021
-11.95253372 -17.54937553 0.5850339532
-9.797162056 -13.07894516 2.316261768
-8.958873749 -11.26845264 2.627506256
-9.530252457 -12.59233952 3.31720376
-9.045033455 -11.5537672 3.634217262
-8.801496506 -11.05843735 4.006874561
-9.043329239 -11.65332222 4.655921459
-9.271612167 -12.22317028 5.353592396
-8.988903046 -10.92897797 0.3155650496
-12.21227932 -17.94274902 0.5767545104
-8.954550743 -11.14588261 2.616800308
-9.530099869 -12.46624279 3.302508116
-9.119879723 -11.60381508 3.650825739
-8.845579147 -11.04466629 4.010424614
-9.098924637 -11.65975761 4.665811062
-9.540667534 -12.70506573 5.519424915
-9.040241241 -10.93162537 0.3163470626
-12.5458889 -18.48672295 0.5644229054
-10.15720367 -13.61343861 2.372041702
-9.053514481 -11.25119591 2.634812117
-9.639780998 -12.58331585 3.32791853
-9.159662247 -11.58108521 3.652324677
-9.058397293 -11.40435219 4.105223179
-9.152251244 -11.66065693 4.674198627
-9.377235413 -12.21877098 5.370357513
-9.101904869 -10.95571804 0.3157001436
-13.0774374 -19.44993019 0.5405748487
-10.26974392 -13.72377872 2.386543989
-9.040089607 -11.11058712 2.621776581
-9.690201759 -12.57507896 3.332407475
-9.201524734 -11.55721474 3.653934717
-9.12586689 -11.44394493 4.121768475
-9.165843964 -11.57952118 4.658846855
-9.441944122 -12.23929787 5.386498451
-9.149196625 -10.94888783 0.317089349
-14.24615002 -21.72831726 0.4811686277
-10.30297184 -13.66191292 2.385938168
-9.64898777 -12.36280155 3.303340673
-9.256482124 -11.56175804 3.661408663
-9.137084961 -11.35450745 4.107113361
-9.190803528 -11.51853275 4.649620533
-9.464675903 -12.16710472 5.372429848
-9.219005585 -10.98865223 0.3153915703
-14.36345387 -21.7610817 0.4836606383
-10.4098053 -13.75688076 2.399218798
-9.745488167 -12.44833755 3.323733091
-9.383818626 -11.72108936 3.700833559
-9.199201584 -11.37036133 4.118673801
-9.229763985 -11.48284435 4.648041248
-10.27867126 -13.81329346 5.92143774
-9.313566208 -11.07836533 0.3103963435
-14.48762226 -21.81679916 0.4853739142
-10.44970417 -13.70243263 2.399540663
-10.06412888 -12.94692326 2.870993614
-9.675235748 -12.17281437 3.28423667
-9.429163933 -11.69716549 3.702951431
-9.739875793 -12.41204071 4.382930279
-9.247551918 -11.40774059 4.634750366
-9.408434868 -11.80092907 5.27184391
-9.380725861 -11.11018562 0.3092156351
-14.60530758 -21.85754776 0.487501353
-9.865474701 -12.40744781 2.807364464
-9.793112755 -12.30252171 3.312110186
-9.435112953 -11.59601021 3.688758612
-9.742877007 -12.29782581 4.362744331
-9.265707016 -11.33442593 4.621938705
-10.41470909 -13.82849121 5.948796749
-9.445529938 -11.13631153 0.3084034026
-14.72692966 -21.90492821 0.4894569814
-9.888521194 -12.33654308 2.803640127
-9.797982216 -12.19453907 3.300212145
-9.679473877 -11.99953079 3.778982401
-9.962082863 -12.63820171 4.455142975
-10.08967781 -12.95649624 5.098299026
-9.478329659 -11.72425079 5.265055656
-9.506134033 -11.15319538 0.308190912
-14.85748196 -21.97878265 0.4905541837
-9.905069351 -12.25313473 2.798278809
-9.925904274 -12.34756565 3.331917763
-10.18125916 -12.92249012 3.978192806
-9.880771637 -12.35408974 4.392463684
-9.355512619 -11.30757999 4.630444527
-9.604581833 -11.24472904 0.303071171
-14.97653866 -22.01783752 0.4927510619
-10.11761189 -12.57570076 2.845189095
-9.964241982 -12.30867195 3.331697702
-10.2018652 -12.84202099 3.968978405
-9.934645653 -12.34693241 4.398880959
-15.10720921 -22.06860924 0.4948066175
-10.01815128 -12.30158329 3.336874723
-9.535550117 -11.36650467 3.667708635
-15.21987534 -22.09226036 0.4974208474
-10.06718349 -12.2342062 2.812137365
-10.04440117 -12.23294353 3.331949472
-9.558577538 -11.29980183 3.660880566
-10.00585747 -12.2520752 4.392139435
-15.34197807 -22.13319206 0.4995859563
-10.30259705 -12.58692265 2.863768101
-10.0883913 -12.20608425 3.333804131
-9.61694622 -11.30974388 3.669821024
-10.007267 -12.13962936 4.372253895
-15.45899582 -22.1628952 0.5020492077
-36.29024887 -63.10071945 4.456868649
-10.39733124 -12.65662289 2.878601313
-10.18949223 -12.2919445 3.354943275
-9.614290237 -11.19838715 3.653224945
-10.12905407 -12.2678709 4.412842274
-15.58377552 -22.20623589 0.5041642189
-30.80827713 -51.48510361 1.811130643
-35.8381424 -61.67910385 4.399946213
-10.45272827 -12.64805889 2.883229017
-10.2309618 -12.25930786 3.355900764
-10.18201923 -12.25796223 4.418815136
-15.69593239 -22.22422981 0.5069360137
-30.47886467 -50.41589737 1.807491183
-35.38201141 -60.27212143 4.34307003
-10.50997066 -12.6428051 2.88832283
-10.24690533 -12.17734623 3.348391533
-9.707530975 -11.17195797 3.661453009
-10.24656963 -12.27041626 4.430497169
-15.81962681 -22.26290512 0.5091805458
-30.20039177 -49.45919418 1.804999232
-34.93883896 -58.91152191 4.287950993
-10.55255413 -12.60914135 2.889686108
-10.30524731 -12.1778698 3.355068207
-9.756838799 -11.16370964 3.666677713
-10.21544933 -12.09710121 4.395163536
-15.93239975 -22.27985573 0.5119822621
-34.51836777 -57.61483002 4.235555172
-10.37838268 -12.20614815 3.366592884
-10.24362469 -12.04010201 4.389235973
-16.05781555 -22.31916046 0.514220655
-30.76338005 -49.66588211 1.829461575
-34.12506104 -56.38875961 4.186300278
-10.61585617 -12.5010643 2.887005806
-10.29961967 -12.03660393 4.396933079
-16.18939972 -22.36840248 0.5162159801
-31.16364861 -50.00394821 1.844691396
-33.733078 -55.18376541 4.13755703
-10.4975605 -12.20932007 3.380582571
-10.34654236 -12.01563168 4.400229454
-16.31356239 -22.41222572 0.5181936622
-31.48506927 -50.17013931 1.858086228
-33.38067627 -54.09280777 4.093598366
-11.14042377 -13.29977703 3.57727313
-10.3690834 -11.95443153 4.392822266
-16.42184448 -22.41651726 0.5213208199
-31.70353317 -50.14565659 1.868710518
-33.00971985 -52.96108246 4.047664165
-11.13883018 -13.13443184 2.989733696
-10.40463161 -11.91260147 4.390809536
-16.54984283 -22.45523453 0.5235959888
-31.89878654 -50.0783577 1.878698707
-32.66891861 -51.90084076 4.005075932
-11.22595119 -13.17700005 3.001758814
-16.6772747 -22.49160767 0.5259346962
-32.05084229 -49.93357086 1.887489438
-32.3638382 -50.92045975 3.966354847
-11.2413311 -13.08879662 2.996137381
-16.81315994 -22.53200722 0.5283428431
-31.55282593 -48.64159393 1.878224611
-32.07970428 -49.99163818 3.929997444
-16.9384594 -22.56192207 0.530849874
-31.70154762 -48.50168228 1.886779785
-32.26085663 -49.87744141 3.939456701
-17.03904533 -22.55724144 0.5340338945
-31.04665756 -46.96604919 1.872771502
-31.77328491 -48.63291931 3.883883476
-31.67555237 -48.60803223 5.876612663
-17.15792084 -22.57396507 0.5368609428
-30.83398056 -46.21575165 1.870971441
-32.63724136 -49.73513031 3.960990191
-17.28724098 -22.59809685 0.53967309
-30.53870201 -45.33459091 1.866704106
-17.41688156 -22.63090706 0.5421201587
-30.32372284 -44.58406067 1.864774346
-30.59974861 -45.42434311 3.746062756
-17.54589272 -22.66137695 0.54462713
-30.05700874 -43.77503204 1.861040354
-30.38360596 -44.68901825 3.717912197
-17.66602707 -22.67580414 0.5475147963
-29.8143158 -43.03479767 1.857676625
-30.1463623 -43.92829895 3.687918186
-17.78025246 -22.68874168 0.5502759218
-29.57247925 -42.28869629 1.854406118
-29.86978149 -43.12987137 3.654661417
-17.91334534 -22.71324348 0.553090632
-29.34449387 -41.57555771 1.851417661
-29.63699722 -42.39764786 3.625524998
-18.0510006 -22.7439003 0.5557664633
-29.1253891 -40.87031174 1.848748326
-29.41106987 -41.66985321 3.596929789
-18.16387939 -22.74242592 0.5590211749
-28.92378807 -40.21929932 1.846304297
-29.1999836 -40.97668457 3.569972277
-18.29504395 -22.77863693 0.5612530708
-28.71302605 -39.57800674 1.843319654
-28.97821999 -40.30817032 3.542801619
-51.41155243 -76.83631134 8.904139519
-18.43074036 -22.81164169 0.5637243986
-28.48606682 -38.90373993 1.839921951
-28.77134514 -39.6721077 3.517227411
-51.73595047 -76.75366211 8.927248955
-51.55351639 -76.70449066 12.13333607
-51.52391052 -76.87412262 15.39933681
-18.55813599 -22.82110405 0.5668917894
-28.29151535 -38.27452087 1.837543249
-28.57338142 -39.02742386 3.492079735
-52.05588913 -76.6324234 8.94816494
-51.88780594 -76.6067276 12.15996742
-51.73324203 -76.57415009 15.39218903
-51.60406876 -76.5848465 18.6619072
-18.67931938 -22.81985092 0.570296526
-28.13141632 -37.70795822 1.836091638
-28.37425041 -38.38981247 3.467000961
-52.08091354 -76.04316711 8.921619415
-52.21991348 -76.50417328 12.18610764
-52.06708908 -76.47452545 15.42212486
-51.88754272 -76.40471649 18.67697716
-18.82347107 -22.85330582 0.5729272962
-27.94585991 -37.10948563 1.833784461
-28.17401314 -37.75925827 3.441995144
-52.39025879 -76.35680389 15.44894886
-52.22279358 -76.3065567 18.71094894
-18.94800758 -22.88235092 0.5751783848
-27.76280212 -36.55155182 1.831157327
-28.00379181 -37.21320724 3.420557022
-52.53105545 -76.22442627 18.74348068
-19.05706978 -22.86862564 0.5786930323
-27.57834435 -35.98437881 1.8285532
-27.80962372 -36.62254333 3.396721125
-51.70458221 -73.93115234 11.93182468
-52.84007645 -76.1124649 18.77216911
-19.2146759 -22.9278717 0.5806102157
-27.39466476 -35.42561722 1.82588768
-27.64765358 -36.08892059 3.376075506
-53.17445374 -76.03888702 18.8099556
-19.35183144 -22.95467949 0.5832420588
-27.22285461 -34.89192963 1.823500514
-27.46579933 -35.53186798 3.353697062
-50.49636841 -70.72922516 8.530997276
-51.06895447 -71.82138824 11.70174885
-53.47040939 -75.90461731 18.83406067
-19.46936035 -22.95089531 0.5865370035
-27.06536674 -34.38650131 1.82147193
-27.28479385 -34.98319626 3.331541061
-48.57010651 -67.27261353 8.201415062
-19.58705521 -22.94657707 0.5898391604
-26.914711 -33.8975296 1.819578886
-26.74859428 -33.90974045 3.276277065
-48.86277771 -67.19662476 8.222676277
-54.15437317 -75.77363586 18.91493607
-19.71839142 -22.96158409 0.592725575
-26.73285294 -33.36869431 1.816651225
-26.94340515 -33.93743515 3.289575338
-50.11257935 -68.54551697 8.393703461
-50.09814072 -68.73023987 11.36120796
-54.46073151 -75.65198517 18.94281006
-19.8556881 -22.98420525 0.5954523683
-26.73937607 -33.12224579 1.819478989
-26.81028557 -33.47982788 3.27229166
-50.41472244 -68.47032928 8.415915489
-50.28520203 -68.48310852 11.36188602
-50.14087296 -68.44937134 14.32208061
-54.79307938 -75.56828308 18.97981262
-19.98877144 -22.99958992 0.59833318
-26.8839016 -33.07878494 1.826560736
-26.72493172 -33.0978241 3.2595644
-50.58483887 -68.40304565 11.38735485
-50.43125534 -68.3557663 14.34863949
-20.12179375 -23.00485039 0.6015874147
-27.02839279 -33.03474426 1.833637953
-26.85917473 -33.03927994 3.267302513
-50.89666367 -68.31330872 11.4134655
-50.71483994 -68.25120544 14.37330914
-20.24170876 -22.99928665 0.6049032807
-26.35755539 -31.82287979 1.815201402
-27.00600624 -32.98594666 3.275974751
-48.94176102 -64.96295166 10.95021343
-20.37837219 -23.02552223 0.6074002385
-27.31487083 -32.95391846 1.847578406
-26.36092567 -31.82367516 3.211953402
-48.58432388 -63.98221207 10.83746433
-48.74988556 -64.38591766 13.716712
-20.52929878 -23.07066536 0.6095147729
-27.45352936 -32.89993668 1.854463339
-26.47146606 -31.75068283 3.217888117
-26.37706757 -31.69702721 4.60915184
-48.35063934 -63.19001389 10.75231457
-48.48659134 -63.54669189 13.59499264
-20.67276955 -23.08633804 0.6125570536
-27.6025753 -32.86003876 1.861672401
-27.43284988 -32.86598206 3.301886797
-48.08391953 -62.31303406 10.65728474
-48.14983368 -62.58895493 13.45158672
-20.82410812 -23.12050247 0.61506778
-27.75282097 -32.80879211 1.869040847
-27.5771904 -32.8069725 3.310326338
-47.83734512 -61.49848557 10.56922722
-47.93432999 -61.79096603 13.34051991
-20.94127464 -23.09749031 0.6188910007
-27.89247131 -32.75466919 1.875945568
-27.72252464 -32.76134491 3.319087267
-47.07879257 -59.80727386 7.71944809
-47.55244064 -60.61739349 10.47211742
-47.67298889 -60.96146393 13.22041416
-21.06378746 -23.08989334 0.622238636
-28.04263496 -32.71452332 1.883181095
-27.86436081 -32.69787216 3.327298403
-47.29759216 -59.81135559 10.38398266
-47.3778038 -60.07234573 13.08987045
-47.61048126 -60.57149124 15.89887524
-21.20244026 -23.11218071 0.6248301864
-28.06851959 -32.51694489 1.886315465
-28.0108242 -32.6649971 3.336385489
-46.56874466 -58.24143982 7.602016449
-47.07151794 -59.07659149 10.30438709
-47.18790054 -59.38398361 12.9938736
-21.35992813 -23.14997292 0.6272799969
-28.19199371 -32.44059372 1.892678618
-28.14315987 -32.61220169 3.344180822
-46.3175087 -57.46647263 7.544069767
-46.80828857 -58.29915619 10.21765041
-46.91706467 -58.59233093 12.87681484
-21.51131821 -23.16940498 0.6302560568
-28.37363815 -32.42997742 1.901026011
-28.29537964 -32.56145477 3.353339434
-46.26089478 -56.94285583 7.514813423
-46.57958603 -57.53457642 10.13568878
-46.69470978 -57.8324585 12.76943016
-46.85822296 -58.19936371 15.47091579
-21.66369438 -23.19760704 0.6329045892
-45.83283234 -55.79258347 4.939162731
-46.33640289 -56.75975037 10.05147839
-46.44153595 -57.04013824 12.65481853
-46.59754181 -57.41378784 15.32773113
-21.78447342 -23.19158173 0.6360571384
-45.64350128 -55.15020752 4.914926052
-45.65890884 -55.32245255 7.387198448
-46.11822891 -56.06929398 9.976350784
-46.20572281 -56.32261276 12.55027771
-21.85442543 -23.11828041 0.640493691
-45.44076538 -54.49695969 4.889615536
-45.41517639 -54.61227798 7.333087444
-45.88166046 -55.36190796 9.898029327
-45.96802902 -55.61045837 12.4461422
-21.83018112 -22.92275238 0.6472323537
-45.65525055 -54.67575073 9.822460175
-45.7284584 -54.90373611 12.34241486
-45.87722397 -55.25500107 14.9344101
-21.78086472 -22.66274643 0.6557609439
-44.99565887 -53.08185577 4.834439754
-44.97915649 -53.18442917 7.22917223
-45.44859695 -53.94322968 9.745703697
-45.58542252 -54.25115967 12.25699615
-45.81479263 -54.68368912 14.85019302
-21.69540024 -22.3846817 0.6640832424
-30.74056625 -34.03863907 1.992416978
-44.79727936 -52.43720245 4.809618473
-44.81676102 -52.5843544 7.187400341
-45.25444412 -53.29511642 9.676632881
-21.61318016 -22.11377144 0.6721971631
-42.43842316 -49.02941132 4.591231823
-44.59745789 -51.93673706 7.13847971
-45.07335281 -52.6709938 9.610836029
-45.13989258 -52.88108826 12.05891991
-45.17258453 -53.06945038 14.54122639
-21.54520607 -21.8719368 0.6795506477
-42.11024857 -48.27132797 4.555753231
-42.60958481 -49.01979828 6.829943657
-44.92939377 -52.24259949 11.96637726
-45.0329361 -52.49998856 14.44581223
-21.47474289 -21.62143898 0.6871483326
-29.65591812 -31.94488335 1.963582516
-42.28886032 -48.14520264 4.565405369
-42.63412094 -48.69286346 6.817258835
-44.42173004 -51.09443283 9.423476219
-44.80236053 -51.69822311 11.89451122
-44.85598373 -51.88893127 14.33936691
-21.40416336 -21.36545372 0.6949260831
-43.24097824 -48.9899292 4.64404726
-42.77828979 -48.51920319 6.822167873
-44.30365372 -50.5539093 9.370975494
-21.38346291 -21.18179131 0.7011784315
-34.28617096 -37.19703293 2.121765375
-43.24583435 -48.62230301 4.637814522
-42.66014099 -48.00083923 6.78824091
-44.14102173 -49.98188782 9.311314583
-44.38741684 -50.40623474 11.7092104
-21.46284103 -21.12250328 0.7051515579
-42.93369675 -47.88333893 4.603800774
-42.74039459 -47.75131989 6.784127712
-44.20630264 -49.69918823 9.298062325
-44.18056107 -49.78097534 11.61887836
-43.48192978 -49.15839767 16.11683464
-21.50646973 -21.01966858 0.709882021
-24.14785194 -24.28964424 1.788668156
-44.56125259 -49.64606094 7.03156805
-44.42747498 -49.61091995 9.316324234
-44.35710907 -49.63682556 11.62812996
-44.23779297 -49.60366821 13.94933796
-43.73937225 -49.11898041 16.15703201
-21.47694778 -20.82895851 0.7161366343
-34.39514923 -36.523983 2.132930756
-24.16067505 -24.29719543 2.929338694
-44.78639984 -49.56163025 7.047871113
-44.63350677 -49.50325775 9.331564903
-44.58798218 -49.55944443 11.65143585
-44.47561264 -49.53499985 13.97799397
-43.94798279 -49.01787567 16.17895508
-21.44503593 -20.63718605 0.7223582268
-34.27478409 -36.12758636 2.131228447
-24.2369442 -24.21082687 2.932919979
-24.19564819 -24.22411346 4.073847771
-44.87204361 -49.43461227 9.353322029
-44.83008194 -49.49479675 11.67761707
-44.72454834 -49.49689102 14.01241302
-44.58480072 -49.44084549 16.35998917
-21.40699196 -20.4474926 0.728350997
-34.15211868 -35.71937561 2.129523277
-42.89955521 -46.48867416 4.576825619
-42.82429123 -46.50009537 6.735555649
-45.10046768 -49.35271454 9.373063087
-45.03960419 -49.40746689 11.69724751
-44.9549942 -49.41701889 14.03873062
-44.80585861 -49.3678894 16.38883972
-21.41932869 -20.31170082 0.733502984
-33.98701477 -35.26509476 2.126339912
-42.77353668 -46.00284958 4.559820175
-42.79010391 -46.12323761 6.715714455
-45.28424454 -49.34381485 11.72406483
-45.1803894 -49.33011246 14.06348324
-21.51755905 -20.27042961 0.7371363044
-31.25426102 -31.79127502 2.036465883
-42.84542847 -45.75662613 4.560319901
-42.62556458 -45.59480667 6.677477837
-42.89059067 -46.01037598 8.885485649
-43.01292038 -46.27507401 11.1132679
-45.3905983 -49.2241745 14.08354759
-45.27286148 -49.19547653 16.4474411
-21.64198875 -20.26679039 0.7399784327
-31.22425652 -31.5145607 2.037652254
-42.45035934 -45.04305267 6.637290478
-42.72855759 -45.48649216 8.829902649
-42.90026093 -45.79019165 11.05026531
-43.01673889 -46.03088379 13.30341911
-43.08110428 -46.22906113 15.59027958
-21.79120064 -20.2835865 0.7426121831
-31.35795593 -31.44178581 2.04425168
-42.31717682 -44.4670639 4.502252102
-42.30514145 -44.54849625 6.602371216
-42.58677673 -44.9756012 8.777598381
-42.85290527 -45.50453186 13.21122265
-42.91904831 -45.68562698 15.47728729
-21.94890404 -20.31635666 0.7448432446
-31.646492 -31.53575897 2.05620718
-42.15576935 -43.94438934 4.48227787
-42.1647644 -44.04875183 6.567700863
-42.4235611 -44.46118927 8.722686768
-42.72962189 -45.0147171 13.13021564
-22.05170822 -20.28510094 0.7481449246
-31.80675697 -31.49147797 2.063709736
-42.01080704 -43.46194458 4.464124203
-41.99788284 -43.53934479 6.53025198
-42.24424362 -43.9335022 8.665075302
-42.44860458 -44.26562881 10.83948326
-42.54924393 -44.47993088 13.03455257
-22.13998222 -20.23687935 0.7517173886
-31.96306038 -31.4419899 2.071074009
-42.0916481 -43.24260712 4.465760708
-41.85931015 -43.06772614 6.497057915
-42.08259583 -43.43157959 8.61135006
-42.26290512 -43.73282242 10.76219273
-42.39135361 -43.97660446 12.9465456
-42.47526932 -44.18758011 15.16722298
-22.30383682 -20.27352905 0.7538887262
-32.10745621 -31.37831116 2.078028917
-39.03380585 -39.45951843 4.194127083
-39.01543045 -39.52171707 6.084427357
-41.86823654 -42.87466049 8.547818184
-42.10261154 -43.23454666 10.69183636
-42.22525787 -43.46907806 12.85680866
-42.28857803 -43.65381622 15.05174923
-22.46681786 -20.30782127 0.7561064959
-32.27705002 -31.34235573 2.085842133
-38.90403748 -39.03007889 4.177952766
-38.90939331 -39.11781693 6.057211876
-41.74757767 -42.42990112 8.502906799
-42.08461761 -42.99568939 12.77552795
-42.14484787 -43.17463684 14.95266247
-22.56336975 -20.26691246 0.759542644
-32.44271851 -31.30116653 2.093519211
-38.76908875 -38.59902573 4.161412716
-38.77181625 -38.68247604 6.025797844
-41.6322403 -41.99539185 8.459382057
-41.93855667 -42.5209198 12.6933136
-22.68806839 -20.25670624 0.7624770999
-32.5896759 -31.23843575 2.100551128
-38.64757538 -38.18725586 4.146122456
-38.63298416 -38.25005341 5.994431019
-41.46404648 -41.50609589 8.406044006
-41.67214966 -41.82650375 10.49664021
-41.76613235 -42.02142715 12.60388279
-22.81293678 -20.24587631 0.7654184699
-32.74866104 -31.18839073 2.107992887
-38.51157761 -37.76347351 4.129659176
-38.51024628 -37.83980179 5.965522766
-41.30355835 -41.0302887 8.354588509
-41.50150299 -41.33633041 10.42598343
-41.63266373 -41.57035828 12.52685833
-41.69389725 -41.74383163 14.65356255
-22.99482346 -20.29625702 0.7673960328
-32.88738251 -31.11551666 2.114732265
-38.38248062 -37.35146332 4.113874912
-38.38776779 -37.43384552 5.936857224
-41.17889023 -40.59872818 8.310380936
-41.3888855 -40.91516113 10.37008572
-41.4702034 -41.09170914 12.44183159
-41.54007721 -41.27254105 14.55432796
-23.15554047 -20.322155 0.7697666883
-38.11273193 -36.54512405 2.297439337
-38.25091934 -36.94084167 4.097958565
-38.27098083 -37.03801727 5.909180164
-41.29108047 -40.51428604 10.31827259
-41.35771179 -40.67272568 12.3723793
-41.41091156 -40.83316422 14.46463108
-23.28258133 -20.31061935 0.7727214694
-37.9869194 -36.14889908 2.295328856
-38.23895264 -36.66352844 4.092423439
-38.13293839 -36.62302399 5.878768921
-41.19770432 -40.2059288 12.28941917
-41.27651978 -40.39236069 14.3738699
-23.48917007 -20.38302231 0.7743880749
-37.88066483 -35.77733231 2.293853998
-38.00600052 -36.22402573 5.850092888
-40.78421402 -39.30673981 8.175916672
-40.89549637 -39.50761414 10.16747284
-41.04553604 -39.75233459 12.20945835
-23.58109093 -20.33217239 0.7779433727
-37.74477768 -35.37789917 2.291307926
-37.8758316 -35.75378799 4.052366257
-37.88758087 -35.83804321 5.822785854
-40.63993073 -38.87073135 8.129374504
-40.81960297 -39.1428566 10.1224041
-40.90137863 -39.31180954 12.13250828
-40.92320633 -39.43247604 14.16513443
-23.64807129 -20.25487328 0.7818828225
-37.63134003 -35.00593567 2.289500475
-37.77448654 -35.39076996 4.039350033
-37.76690674 -35.45332718 5.795358181
-40.50665665 -38.45068741 8.085258484
-40.68357849 -38.71725464 10.06322765
-40.77870178 -38.89860153 12.06251049
-40.86047745 -39.08172989 14.10168552
-23.72305489 -20.18603706 0.7856754661
-37.51296616 -34.63231659 2.287480354
-37.65037537 -35.00723267 4.024453163
-37.65220261 -35.07858276 5.76893425
-40.38453293 -38.04650116 8.043576241
-40.54368973 -38.2916832 10.00359154
-40.64557266 -38.47818756 11.9900198
-40.70376205 -38.6341629 14.00621033
-23.82976341 -20.15000534 0.7889652252
-37.41179276 -34.28014755 2.286020994
-37.52955246 -34.63076019 4.009908676
-37.5380249 -34.708004 5.74276638
-40.26280594 -37.64651871 8.002285004
-40.42710876 -37.89478683 9.950016022
-40.5396843 -38.09048843 11.9260807
-40.60324097 -38.25039291 13.93095779
-40.09749603 -37.79670334 15.75079918
-23.98246956 -20.16080856 0.7915593386
-37.28355026 -33.90326309 2.283576488
-37.432827 -34.28291702 3.997493505
-37.39824295 -34.31425476 5.713291168
-40.12498474 -37.23358917 7.958293438
-40.30142975 -37.49205017 9.894685745
-40.37461472 -37.64455414 11.84543228
-40.45487213 -37.81995392 13.8398428
-40.23234177 -37.66607666 15.75778008
-24.08932114 -20.1236515 0.794852376
-37.17264557 -33.54774475 2.281699657
-37.32021713 -33.92182922 3.983786821
-37.31017303 -33.97770309 5.691030025
-40.00404358 -36.84206772 7.917779446
-40.19530869 -37.11341858 9.844454765
-40.28036118 -37.2765007 11.78598595
-40.33225632 -37.42053223 13.75832176
-40.31869888 -37.4848671 15.74561977
-24.24532127 -20.13583183 0.7974264026
-37.07653046 -33.21051025 2.280305386
-37.19852448 -33.55482483 3.969373465
-37.19654083 -33.61796951 5.665462971
-39.86977768 -36.44049454 7.875082016
-40.06638718 -36.71477509 9.789206505
-40.14029694 -36.86459351 11.71376896
-40.21545029 -37.03084183 13.67945862
-40.28633881 -37.1815033 15.68666744
-24.41376877 -20.15206146 0.8000832796
-36.95594788 -32.85164261 2.278014183
-37.08728027 -33.20192337 3.95591712
-37.0850029 -33.26371765 5.640349865
-39.7951355 -36.09059143 7.842912674
-39.92962265 -36.31188202 9.732524872
-40.04988098 -36.50744629 11.65646267
-40.07846832 -36.61091995 13.59246445
-40.1688385 -36.77972412 15.59235859
-24.52378845 -20.11585999 0.8033474088
-36.86734009 -32.51652908 2.276908159
-37.14579391 -33.01159286 3.95674324
-36.9828949 -32.91048431 5.616187572
-39.8079834 -35.91527557 9.678666115
-39.90890121 -36.08905411 11.58354092
-39.96926498 -36.2364769 13.51752949
-40.04777145 -36.39138412 15.49971104
-24.60541344 -20.0509758 0.8070032001
-36.7454567 -32.16293716 2.274496555
-36.88547516 -32.57701111 5.593312263
-39.71095657 -35.56007004 9.6322155
-39.79496384 -35.79967499 13.42111778
-39.89874649 -35.97830963 15.39683723
-24.77372932 -20.07141113 0.8094605803
-36.63858032 -31.82748222 2.272578955
-36.80515289 -32.20232773 3.92010951
-36.76640701 -32.22496033 5.56768322
-39.40531921 -34.93184662 7.719928265
-39.58400726 -35.17808533 9.579098701
-39.69495773 -35.44174957 13.35058784
-39.75133133 -35.57089996 15.29542828
-24.91670609 -20.06575203 0.8122813106
-36.54405594 -31.50716019 2.271064758
-36.67453766 -31.84289742 3.905265093
-36.67218018 -31.900774 5.54554987
-39.29904938 -34.57627869 7.683875084
-39.48845291 -34.83082581 9.53373909
-39.47688675 -34.88736343 11.37013721
-39.60117722 -35.09324265 13.28273964
-39.62884521 -35.19223022 15.20454407
-25.02549744 -20.02588463 0.8155664206
-36.43335342 -31.17398262 2.26894331
-36.57036209 -31.51272202 3.892717838
-36.56331635 -31.56509972 5.521607399
-39.10878372 -34.14120865 7.63267374
-39.37121582 -34.46532822 9.483675003
-39.44256592 -34.60271454 11.3313055
-39.492939 -34.73357773 13.21059608
-39.52196121 -34.83254242 15.12046719
-25.11844063 -19.97023201 0.8190539479
-36.34088516 -30.8614006 2.267436266
-36.4885788 -31.20737839 3.882119179
-36.45681381 -31.23475838 5.498134136
-39.09034729 -33.87843704 7.613259792
-39.18142319 -34.03206635 9.417070389
-39.38430023 -34.29681015 11.28603554
-39.37296295 -34.36555862 13.13508701
-39.45008087 -34.51062012 15.05066967
-25.30074883 -20.00001526 0.8213880062
-36.2379837 -30.54154587 2.265526533
-26.98272896 -21.79619598 3.07783103
-36.35697937 -30.91388702 5.475701809
-39.25413895 -33.79433823 7.627288342
-39.22951126 -33.83438492 9.406232834
-39.24853897 -33.9179039 11.21921158
-39.20492172 -33.95402145 13.04410076
-39.36126328 -34.17481995 14.97491169
-25.46254921 -20.00150108 0.8242411017
-36.25333023 -30.33734322 2.267800331
-26.73909569 -21.40417671 3.054757833
-36.24958801 -30.58857918 5.452408791
-39.43664932 -33.71559143 7.643955708
-39.42427826 -33.77926636 9.429569244
-39.32611465 -33.74891663 11.21312046
-39.23603821 -33.72728729 13.01851463
-39.20606232 -33.76527405 14.87215805
-25.55270576 -19.94136238 0.8277639151
-36.41970444 -30.26653099 2.275532484
-26.90007973 -21.39432907 3.065625906
-36.20479965 -30.31506348 5.437126637
-39.61736298 -33.64641953 7.661086082
-39.61373138 -33.7059288 9.45057869
-39.526371 -33.68606949 11.2403307
-39.41833496 -33.65955353 13.04522514
-39.3129921 -33.6245575 14.87303257
-25.6558342 -19.89316559 0.8311173916
-36.61263657 -30.23079872 2.28412509
-26.80075455 -21.14487076 3.054771423
-36.35680771 -30.24112129 5.448447227
-39.82966614 -33.60644531 7.683943748
-39.81999588 -33.65980911 9.476546288
-39.71775818 -33.62595367 11.2664299
-39.5893631 -33.58019257 13.06820011
-39.51125717 -33.57149124 14.90911102
-25.79399681 -19.87723732 0.8340456486
-36.79841232 -30.18728065 2.29246068
-26.86728477 -21.05358505 3.057858229
-36.52173996 -30.17879486 5.461481571
-40.01470566 -33.53956985 7.701849461
-39.98623276 -33.57472992 9.493282318
-39.9148674 -33.57030487 11.29412174
-39.79133224 -33.52950287 13.10142994
-39.69423294 -33.50285339 14.93931484
-25.90884209 -19.83885193 0.8372555971
-36.96374893 -30.12382698 2.300060749
-26.66927147 -20.7156086 3.03881669
-36.69682693 -30.12518692 5.475853443
-40.22000504 -33.49077988 7.723405361
-40.18970871 -33.52401352 9.518587112
-40.10346603 -33.50563431 11.31942081
-39.98487854 -33.46982574 13.13185978
-39.88980484 -33.44522858 14.97432423
-26.03251457 -19.80804634 0.8403609991
-37.10011673 -30.04379463 2.306534052
-26.79637146 -20.68998718 3.047132969
-36.84319687 -30.05494118 5.486875057
-40.38456345 -33.41506577 7.738385201
-40.37574005 -33.46804428 9.540943146
-40.26889801 -33.43050385 11.33962154
-40.17560959 -33.40654373 13.16135216
-40.06677246 -33.38130951 15.00421238
-26.16724586 -19.77941513 0.8435686827
-37.29577255 -29.99593353 2.315297842
-26.96487427 -20.68662834 3.058657646
-27.19638634 -20.93752098 4.211236477
-40.59594345 -33.35786438 7.760246277
-40.5766716 -33.40080643 9.564572334
-40.46631241 -33.36022568 11.36601448
-40.37520218 -33.33843613 13.19208336
-40.27684402 -33.32318878 15.04273129
-26.32513428 -19.77822113 0.8462970853
-37.47728729 -29.94490623 2.323468685
-27.10712242 -20.65810394 3.067981958
-27.25771332 -20.84074974 4.213206291
-40.78107834 -33.27545929 7.777393341
-40.76600647 -33.32186127 9.585552216
-40.68080521 -33.31677628 11.39848709
-40.56023788 -33.26799774 13.21969891
-40.46856689 -33.2469902 15.07429409
-21.1740551 -15.00546646 0.9068382978
-27.65458488 -20.87449455 1.970922828
-27.29371643 -20.68407822 3.08123374
-27.26119041 -20.69161987 4.207638741
-40.9997673 -33.23477173 7.801302433
-40.95209122 -33.26316833 9.60790062
-40.88389206 -33.26164627 11.42776871
-40.74073792 -33.2045784 13.24747467
-40.66114044 -33.194767 15.11005974
-21.23236465 -14.94646931 0.9096365571
-21.21468925 -14.95747185 1.739560485
-27.20568085 -20.45366859 3.071508884
-37.56079102 -29.83380508 5.546135426
-41.18326187 -33.17302704 7.819666862
-41.1339035 -33.18772125 9.628231049
-41.07105637 -33.1910553 11.45264912
-40.94873428 -33.15333557 13.28256893
-40.84405136 -33.12070465 15.14023685
-26.74144554 -19.72446442 0.8549488783
-21.20368576 -14.93545914 2.570574522
-21.16209412 -14.92508888 3.401135683
-41.38153839 -33.11171341 7.839906216
-41.3567276 -33.14833069 9.657836914
-41.25676727 -33.11821747 11.47712612
-41.14530182 -33.09059143 13.31391811
-41.04688263 -33.06390381 15.17790699
-26.84620094 -19.67246819 0.8582723737
-38.20080948 -29.72926331 2.356032372
-21.26177788 -14.87602425 2.573638439
-21.23054886 -14.87491131 3.405690432
-21.20578384 -14.88526535 4.243226528
-41.55323029 -33.08417511 9.681476593
-41.45265579 -33.05363846 11.50439739
-41.34476089 -33.02951813 13.34619999
-41.24694443 -33.00348282 15.21450615
-26.98002815 -19.63830376 0.8615112305
-38.38254929 -29.67377281 2.364197254
-27.46965408 -20.24045753 3.086330414
-38.10570526 -29.6724205 5.591707706
-21.26941109 -14.8249836 4.247224331
-41.74830246 -33.01770782 9.704781532
-41.6587944 -32.9972229 11.53447056
-41.54295349 -32.9541893 13.37644196
-41.45869446 -32.94045639 15.25355053
-27.1224308 -19.61802483 0.8644484282
-38.53114319 -29.5885067 2.371155977
-27.57842064 -20.17981148 3.092882156
-38.28393173 -29.61376953 5.606443405
-41.96908951 -32.90333557 7.898543358
-41.93742371 -32.93309402 9.725725174
-41.86062241 -32.93586349 11.56334114
-41.73225403 -32.88211441 13.40543556
-41.64586639 -32.86649323 15.28531837
-27.25685692 -19.59723282 0.8672524095
-38.63871384 -29.46730042 2.376618385
-27.70985985 -20.15331268 3.101541758
-38.44717407 -29.54115105 5.619235516
-42.18983078 -32.85767746 7.922720432
-42.14735031 -32.88971329 9.7533741
-42.04478836 -32.85802841 11.58739662
-41.93758774 -32.83514023 13.44116306
-41.83868408 -32.80861664 15.32107258
-27.38281441 -19.561203 0.8703588843
-28.16383553 -20.39717674 3.136714935
-38.42215347 -29.30499458 5.607728958
-42.3614006 -32.78007126 7.938956261
-42.34841537 -32.82552719 9.777999878
-42.24514008 -32.79345322 11.61585903
-42.14159012 -32.77391815 13.47484493
-42.04030609 -32.74552155 15.35820007
-27.49714661 -19.5073967 0.8737900853
-38.41740036 -28.85288239 2.371618986
-28.15308571 -20.23792648 3.133490086
-38.32794189 -29.01104355 5.587400436
-42.55964661 -32.70087433 7.958420277
-42.54948425 -32.76034927 9.802621841
-42.45740128 -32.73810959 11.64753056
-42.35443115 -32.70734406 13.50976276
-42.24345398 -32.67073822 15.39400864
-27.60020828 -19.45078278 0.8771045208
-28.19685745 -20.11869812 3.134665251
-38.24485779 -28.71846771 5.568222523
-42.78815842 -32.65849686 7.983918667
-42.75944519 -32.68979645 9.828206062
-42.65180969 -32.65435028 11.67307377
-42.5393486 -32.62756348 13.53733253
-42.45828247 -32.61689758 15.43596745
-27.72663307 -19.4061718 0.880410552
-38.17372513 -28.4013195 3.953387976
-38.17169571 -28.44716263 5.550841331
-42.9879303 -32.57846069 8.003639221
-42.9515419 -32.61491394 9.850822449
-42.86863327 -32.60071564 11.70594788
-42.75072479 -32.55760574 13.57177353
-42.66584396 -32.5437355 15.473382
-27.85105133 -19.36643791 0.8835203052
-37.98400497 -27.85573578 2.360274553
-29.03463745 -20.51813507 3.198837042
-38.06965256 -28.15366554 5.529867649
-43.09687805 -32.43291855 8.008237839
-43.17807007 -32.55624771 9.880065918
-43.05862427 -32.5232048 11.7315836
-42.95631027 -32.49351883 13.60591316
-42.85294342 -32.47602081 15.50697422
-18.29185104 -11.30858517 0.3011937439
-27.99509621 -19.34945107 0.8862482309
-37.89427185 -27.5881424 2.358339787
-29.04103661 -20.37941551 3.197144985
-37.98082733 -27.88389587 5.511094093
-41.90834808 -31.21439171 7.787692547
-41.92057037 -31.27723885 9.583582878
-43.22774887 -32.43918228 11.75289345
-43.16500854 -32.44296646 13.64257812
-43.04888535 -32.41484451 15.54379082
-18.24774361 -11.18618488 0.3079955578
-28.13817787 -19.32362938 0.8892000318
-37.80189896 -27.31039619 2.356354713
-29.12368011 -20.30453491 3.201724291
-37.90322495 -27.61535645 5.493476868
-41.77969742 -30.89077759 7.752269268
-41.81781387 -30.97424698 9.542888641
-41.88092804 -31.07950401 11.36743069
-41.91418457 -31.16116714 13.21727467
-43.23884201 -32.33577347 15.57659435
-18.24381065 -11.09320354 0.3127987683
-28.27558327 -19.28517342 0.892410934
-37.73766708 -27.04788017 2.355445385
-29.22889519 -20.23300362 3.207927227
-37.81067276 -27.32649994 5.473680973
-41.69853973 -30.58647537 7.723943233
-41.72449112 -30.65882874 9.502669334
-41.7955513 -30.76945305 11.31937599
-41.8293457 -30.85051155 13.1596384
-41.87982178 -30.95817566 15.04480457
-41.92676544 -31.05324745 16.97160149
-18.3445797 -11.08961391 0.3117746413
-28.38932037 -19.23395348 0.8956102729
-37.64539337 -26.77457619 2.353414774
-29.20552635 -20.05630302 3.20361042
-37.7192955 -27.05103683 5.45453167
-41.59116364 -30.26309395 7.691280365
-41.62326431 -30.33955574 9.461016655
-41.70902634 -30.47219086 11.27256393
-41.71777725 -30.53165245 13.09550858
-41.78822708 -30.64321518 14.97528648
-41.84998322 -30.76070213 16.89972878
-18.42368317 -11.06795883 0.311909616
-28.54470825 -19.22288322 0.8982623219
-29.7454567 -20.22039604 2.064449549
-29.16156769 -19.87898827 3.197861671
-37.68208313 -26.82168007 5.442372799
-41.51805496 -29.9814167 7.665418148
-41.51251221 -30.03735352 9.419391632
-41.60569 -30.16359901 11.22163296
-41.62310791 -30.24040985 13.03855038
-41.65711975 -30.32100677 14.89542294
-41.77606201 -30.47273445 16.82958984
-18.42151451 -10.98117638 0.316313684
-28.664711 -19.1754303 0.9014075398
-37.48452377 -26.25337791 2.350152254
-29.21831131 -19.77650642 3.200250387
-37.55529404 -26.52180481 5.418942928
-41.41962814 -29.69233894 7.636016846
-41.43310928 -29.75188446 9.383980751
-41.52201462 -29.87334442 11.17626286
-41.54739761 -29.95567894 12.98650169
-41.58801651 -30.04063225 14.8367691
-41.66363144 -30.15563583 16.74421692
-18.39854813 -10.87844467 0.3217591345
-28.79287529 -19.12670135 0.9046887755
-37.40041733 -25.99289322 2.348351479
-29.50552177 -19.85816574 3.221449852
-37.45796585 -26.24799347 5.399363518
-41.31789398 -29.38106918 7.604940891
-41.35526276 -29.46982765 9.349159241
-41.4123497 -29.56446266 11.12435055
-41.44524765 -29.64075661 12.92520428
-41.49727249 -29.73384666 14.76913548
-41.56134415 -29.84930992 16.66360474
-18.41638947 -10.80426216 0.3252376914
-28.94742966 -19.10521126 0.9075650573
-37.3132782 -25.7224617 2.346479893
-29.57195091 -19.75499535 3.224515915
-37.42307281 -26.01626587 5.387429237
-41.22158432 -29.08745193 7.575638771
-41.27501297 -29.17711067 9.313182831
-41.33996582 -29.27690506 11.08150291
-41.34057617 -29.33739471 12.86496353
-41.39051056 -29.42767715 14.6979084
-41.4478302 -29.5254364 16.57710838
-18.36406708 -10.67990017 0.3320964873
-29.07091713 -19.05136681 0.9108783007
-37.26097107 -25.49094772 2.34580636
-29.75675964 -19.75244141 3.23733902
-37.33224869 -25.75172043 5.368880272
-41.15065002 -28.80547523 7.550246716
-41.16472626 -28.87373161 9.271822929
-41.25308609 -28.99092484 11.0362854
-41.26843262 -29.05139542 12.81387329
-41.3114357 -29.13512039 14.63549137
-41.3823967 -29.25348663 16.51269531
-18.37228966 -10.60752487 0.3355695307
-29.14948273 -18.97641945 0.914111495
-37.16659164 -25.23779678 2.343497753
-29.98277473 -19.78076935 3.253500462
-37.24481201 -25.50140572 5.351209641
-41.05543137 -28.52785683 7.522119999
-41.07294083 -28.58732224 9.234740257
-41.13951111 -28.69684029 10.98546982
-41.15685654 -28.75808907 12.75366974
-41.21129227 -28.84981155 14.56922626
-41.29684448 -28.97850609 16.44247818
-18.42338562 -10.56429577 0.337018609
-29.3118248 -18.96583557 0.916734457
-37.06906891 -24.97483063 2.341112852
-30.05112839 -19.69257927 3.256946564
-37.15435028 -25.24119568 5.33290863
-40.96385574 -28.24463463 7.49417305
-40.98077393 -28.31337929 9.198664665
-41.03568268 -28.40205574 10.93644905
-41.06518936 -28.48263359 12.70000458
-41.10665512 -28.56315231 14.5018034
-41.191082 -28.67891502 16.36273766
-18.47395706 -10.52466202 0.3382790685
-29.44129562 -18.92192841 0.9197941422
-32.80582428 -21.52613068 2.184541464
-37.11569595 -24.98403168 3.828063011
-37.09402847 -25.00624275 5.318493366
-40.85947418 -27.96412659 7.464824677
-40.89849091 -28.03861809 9.164114952
-40.96741867 -28.13717651 10.89705944
-40.98949432 -28.21100998 12.65030479
-41.02688217 -28.28746033 14.44212246
-41.08972549 -28.38512039 16.28533936
-18.52960587 -10.48461628 0.3394718468
-29.59784889 -18.89791489 0.9226668477
-36.92869949 -24.49663353 2.338300943
-32.79768753 -21.49647903 3.475225687
-32.78006744 -21.51646042 4.77088213
-40.77750015 -27.6925869 7.438858986
-40.8241272 -27.77202797 9.131505966
-40.89157867 -27.86835098 10.85597706
-40.88928223 -27.9224968 12.59343147
-40.93654251 -28.00561142 14.37912273
-40.99582291 -28.09943581 16.21150398
-18.59990311 -10.45131302 0.3401142061
-29.75455856 -18.87304306 0.925544858
-36.84782791 -24.25215149 2.33646822
-36.94116211 -24.51692581 5.285894871
-40.70355988 -27.42916489 7.414424419
-40.7170105 -27.48241043 9.092088699
-40.79565048 -27.58616447 10.8099575
-40.80755615 -27.65045547 12.54262829
-40.85845184 -27.73531914 14.32091045
-40.92459106 -27.83334541 16.14730835
-18.6746006 -10.42505836 0.3403331041
-29.91964912 -18.84631729 0.9285680652
-36.77848816 -24.01810074 2.335043192
-31.41648483 -20.1330471 3.35871172
-36.86756516 -24.27713394 5.270089149
-40.6378746 -27.16369629 7.390965462
-40.63349533 -27.21292686 9.057980537
-40.70600128 -27.31094551 10.76588345
-40.71545029 -27.36212158 12.48773861
-40.76089478 -27.44185066 14.25475597
-40.83075333 -27.55195999 16.07453156
-18.73198891 -10.38150597 0.3416084349
-30.00437164 -18.76606369 0.9319129586
-36.71863174 -23.78382492 2.334006786
-31.49331665 -20.0302639 3.362570286
-36.80979538 -24.04188728 5.256023884
-40.55005646 -26.89370537 7.364505768
-40.56916428 -26.94971085 9.027409554
-40.61977386 -27.030159 10.72197723
-40.65095139 -27.10724068 12.4429369
-40.66756058 -27.1642437 14.19205666
-40.74640274 -27.2695961 16.00435066
-18.8178978 -10.36282349 0.3412628174
-30.20821762 -18.76622391 0.9346961379
-36.63395309 -23.54186058 2.331971884
-31.53886414 -19.91193008 3.364022732
-36.73047638 -23.80135345 5.239685535
-36.81705093 -23.90211868 6.722492218
-40.48281479 -26.68208313 8.993150711
