# .PCD v0.7 - Point Cloud Data file format
VERSION 0.7
FIELDS x y z
SIZE 4 4 4
TYPE F F F
COUNT 1 1 1
WIDTH 1326
HEIGHT 1
VIEWPOINT 0 0 0 1 0 0 0
POINTS 1326
DATA ascii
39.53607941 25.73805809 0.332275033
38.0124321 24.73052216 1.950355649
35.67738342 23.20129013 4.897499561
34.19095993 22.21483612 6.186473846
33.61123276 21.8491993 7.544920921
39.7734642 25.696661 0.3339432776
87.60302734 57.72720337 3.468342304
36.46192551 23.54697609 4.981128216
34.29880524 22.11440086 6.193752289
33.92874908 21.89268875 7.595712185
39.93270874 25.60197258 0.336535722
87.97329712 57.53193665 3.480807543
36.19848251 23.18814468 4.944224834
34.51363373 22.08496857 6.217928886
33.99581528 21.76679611 7.596261024
40.19365692 25.57359886 0.3380155563
88.25979614 57.2797699 3.490779877
35.35150909 22.42908287 3.351965189
35.8731842 22.79194641 4.900421143
34.72371674 22.05101395 6.241362572
37.49417877 23.91184235 8.282838821
40.42477798 25.52401352 0.3398734927
88.58908081 57.05481339 3.502132654
35.3689537 22.26413536 3.350353003
35.79198837 22.55985641 4.88477087
34.87758636 21.97890663 6.255991936
37.52033234 23.74220276 8.274159431
40.59394455 25.43288231 0.3424511254
88.91116333 56.8239212 3.513335466
35.37228775 22.09064865 3.347774744
35.84980392 22.41981697 4.885129452
34.9266777 21.83783722 6.254260063
37.49947739 23.54251289 8.256267548
40.71178818 25.32801437 0.3451685905
89.25975037 56.65288925 3.525279999
35.33670807 21.9102726 3.342713356
36.49434662 22.67677498 4.953143597
36.27790451 22.55627441 6.457045555
39.95823288 24.96765137 8.732951164
40.91766739 25.25906944 0.3473992348
89.45967865 56.34126663 3.532871246
35.39955902 21.76787376 3.344411135
36.53569794 22.52369881 4.95166111
37.66064453 23.26514626 6.663220406
45.47945786 28.30738068 9.813720703
41.12643814 25.18074417 0.3498587608
89.82733917 56.13607788 3.545679808
35.53544235 21.68073273 3.351561546
36.90972519 22.57363892 4.987809658
37.90465164 23.23608398 6.691437721
45.79302979 28.2845974 9.859777451
41.27193451 25.08158302 0.3525729179
90.09311676 55.8651123 3.555432796
35.78595352 21.66534805 3.367010832
40.34687805 24.57283401 5.372634411
37.13306808 22.56369781 6.561736584
45.60850525 27.95582008 9.808099747
41.43362427 24.98191643 0.3553648889
90.39202118 55.61418915 3.566273451
35.87213516 21.55412102 3.370774031
40.41476059 24.41941071 5.373790264
38.16491318 23.03050423 6.712528229
38.74814606 23.42700768 8.437891006
41.58490753 24.87513351 0.3582895398
67.35725403 40.88611984 2.859460115
36.25859833 21.62065697 3.396054268
36.17077637 21.58550072 4.886410236
36.29794693 21.68431473 6.413624287
39.40954971 23.65186691 8.555055618
41.7632103 24.78437233 0.3609618247
36.41993332 21.54546165 3.405155897
36.23669434 21.45202827 4.888177395
36.43495941 21.5942173 6.425881386
39.64343262 23.60686111 8.587822914
46.48229218 27.8613472 11.90956497
41.87310791 24.65099144 0.3643557429
66.85844421 39.93382263 2.846793175
43.02833557 25.40188408 3.877076626
36.25118637 21.28717041 4.884199619
36.18119812 21.26417351 6.3778162
39.13677597 23.09677124 8.474487305
42.09992599 24.57819557 0.3668210804
43.50524139 25.48571205 3.908463478
36.62104034 21.33003426 4.920131207
36.05945206 21.01753998 6.350357533
40.23047638 23.57556915 8.676118851
38.93120575 22.80738831 10.06933784
42.21162415 24.45497513 0.3700132668
35.59880829 20.5208683 3.339010954
36.7452507 21.23950768 4.928906918
36.34902954 21.02084732 6.38642931
39.21305466 22.77957726 8.464558601
42.44761658 24.39560318 0.3722302914
65.95596313 38.45701599 2.823207855
35.57508087 20.34656906 3.335193872
37.53432465 21.53731918 5.012289524
36.24736786 20.79659462 6.36273241
37.89531708 21.80451584 8.194461823
42.55537415 24.26900864 0.3755037487
66.36791992 38.38970566 2.837443829
35.61951447 20.20513916 3.336196661
37.47279739 21.33269119 5.000184059
36.41428757 20.72491074 6.380018234
38.05435944 21.72947693 8.214129448
47.05691528 27.11077118 11.95110703
42.56189728 24.07281494 0.3799881339
66.09060669 37.91501617 2.830436468
36.26716614 20.42707634 3.380478382
37.21685791 21.00608826 4.966079712
36.43082428 20.56372833 6.37428093
39.3067131 22.28063393 8.445667267
47.23749542 26.99669075 11.97518158
42.67908096 23.93179703 0.3836459219
44.85975266 25.26010132 3.992050171
37.49751663 20.98721123 4.992043495
40.91505814 23.00514412 7.052320957
39.5845871 22.25032234 8.487018585
47.361763 26.83778572 11.98510361
42.86680984 23.83125687 0.3866605759
68.0140152 38.37782669 2.893396854
37.47188187 20.78903961 4.983718395
39.13341141 21.77285576 6.770454884
39.71373367 22.14109993 8.500086784
47.38380814 26.61930847 11.97105122
42.89212418 23.64677811 0.3909819126
45.03458405 24.93292809 3.999369383
37.51405334 20.63951874 4.983333111
39.31132126 21.69372559 6.789104939
40.29730225 22.2929821 8.601344109
40.97875977 22.70932198 10.44367218
43.05060577 23.53843689 0.3940842152
54.527771 30.0967598 2.478594542
39.67629623 21.69787598 5.219853401
42.46812439 23.32196808 7.262388229
42.73048019 23.49627876 9.060506821
40.8624649 22.45381165 10.40083981
43.1732254 23.4191761 0.3973074257
54.76774597 29.98105431 2.487502813
45.72759247 24.9087677 4.043939114
42.77598953 23.30085564 7.30027771
40.81455612 22.22406387 8.67825222
40.86364365 22.27608681 10.38663578
43.23865509 23.25765038 0.4012891054
67.98603821 37.12297821 2.899640322
45.80907059 24.75523376 4.047523022
38.78636551 20.84369087 5.11055994
43.57524872 23.55344009 7.412879944
40.56573105 21.8972683 8.618455887
41.11397934 22.22983551 10.43028831
43.34895706 23.12119293 0.4048804939
54.97102737 29.59247971 2.49685955
46.04800415 24.67876816 4.062242985
37.6993866 20.06217957 4.98460865
42.18362808 22.57995033 7.19262743
41.07482147 21.99600983 8.705050468
40.99488449 21.9758873 10.38743877
43.47286224 22.99194527 0.4083698094
54.95951462 29.34850311 2.497996092
46.18206787 24.54312706 4.069550991
38.80895233 20.50269699 5.10327673
42.05056763 22.32425499 7.164330006
41.4435463 22.01320267 8.764494896
42.0671196 22.39268303 10.62416077
43.56413651 22.85442924 0.4119298458
55.10491943 29.19115257 2.504050493
52.89346313 28.01320076 4.544146061
38.17724991 19.9899807 5.028567314
51.38302994 27.25786209 8.569793701
45.11733627 23.88773155 11.32217503
43.69369125 22.7374897 0.4151761234
55.37995148 29.10367012 2.51418519
38.32105637 19.90434456 5.040136814
45.60561752 23.89606476 7.686243534
44.90130615 23.53950119 9.406553268
39.53483963 20.65100861 10.00552368
43.8176384 22.61715508 0.4184882045
43.68931961 22.58265495 2.150966406
43.3978157 22.45051193 3.866056681
38.57863235 19.87932777 5.064360619
39.31991577 20.31023979 6.728167057
39.82222748 20.6376667 10.05942249
43.87460709 22.42142868 0.4232967198
43.79236221 22.40244293 2.155812502
43.36745453 22.21064758 3.861770153
38.84731674 19.82388878 5.088931561
39.40933609 20.1466713 6.73263979
42.72957993 21.9548378 8.965655327
44.23352051 22.41461182 0.4249458611
40.1084938 20.29471588 3.629097223
38.81333923 19.63256454 5.080728054
39.44333267 19.98886681 6.73035574
42.7698288 21.78563309 8.962147713
39.95990372 20.31934166 10.06162453
44.36780548 22.28794098 0.4284811914
27.28591537 13.39682102 2.719587803
30.50458527 15.10111618 4.15827322
39.38536453 19.7918644 6.714695454
42.4708252 21.43831253 8.894021034
44.52258682 22.1812458 0.4316430688
27.39317513 13.33767796 2.7261765
30.58005714 15.01198959 4.163407803
39.35819244 19.61194992 6.703782558
42.52630615 21.28860092 8.894306183
44.45303345 21.95855522 0.4366007149
27.54645538 13.30177593 2.736046314
30.60928535 14.89881706 4.163484573
39.19462585 19.35370636 6.672152996
44.53610992 21.80514526 0.4405808449
27.65960693 13.23838043 2.743051529
30.72586823 14.82380009 4.173075199
47.29195786 23.33038139 7.879493237
41.92540359 20.61493874 8.75933075
41.32831573 20.33387184 10.32662487
45.03990936 21.86433411 0.4413385093
49.62140656 24.21954727 2.347554445
27.83674812 13.20684147 2.754607201
30.77306747 14.71304798 4.175065994
47.01427841 22.99235344 7.830071449
42.11708832 20.52878571 8.78547287
41.50233459 20.24152756 10.35368824
46.02048111 22.58245087 13.29234505
45.1687851 21.74181938 0.4448035657
49.64245605 24.01317215 2.34996295
27.76787567 13.05056572 2.748811245
30.8509655 14.62452984 4.180642605
29.75070381 14.08842564 5.238984108
30.24601746 14.36287022 6.524271011
41.67609787 20.15722084 10.38140106
47.24203873 22.99968719 13.60617733
45.35679626 21.63836861 0.4480816126
49.80945587 23.8799572 2.357001305
27.67798233 12.89087772 2.741616249
29.29273415 13.71275043 4.006326675
29.30399704 13.7358017 5.167200565
40.31329727 19.26828194 8.424110413
43.81508636 21.04748344 10.86032009
46.35421371 22.34892273 13.34775257
44.93822861 21.23518181 0.4558701813
64.76831055 31.04131889 2.830681801
27.64518547 12.75453568 2.738446236
27.29503059 12.59762287 3.784132957
28.8445549 13.38119602 5.093746185
40.60868454 19.23998451 8.470546722
46.71562958 22.32775497 13.42824841
44.98647308 21.06420517 0.4601697922
64.45884705 30.60980034 2.823301554
27.95058632 12.78447819 2.75916934
27.28801155 12.47615623 3.780733824
28.89195633 13.27976608 5.096102715
30.00585365 13.85127163 6.457615376
42.48861313 20.01523018 10.52977276
46.90133286 22.21756935 13.46122837
45.08446503 20.91757965 0.4641164839
64.5933609 30.39699936 2.829974413
27.53645897 12.46298313 2.729177237
27.32882309 12.37837696 3.782631397
28.86235046 13.14090252 5.087051392
29.76404953 13.60419273 6.40514946
42.20814896 19.6954422 10.45301151
46.93140411 22.03042221 13.45230007
45.24510193 20.80081367 0.4676353037
64.22618103 29.94303894 2.820812702
27.87948036 12.50968838 2.752609015
26.58745384 11.90390587 3.698927164
28.88034248 13.02565098 5.085167885
30.06775665 13.62313271 6.455726147
42.10234451 19.46313858 10.41653061
45.40366364 20.6823082 0.4711974859
28.10065079 12.49573708 2.767472029
26.54183578 11.76832199 3.691532135
28.98729706 12.95319748 5.096580982
30.11050415 13.51497173 6.457134247
42.28158188 19.36902428 10.44539165
43.52474594 19.60322571 0.4887754321
28.23723602 12.44032669 2.776402473
26.77626038 11.76599216 3.714811802
27.33315659 12.04597473 4.84651804
30.06023216 13.36272907 6.441128731
42.39345169 19.24194336 10.45894814
46.43395996 20.7761364 0.4735817015
27.24944687 11.85767078 2.70619607
26.91007614 11.71485519 3.727111578
27.35618019 11.94059658 4.845831394
30.07886696 13.24372387 6.438188553
46.96720123 21.21570778 11.48927307
46.58920288 20.65095711 0.4773224592
58.33670425 26.12001038 2.643599749
28.03951645 12.10873413 2.761205673
27.12147141 11.6989994 3.747908354
27.38059807 11.83605099 4.845416069
29.4894104 12.84157467 6.321232319
58.68841553 26.034832 2.65719533
27.19594383 11.60234737 2.701263666
26.9498024 11.50538063 3.726941824
27.41362572 11.73562527 4.846338749
30.25792885 13.07198429 6.459159374
45.50018692 20.14012337 11.13016987
42.57216644 18.43309402 0.5128186941
34.13425827 14.62112045 1.876409054
27.35724831 11.56126022 2.712078571
27.14107704 11.47914028 3.745610952
27.59051514 11.70102024 4.868601799
29.76801682 12.720438 6.361244678
45.45465469 19.92782402 11.10768127
43.70085907 18.76208496 0.5100147128
27.75872993 11.62757397 2.739812374
27.2381916 11.40907955 3.754045486
27.69707298 11.6334486 4.880491257
30.16490364 12.77548409 6.429485798
45.52947998 19.77113533 11.11268902
43.82950974 18.63635635 0.5136886239
27.6307869 11.45415115 2.730341196
27.10445404 11.23520565 3.737392426
27.71814156 11.53281879 4.879989624
29.68846703 12.43528652 6.334497452
45.53236389 19.59158325 11.10212517
43.95442963 18.51763725 0.517183125
27.67868614 11.36580658 2.733290195
27.14239883 11.14461517 3.739582777
27.6211338 11.37982845 4.862127304
29.72472191 12.33382511 6.335767269
45.68123627 19.47764397 11.124753
44.08636093 18.40153313 0.520655632
95.69832611 41.07754898 3.855988741
27.78842545 11.30458641 2.740613937
27.11082268 11.02344322 3.734257221
27.69390678 11.30276394 4.869376183
29.81834984 12.25772572 6.347806931
45.70803833 19.30910683 11.11987209
44.23084259 18.29034042 0.5240758061
33.82536697 13.8230896 3.164461613
26.99299431 10.86524582 3.719611883
27.65204048 11.17537308 4.859786987
29.98945999 12.21513557 6.374331951
44.7081337 18.69093704 10.88329411
44.37622833 18.160532 0.5279691815
34.09509277 13.79238701 3.182969093
27.10136032 10.79479408 3.729395151
27.60308456 11.0284481 4.848703861
30.48351479 12.2989254 6.460422993
31.63275719 12.81698227 7.922189236
44.48664856 18.02438927 0.5318633914
96.59832764 40.2531929 3.898065805
34.12017822 13.66248226 3.18434906
27.28807259 10.76287651 3.747807026
27.73336792 10.97046375 4.864404678
29.64822197 11.81503963 6.299565792
44.63537979 17.90399551 0.5355613232
34.11353683 13.51935387 3.183540106
27.17983437 10.6048708 3.734266996
27.81249237 10.89003944 4.872627735
29.70087814 11.71559525 6.30402422
46.31241226 18.80251503 11.21098995
44.76534653 17.77511787 0.5393897891
43.34005737 17.20679474 2.187161207
26.72390556 10.28585339 2.664297819
27.17543793 10.49163437 3.732041836
27.96447945 10.83990955 4.891592503
30.67991066 12.00584316 6.480450153
46.22451401 18.57584763 11.18042946
43.87831879 17.22552872 0.5487777591
43.25318909 16.99364471 2.186393499
27.19398689 10.37146854 2.697101116
27.10993195 10.35338497 3.723248482
27.47595024 10.52252769 4.816663265
29.99077988 11.59342098 6.347378731
46.58021545 18.535532 11.24971485
45.085289 17.54028893 0.5467976332
26.79721069 10.09775162 2.669065952
27.33461189 10.33527088 3.745917559
27.46937561 10.40790462 4.812533379
30.32332993 11.60846996 6.403862953
45.23464966 17.41742134 0.5506014228
26.72612762 9.959943771 2.663932323
27.32355881 10.21969318 3.743109465
27.45490265 10.29600048 4.807466984
30.17090797 11.42305183 6.370584965
45.3768158 17.30014038 0.5542400479
26.79327774 9.878624916 2.668534756
27.76600075 10.29290295 3.789457083
27.5411396 10.21959782 4.817047596
30.22379875 11.32838345 6.37565279
45.51070023 17.1697731 0.5581761003
27.14383507 9.915446281 2.693065882
27.63267136 10.12748623 3.773508072
27.77991676 10.2037878 4.848975658
28.49633408 10.50851536 6.051434994
48.74370575 18.65774727 11.69320679
49.69795227 18.62199783 0.5423682332
27.31673622 9.868721962 2.705148935
27.57444572 9.987566948 3.765660524
28.44466972 10.3492384 4.943001747
31.09748077 11.41857529 6.526751518
49.81762695 18.4586525 0.5470876098
26.89839745 9.590259552 2.675763369
27.4173336 9.809854507 3.747197866
26.9756012 9.654374123 4.72546196
30.15419769 10.92377758 6.347985268
49.90729141 18.29335403 0.5517182946
27.17852402 9.590593338 2.695439816
27.48576546 9.726449013 3.753207445
26.99704552 9.554636002 4.725867748
30.16893578 10.80873299 6.346108913
31.93224525 11.51428318 7.911357403
50.13847351 18.1817112 0.5557111502
31.61249161 11.15628147 1.822478652
27.56524086 9.629688263 2.722630262
27.59854889 9.659765244 3.764040709
26.98118019 9.44609642 4.721024036
44.44870377 16.17420006 8.970459938
31.51814842 10.97499561 0.644865036
31.52500343 11.00344753 1.821173429
27.51579285 9.506577492 2.719230175
27.72613144 9.603610039 3.776569605
27.86341476 9.678982735 4.847085953
31.2765522 10.99539852 6.541158199
48.43109512 17.56264305 11.57378387
31.49177551 10.84599113 0.6480166316
31.53813362 10.88296032 1.823261499
27.89568901 9.544873238 2.745999575
27.19036102 9.297924995 3.717647791
28.16498375 9.681545258 4.88836813
30.46670914 10.57232094 6.388020515
49.93029785 17.93586159 11.89799786
31.55322647 10.74365807 0.6509410739
43.7233963 15.26276016 2.225728273
27.88114166 9.423299789 2.745121717
27.13778114 9.17056942 3.710803032
28.19199562 9.579937935 4.889708519
30.3490448 10.40171814 6.36190176
32.11188126 11.07969666 7.926663876
50.6823616 17.59316826 0.5734806657
47.40277481 16.43541718 2.34929204
27.64881897 9.227864265 2.728977919
27.17602348 9.071905136 3.713732958
27.9489727 9.379056931 4.85184145
30.75754929 10.43231392 6.432692528
50.86206818 17.87483788 12.08568192
50.7208252 17.41694069 0.5781961679
81.59600067 28.61938477 3.480215549
32.77961731 10.97829533 3.089475155
27.26473427 9.002267838 3.722249031
28.60618019 9.507975578 4.944910049
29.22973824 9.75980854 6.148531437
31.77919006 10.71097183 7.841233253
50.75430679 17.22911835 0.5831946135
28.23324966 9.22497654 2.770438194
27.25011253 8.889702797 3.719630241
28.64754486 9.415958405 4.948603153
31.91914558 10.61523533 6.637560844
56.92609406 19.67650795 13.41253471
50.8594017 17.07678223 0.5876607299
44.80063629 14.96323681 2.270796299
28.208004 9.105151176 2.768928051
27.50895691 8.88011837 3.746521473
28.50930595 9.25428009 4.926158428
29.18536186 9.520033836 6.132935047
31.63841629 10.41724873 7.798985004
50.98225021 16.92036247 0.5923349261
28.27281761 9.022910118 2.773760557
27.83166122 8.885872841 3.780255795
28.35347939 9.087749481 4.901247978
29.22095299 9.418369293 6.135746002
32.21218491 10.49647045 7.920553684
51.0403595 16.74106407 0.5972750783
44.81546783 14.61766911 2.276311874
28.17508507 8.878489494 2.767218113
27.8390007 8.779678345 3.780114412
28.42325783 9.001329422 4.909139156
30.71862984 9.827364922 6.406045437
54.6398201 18.21935272 12.87756538
51.18110275 16.5900631 0.6019254327
28.12387657 8.751067162 2.763973951
27.82335854 8.665785789 3.777549028
28.35227203 8.866119385 4.896682262
30.69937515 9.701045036 6.398799419
51.37447357 16.45619392 0.6064186096
61.20041275 19.81502724 2.827591896
28.04756165 8.61577034 2.758994341
27.90709877 8.58607769 3.785707474
31.25355148 9.744215012 5.314847946
30.14247894 9.391573906 6.293438435
55.25823975 18.00592613 12.99617386
51.44152451 16.2691555 0.6116421223
61.31545639 19.60411453 2.835157871
28.04984093 8.502267838 2.759590149
28.88250542 8.800076485 3.889634609
31.3068428 9.634894371 5.320206165
30.23723793 9.300843239 6.307073116
55.6484108 17.91297531 13.07303524
51.45176315 16.07327652 0.616808176
44.53232956 13.81879234 2.27731061
28.98013878 8.701978683 2.825453758
28.84596825 8.676170349 3.884938717
30.85408592 9.363180161 5.252508163
30.18417168 9.166208267 6.293979645
55.39299774 17.61250877 13.00798416
51.55632019 15.90855885 0.6216716766
46.88053513 14.41391468 2.358631611
28.98669243 8.592208862 2.826406479
28.98851585 8.611577034 3.899516106
29.44178772 8.779670715 5.046148777
30.65459061 9.204831123 6.376419544
55.27746964 17.36066246 12.97403049
51.96874619 15.84265518 0.6255968809
44.79151535 13.55882931 2.291293383
29.70289421 8.712328911 2.877317905
28.53856468 8.354001999 3.850543261
28.68349266 8.41985321 4.934595108
30.85954285 9.153625488 6.410471916
52.03067398 15.66246986 0.6306616664
45.38367462 13.58418655 2.313764095
29.13541412 8.416622162 2.837950945
28.55898094 8.250854492 3.852109432
28.81566238 8.357618332 4.951974869
30.79252625 9.013501167 6.395036697
55.05436707 16.86367989 12.90852261
52.10437775 15.49594402 0.6354413629
45.61106873 13.48173046 2.324176311
29.09901619 8.293376923 2.835977316
28.89420891 8.253014565 3.887522936
28.92852592 8.282999992 4.966520309
30.92603302 8.94387722 6.416349411
55.22356033 16.71728325 12.93824863
52.32935333 15.36629677 0.6400731206
45.50812531 13.27502728 2.323490858
29.08150101 8.182079315 2.83533144
29.29018593 8.26639843 3.929456472
29.62915611 8.392100334 5.065985203
31.13815117 8.892326355 6.451858997
55.53725433 16.60502052 12.99947834
52.5005188 15.2188406 0.6448968649
45.95070648 13.23735332 2.341262341
29.07656288 8.069462776 2.835632086
29.68089867 8.275369644 3.970857382
30.32897377 8.495857239 5.165316582
31.13763046 8.773340225 6.448751926
52.73253632 15.0889864 0.6495955586
45.93647003 13.057827 2.343639612
36.56327438 10.24010277 3.363818407
29.91598701 8.234063148 3.99560523
28.87392235 7.934999943 4.953714848
30.14580917 8.350346565 6.265590668
55.43834686 16.15130424 12.96271324
53.04858398 14.98295307 0.6541300416
38.24401093 10.57464695 2.085467339
47.1760788 13.29476929 4.112739563
28.93777466 7.825304508 3.890303612
29.51478386 8.018945694 5.044632435
32.18748093 8.854671478 6.633653641
53.04999161 14.78191662 0.6594887972
38.43502808 10.49332905 2.094260216
29.44745064 7.847903252 2.863912344
29.08020782 7.757913589 3.905214787
29.51525879 7.912753582 5.0432868
30.52366447 8.234579086 6.328751564
55.68828583 15.80553913 13.00323105
53.38198471 14.68784618 0.6638146043
38.60869598 10.39853954 2.102627516
29.45842361 7.739574909 2.865467548
28.90802002 7.602637768 3.886457205
29.54346657 7.80933094 5.04592371
30.86497116 8.225766182 6.388182163
31.74511337 8.508050919 7.747371674
53.48603058 14.51590061 0.6689819694
38.97803879 10.35926533 2.11771512
29.24136353 7.57088089 2.850922585
29.08045769 7.54349184 3.904671192
30.10391998 7.860852718 5.125311852
30.27940941 7.938254833 6.279396057
31.73941612 8.386517525 7.742272854
53.87422943 14.42441463 0.6735699177
38.75359344 10.14816475 2.112570047
29.31033516 7.474767685 2.856669664
29.09601212 7.438265324 3.906113625
30.12240219 7.752671719 5.126643181
30.50218773 7.882558346 6.317207813
56.3524704 15.36658096 13.12844849
54.04941177 14.26046467 0.6789393425
38.20674896 9.841166496 2.096497536
28.40580177 7.109302044 2.793660164
29.53952408 7.448661804 3.953458309
30.16674614 7.646224499 5.131698132
31.44363785 8.03544426 6.485416889
54.22148514 14.10491943 0.6840783358
38.21495819 9.69983387 2.099299669
28.3968277 7.000089645 2.793898582
29.44932365 7.312534809 3.94365716
30.06616783 7.504833221 5.116013527
31.00352669 7.793949604 6.403318405
32.33337784 8.189509392 7.861088276
54.42401886 13.95673561 0.6891998649
37.9700737 9.489472389 2.093419075
35.09321594 8.731898308 3.268128157
29.88408852 7.321778297 3.990161657
30.06046677 7.390571117 5.114053726
31.3235836 7.766363621 6.458999157
32.41126251 8.090003014 7.874607086
54.63389969 13.8093996 0.6943513155
40.38157272 9.998238564 2.17905879
28.73973274 6.880136013 2.819981575
28.75453758 6.903334618 3.869070768
29.98742485 7.258258343 5.102467537
31.37011909 7.661919117 6.465211391
32.58888626 8.017459869 7.910007954
50.05340195 12.38889694 0.7072373629
38.03557587 9.222830772 2.100791216
28.95540619 6.830361843 2.836213112
28.79855156 6.807715893 3.873790503
30.68296051 7.332979679 5.201511383
31.21274376 7.502441883 6.434607029
31.88218498 7.705082893 7.752291203
54.96741104 13.4886179 0.7049158216
38.3025322 9.151029587 2.112616062
29.09968376 6.760364532 2.84743619
29.8693676 6.98304224 3.988593578
29.20007706 6.826163292 4.987264156
31.22411537 7.389178753 6.434620857
55.23805618 13.35374928 0.7101054192
39.27206421 9.266590118 2.148715734
32.50193024 7.535249233 3.089433432
30.23517609 6.96710968 4.027892113
30.68366051 7.110382557 5.199772358
32.20705414 7.530419827 6.610365868
56.06097031 13.81530476 13.02320099
55.48657227 13.22191525 0.7150994539
39.89593887 9.279827118 2.173096657
29.73962593 6.70766592 2.894902229
29.12392616 6.575109959 3.908929586
29.29711151 6.639513493 4.999580383
32.0282135 7.370631695 6.576194763
35.08867645 8.185875893 8.442777634
55.63251495 13.05256557 0.7205504179
39.89830017 9.139799118 2.17581892
32.52713013 7.306312084 3.093592882
29.3384819 6.521409988 3.932105541
29.32918739 6.544488907 5.003473759
33.10626602 7.52640295 6.769118309
56.06236267 13.41032982 13.01347542
55.80272293 12.89882088 0.7257233262
42.32701492 9.594295502 2.263293743
29.39330673 6.406634808 2.872567654
29.55753517 6.472898483 3.955798864
29.33146477 6.436512947 5.003103256
33.36266708 7.474430561 6.813687325
34.17983627 7.418429852 0.7533416748
34.38406372 7.491108418 1.98892343
29.29242516 6.273278713 2.86658287
28.9059124 6.198144913 3.886231661
29.3788166 6.334411621 5.00923872
33.0080452 7.257385731 6.747797966
34.15225983 7.285604477 0.7568371296
34.10982513 7.298253536 1.981773496
29.41331482 6.188934803 2.876430273
29.45026398 6.223219872 3.944900513
29.67098045 6.296965599 5.050638676
33.17866898 7.171123505 6.776854992
33.0013237 7.151437759 7.975934505
34.1859169 7.161369801 0.7604528666
34.17700195 7.188452721 1.986579776
29.51723862 6.105247974 2.885053158
29.45257759 6.109901428 3.945528507
29.13097763 6.058692455 4.972538471
33.21745682 7.058337688 6.782271862
57.77549362 12.98460293 13.36772346
34.22803879 7.051652431 0.7637240887
34.30221558 7.091907978 1.993454218
29.67144775 6.032727242 2.897289991
29.22356606 5.953301907 3.921356916
29.50167847 6.03883028 5.025331974
33.15292358 6.927139759 6.769199848
34.32186508 6.947341919 0.767148912
34.77785492 7.075006962 2.012710094
29.95458984 5.994420528 2.918677092
29.29541588 5.862613201 3.929508924
29.24158669 5.870359421 4.987571716
31.84975052 6.502542973 6.532709122
57.17615509 12.4313879 13.22900963
39.87876511 8.071915627 0.7678947449
38.82966232 7.861989021 2.158293009
37.8687706 7.677674294 3.48342824
29.92173767 5.89757061 3.997183084
29.32250786 5.781667233 4.99885273
31.74610329 6.362164497 6.512731075
33.26622391 6.733821869 8.023955345
57.11531448 11.74145317 0.7651923895
50.00949478 10.20222759 2.55664134
30.5253582 5.902184486 2.962068081
30.02062798 5.810216427 4.008338928
29.36257553 5.683403015 5.004323483
31.83019066 6.265030384 6.526689053
32.89491653 6.528335094 7.941005707
40.39575195 7.892578125 0.7758662105
39.01453781 7.618247986 2.17061162
29.44170189 5.553041935 2.886262178
29.20232582 5.520558834 3.921125889
29.33848763 5.570844173 5.000638485
31.98321533 6.182700634 6.553146839
33.95116425 6.643009186 8.168548584
40.4203186 7.750348091 0.7799785733
38.81131744 7.432211876 2.166320324
29.64324188 5.489064217 2.90205574
28.85482407 5.338879585 3.884451151
29.37784958 5.472390652 5.006123066
31.81657219 6.029803276 6.522057056
57.75728607 11.25089836 0.782600522
34.51793671 6.384451389 2.016412497
29.61828613 5.375757217 2.901731968
28.94028473 5.251943588 3.894282103
30.32144356 5.566732883 5.141505241
31.56066895 5.859155178 6.474970341
34.31502533 6.473945618 8.243610382
57.79149628 11.04771996 0.7884951234
34.63178635 6.28875494 2.022969484
29.7393837 5.293230534 2.911868095
28.96123695 5.15105772 3.897233486
31.66031265 5.743013382 5.333700657
31.81857109 5.798742771 6.520553112
34.3282547 6.35204649 8.244613647
58.01109695 10.89276314 0.7941270471
39.1844368 7.091644287 2.188372374
29.80358696 5.198319912 2.917979956
29.22239685 5.10483551 3.925987959
31.75844574 5.648293018 5.34779501
31.89014626 5.703875065 6.532670498
34.29769516 6.227372646 8.236292839
58.27939987 10.73572445 0.80011338
34.41038895 5.992847443 2.020364761
29.85862541 5.106665611 2.923394442
29.78093529 5.111626625 3.986781597
32.30467987 5.643838406 5.42629528
31.67884064 5.545271873 6.49386549
34.3330307 6.11032629 8.242293358
58.48449707 10.56469917 0.8061373234
34.21641159 5.829968452 2.016074896
29.98979378 5.018985748 2.934452057
30.09988594 5.067007065 4.021905899
32.97556686 5.660378933 5.522759914
31.40415001 5.370026112 6.44369936
34.56093979 6.025566578 8.290117264
58.81678772 10.40622997 0.8125644922
34.40047836 5.741692066 2.025375605
30.85615921 5.078393459 2.998145103
30.32812119 4.997102261 4.047390461
32.77615738 5.502181053 5.494321823
31.74990845 5.324317455 6.505391121
34.44972229 5.878811836 8.264498711
34.29173279 5.596743584 2.02416563
30.37680817 4.875758648 2.965481997
30.04045296 4.838062286 4.017373085
36.31814575 6.063146591 6.003245354
32.32479477 5.326200962 6.608430862
62.97925949 11.27846909 14.45410156
59.47444534 10.11368465 0.8247263432
34.22955704 5.461434841 2.024639368
30.44655228 4.784647465 2.972108841
29.64745712 4.656046391 3.976100683
31.33598709 4.994656086 5.288066864
32.19667816 5.185456753 6.584922791
42.38468552 6.795516968 0.8184066415
34.83148193 5.447766304 2.049175739
30.40317154 4.666970253 2.97073555
30.17295074 4.645854473 4.033658028
32.02384949 5.008774757 5.387234688
32.224823 5.07476759 6.589630127
59.87527466 10.24688244 13.77626133
42.3620491 6.638870716 0.8227387667
34.89459991 5.333634853 2.054269314
30.33773804 4.545800209 2.967803001
29.94514465 4.496218204 4.010228157
32.02038193 4.892959118 5.387177467
32.17509079 4.94984436 6.580392838
68.87818909 11.11123943 0.8518121839
34.74275208 5.181581497 2.051571131
31.47822189 4.637450218 3.051627159
29.85376167 4.372472286 4.001512051
32.02625275 4.778967381 5.388521671
32.40405655 4.875125885 6.621408939
42.76454163 6.403058052 0.8318656683
42.89625549 6.462919712 2.351525068
31.52659607 4.532779217 3.057005405
30.71429253 4.414264202 4.095349312
30.91676903 4.476787567 5.229647636
32.55140305 4.784632206 6.647806644
67.25205994 10.35674477 0.8637903333
40.2132988 5.858031273 2.257008791
31.28348732 4.378677368 3.041420937
31.53335953 4.448649406 4.184767246
30.89386177 4.362092972 5.226955891
32.61992645 4.685589314 6.660090923
66.48564911 9.990116119 0.8697729707
41.01629257 5.853385925 2.289569378
30.83411217 4.197890282 3.010868788
31.58088684 4.343635559 4.191207409
32.18022537 4.471837044 5.412454605
32.63079834 4.570689678 6.662070751
65.70778656 9.639201164 0.8752487302
40.68228531 5.652773857 2.280720472
31.88733673 4.25800705 3.088825703
31.70767212 4.256944656 4.206172943
32.5793457 4.422002316 5.470570087
33.05619812 4.52977562 6.738749504
65.00695801 9.282675743 0.8813598156
45.77211761 6.301020622 2.471550703
30.909832 3.989364147 3.020266056
31.51973152 4.108114243 4.187389374
32.01929855 4.210397243 5.390913486
32.4413681 4.307116985 6.628244877
64.24734497 8.934139252 0.8869036436
42.54716873 5.641590595 2.35649085
30.68873024 3.839348555 3.006397486
31.45606995 3.985742807 4.181975365
31.39864159 3.999275684 5.302535057
33.22600555 4.308694363 6.769783974
63.54709244 8.58884716 0.8927232027
41.57341766 5.34351778 2.324111462
30.6614418 3.725785971 3.006456852
32.29525375 3.995261431 4.274147511
31.68713379 3.931408882 5.344937801
32.90855789 4.141684055 6.712967873
62.88552856 8.277066231 0.8978153467
45.03959274 5.703769207 2.456062317
30.99292946 3.66540432 3.032530308
32.14569855 3.863838911 4.259501934
31.90698242 3.851347923 5.377543926
33.27108765 4.084769726 6.778642178
62.27563095 7.966254234 0.9032023549
42.11818314 5.125350475 2.351460457
31.06690025 3.571265936 3.039902687
32.02988052 3.732710838 4.248611927
31.94833565 3.743897676 5.384541988
58.49589157 7.657558918 11.32168579
61.69998932 7.664821625 0.9085349441
42.01605606 4.96130085 2.351303339
31.05045509 3.458527327 3.040860176
31.97852898 3.611619949 4.244726181
33.38118744 3.833658218 5.591870785
58.43067932 7.440475941 11.31095314
63.03756714 7.626478195 0.9177056551
41.99053192 4.808560371 2.354008913
30.44859505 3.265850067 2.99932313
32.04294586 3.506949186 4.25340414
33.51073837 3.733088732 5.611744404
32.18061829 3.578431845 6.583955288
41.88916779 4.646077633 2.353898048
30.96763039 3.221525192 3.039342403
31.79758644 3.360388517 4.228611469
33.52420425 3.616101027 5.614975929
58.87277985 7.075610638 11.39309788
62.93821716 7.155121803 0.9309269786
42.37788391 4.560532093 2.375908852
30.87277412 3.099442244 3.034677505
31.54440498 3.209080219 4.203082085
33.58438492 3.505225658 5.625000477
58.69218445 6.843274117 11.36200237
63.1630249 6.97121048 0.9376944304
43.05395508 4.502767563 2.404876947
31.59810448 3.087122202 3.089670658
32.17693329 3.183275938 4.273338318
34.91411209 3.562313557 5.817934513
58.61097336 6.635530472 11.3488636
63.2880249 6.773918152 0.9442645311
42.72717667 4.310473442 2.396416903
32.08410263 3.040616751 3.127341032
32.18006516 3.075529099 4.275488377
34.67939758 3.409665585 5.7856493
63.11977768 7.003398418 12.16305828
44.69707108 4.360937595 0.9029144645
44.35254288 4.351887226 2.461602211
32.40441513 2.965401888 3.153137445
32.1716423 2.960775852 4.276526451
35.70199585 3.410642862 5.934673309
63.30207062 6.802608013 12.19789314
44.9774437 4.234920979 0.9083431959
53.91680145 5.294275284 2.827462435
32.26684952 2.834973097 3.145555735
34.52505493 3.121398449 4.533892155
35.41540909 3.251012802 5.895054817
64.07805634 6.670909882 12.3399229
44.69889069 4.045210361 0.9122769237
52.90896225 4.991594791 2.794147015
32.38845825 2.734723568 3.156944036
34.6451683 3.013123274 4.549127579
35.94449234 3.186243773 5.973149776
64.37664032 6.479151249 12.39607048
63.65537262 5.918570518 0.9718278646
57.89262772 5.342487335 2.988449574
32.46018219 2.628263474 3.164731264
33.90312576 2.809740067 4.470765591
35.85170364 3.049304247 5.961619854
63.93057632 5.711299896 0.9796729088
32.20451736 2.452430725 2.015005589
32.32383347 2.493809223 3.157437086
33.70844269 2.663689375 4.451969624
37.13309479 3.05320549 6.148639679
64.06181335 5.487811089 0.9871401191
32.15623093 2.334125996 2.01614666
32.34967041 2.376893759 3.162060976
33.37468719 2.505008936 4.41807127
37.15986633 2.92525816 6.15457201
62.00510406 5.53044939 11.97627735
64.46085358 5.311941147 0.9948308468
32.089077 2.220024109 2.016425133
32.51496124 2.284918547 3.176706553
33.4744606 2.403313637 4.431133747
37.09889603 2.795025587 6.147792339
62.07583237 5.330458641 11.99172592
64.45718384 5.09603405 1.001275539
42.92420959 3.123154879 2.435377359
32.55686569 2.1802423 3.1823318
33.76195908 2.318916559 4.464699268
61.72682953 5.032329082 9.709794044
64.62212372 4.872688293 1.008986831
32.53984451 2.058522463 3.183928251
34.30770874 2.244410515 4.526742935
68.00363159 5.3849473 10.62143898
60.72473526 4.757565022 11.75397205
64.74245453 4.644490719 1.016586185
43.51166534 2.857069254 2.466586828
33.19003296 1.995265484 3.234751463
33.7897377 2.072328806 4.472909927
61.65222168 4.570509911 9.707073212
60.97816086 4.567228317 11.80294609
64.93280029 4.432696819 1.024134398
59.35026932 4.016958237 3.08343029
36.89470291 2.189142704 3.511055231
34.69897461 2.030584335 4.574689388
61.77054214 4.364332676 9.728218079
64.25498199 4.635784626 12.39841652
65.01080322 4.210830212 1.031312823
36.86321259 2.057156324 3.511918306
34.77991867 1.915449023 4.586194515
61.6277504 4.136105537 9.711683273
65.34732056 4.007965088 1.039514422
62.06092453 3.806093216 3.200268984
36.87301254 1.92863214 3.515868902
62.02572632 3.905136824 7.56678009
61.60647583 3.918507338 9.712851524
65.17246246 4.258151531 12.57182121
65.49087524 3.800550699 1.046684027
36.8540535 1.804474592 3.517564535
61.3902626 3.651569605 7.501971245
62.35940933 3.769927263 9.826130867
65.19975281 4.043474674 12.58058834
65.64253998 3.58133626 1.054274678
51.15689468 2.675643206 4.581624985
61.29397583 3.429771185 7.496408939
63.39705658 3.625728607 9.981137276
66.38137817 3.900798798 12.79857445
65.92119598 3.369365454 1.062438846
62.57922363 3.209480047 3.238199711
43.80908966 2.008370161 4.040644169
61.42302704 3.223915577 7.515602112
63.31596375 3.409493446 9.97385788
72.89564514 4.117175102 13.98210716
66.00682831 3.155272007 1.069495082
50.21036148 2.221033335 2.758814096
51.38282013 2.331694841 4.607734203
61.36423111 3.01602602 7.514055252
35.17262268 1.136858582 0.9415739179
50.56388474 2.066053629 2.777736664
51.44461823 2.164620876 4.61685133
61.57126617 2.813908577 7.542005539
35.07166672 1.00826323 0.9448904395
35.0753479 1.034197211 2.171644688
35.04217529 1.058176279 3.399387836
35.05310822 1.090976119 4.635991096
35.032547 1.116127372 5.878555298
35.01898193 1.142095327 7.133699894
34.98767471 1.16748631 8.400098801
66.6893158 2.485455275 1.094205976
50.46760559 1.698552132 2.784360886
61.73371124 2.381409883 7.570910454
64.78549957 2.59251976 10.20786095
66.87252045 2.26089859 1.102238417
50.47415924 1.522464395 2.789746523
62.01805115 2.179918289 7.60772419
64.76463318 2.365242243 10.21026897
67.09889221 2.037060022 1.110529184
50.60786438 1.352028728 2.800221682
62.22229767 1.97278285 7.635864735
64.81215668 2.141428471 10.22275352
67.42843628 1.815837026 1.119389415
50.60121918 1.174976707 2.8051579
49.39622498 1.170809746 4.488234997
63.28386688 1.800936818 7.758572578
65.5470047 1.947231174 10.33548546
67.66131592 1.588819861 1.127846956
50.57798386 0.9973739386 2.809461117
49.29512787 0.9944624305 4.4855299
63.14912033 1.574792027 7.749679565
66.13689423 1.742177606 10.42734528
67.99736786 1.363705635 1.136896491
50.7598381 0.8269887567 2.822009802
49.40866852 0.8263967037 4.498977661
63.43077087 1.364555001 7.786799908
70.65398407 1.67635107 11.09220505
68.36466217 1.137199879 1.146196365
50.82300186 0.660616219 2.829591751
50.26317215 0.6808915138 4.56823349
49.56503677 0.6962230802 6.261615276
66.19084167 1.294217229 10.44715214
68.62290955 0.9173155427 1.154631257
51.81674576 0.5103194714 2.874970675
65.5773468 0.9952718019 8.03617382
68.87672424 0.6836372018 1.163482189
50.48259735 0.2977954745 2.826568842
48.74875259 0.3016249835 4.464054585
76.07933807 1.033835769 9.204619408
74.54696655 1.051828742 11.6809597
69.21772766 0.4498963058 1.172888041
50.90981674 0.1303746849 2.849241972
48.51099396 0.1265655756 4.451165676
77.86936188 0.8079822659 9.410561562
73.78844452 0.7748032212 11.57743549
69.59793091 0.2145032138 1.182602525
50.45932007 -0.05478730425 2.836401701
49.92762375 -0.01750301756 4.563391685
74.97979736 0.5406520367 11.75921917
70.02131653 -0.02303991839 1.192665935
50.92731476 -0.22454454 2.860888004
49.99778748 -0.1905419677 4.573997974
71.22705078 0.1656191349 8.689791679
73.79597473 0.2607700825 11.5935936
70.28788757 -0.2649376988 1.201912045
71.74624634 -0.07663840055 8.7549963
70.66563416 -0.5080268383 1.211897373
49.79131699 -0.5869660378 2.825460434
50.07249069 -0.5385907292 4.59043169
50.45695496 -0.7967267036 1.096109748
50.11161804 -0.759675324 2.844060898
48.82863617 -0.717836678 4.501296997
72.15399933 -0.5747866631 8.815888405
50.24097824 -0.9724297523 1.100326538
51.69424438 -0.9354310632 2.914705515
47.89525604 -0.8966425061 4.435853958
71.28717804 -0.8270895481 8.727311134
47.95440674 -1.06380415 4.445701122
50.30311584 -1.332264185 1.112113476
51.65023804 -1.304637194 2.924669266
48.06673813 -1.24010253 4.459946156
72.80931854 -1.766070247 1.264973164
51.4505806 -1.473553181 2.921890974
51.51282501 -1.425950646 4.728493214
71.89358521 -1.578004479 8.819310188
73.0337677 -2.023576021 1.27455914
50.47298431 -1.638717294 2.887031078
48.30792999 -1.561780214 4.488842487
72.0171051 -1.830121636 8.841490746
49.72463989 -1.801250815 2.861545086
73.95980072 -2.553994894 1.297216415
49.4452858 -1.968654633 2.855534077
48.88349152 -1.910543561 4.544296741
71.01351929 -2.312183142 8.746108055
73.87355804 -2.809942722 1.304880142
51.33677292 -2.188589096 2.940532923
48.91913223 -2.081902266 4.552797318
73.76245117 -3.064533234 1.312362552
49.05467987 -2.302593946 2.850489616
48.8385582 -2.250285864 4.552399635
70.92470551 -2.80501318 8.753416061
73.97026825 -3.328936338 1.322144389
48.931427 -2.469854593 2.850986242
48.73149109 -2.417362928 4.549992085
74.16914368 -3.594489098 1.331923842
48.93941116 -2.64097929 2.857036591
49.50039673 -2.622665167 4.6156497
72.71549988 -3.36031127 8.972685814
74.33457947 -3.873187542 1.341937304
48.78506088 -2.805845022 2.856237411
48.89590073 -2.772319078 4.574875832
72.85600281 -3.631959438 8.99821949
74.54006958 -4.128876209 1.351470351
48.85974503 -2.979440689 2.865174294
48.7352562 -2.936326027 4.568441391
74.75602722 -4.399520874 1.361567259
49.91987228 -3.198928118 2.916180134
48.89715958 -3.105336666 4.586779594
80.62485504 -4.471857548 9.894076347
49.25073242 -3.340270758 2.893529892
50.05187607 -3.332247734 4.682777405
48.91292191 -3.486027718 2.884666443
49.80968857 -3.494557381 4.670232773
80.14743042 -5.010601521 9.861371994
49.04701996 -3.664674044 2.896339178
50.0885849 -3.684182644 4.698367119
79.87841797 -5.262025833 9.841134071
50.81003571 -3.941731215 2.978308439
51.06352234 -4.144622803 2.995788813
54.33322525 -4.542500973 3.143858433
53.82960892 -4.697380543 3.128670692
75.33929443 -6.154648781 6.709684849
85.04117584 -6.680391312 13.49983597
53.44116592 -4.857320786 3.11841774
80.29553986 -6.703618526 9.944900513
80.59282684 -7.007537842 9.990413666
49.12988663 -4.882985592 2.942698717
80.52642822 -7.284865856 9.994562149
49.02387619 -5.046522141 2.944244623
54.8351593 -5.494304657 5.127571583
80.88685608 -7.597177982 10.04767609
49.00413513 -5.225645542 2.949917793
55.09828186 -6.000719547 1.293365359
48.90096664 -5.388453007 2.951618433
54.64903641 -5.872253418 5.128359318
80.70814514 -8.163342476 10.0519743
52.99106598 -5.940783501 3.139089823
54.6962471 -6.04968214 5.139014721
80.68267059 -8.430425644 10.06070137
56.06684875 -6.430631161 3.282827616
54.3441124 -6.207712173 5.11868
80.91990662 -8.737171173 10.10039616
54.9198761 -6.457306862 5.172394276
81.31809998 -9.061892509 10.15884113
54.68949127 -6.626710892 5.161858559
81.38691711 -9.355455399 10.17953587
55.30992508 -6.940881252 3.270835161
54.09698105 -6.99944973 3.2235322
53.5789566 -7.130381584 3.207331181
80.62956238 -10.19557858 7.271963596
81.74885559 -10.25805187 10.26055241
55.1238327 -7.504879475 3.284472227
81.7225647 -10.54373074 10.27085209
82.26709747 -10.96609497 7.428176403
82.95039368 -10.91332722 13.39391041
90.24182129 -12.35042953 4.899507523
81.48165894 -11.09174824 10.26991272
90.00274658 -12.63921165 4.900856495
81.2790451 -11.35430908 10.26000977
88.12638855 -12.77876282 1.721500039
82.5503006 -11.87828445 7.488687515
81.14846802 -11.62518024 10.25857925
86.31907654 -12.23665333 13.95368767
88.08431244 -13.08611965 1.73168695
85.89736176 -12.48595333 13.90559196
87.30574036 -13.21778107 4.813626289
81.84681702 -12.58956623 10.38262653
103.5050125 -16.71246338 1.947917223
86.13218689 -13.83024597 10.91634941
85.40422058 -14.3152504 10.86087322
86.49787903 -15.41557407 11.03791904
83.05516052 -16.20157242 4.761277199
81.11869812 -15.76210213 7.557799339
82.82413483 -16.45782852 4.762555599
82.86981964 -16.7508812 4.776536942
82.90247345 -16.61680412 10.70868206
94.1268692 -19.32345772 1.982701063
94.06189728 -19.65169907 1.993806124
82.02348328 -17.18288422 4.760567188
81.61115265 -17.01721382 7.655039787
81.78559113 -17.43239784 4.761499882
81.78569031 -17.72956085 4.774030685
82.03107452 -18.07847786 4.798625469
81.97801208 -18.36607933 4.808731079
81.4493866 -18.16908646 7.699890614
82.00986481 -18.67210007 4.823068619
81.38790131 -18.45284462 7.709550381
72.90050507 -17.04022026 1.778999329
72.87638855 -16.97271156 4.385628223
81.14269257 -19.02290154 7.720214367
82.57498932 -19.7315979 4.891226292
81.12488556 -19.3161335 7.733867168
86.40013123 -20.90528488 5.094408512
86.20847321 -21.16205788 5.097982407
101.8333893 -26.08733749 2.266504288
101.6639099 -26.76167679 2.289724827
102.4765701 -26.87916374 5.994940758
40.10853577 -11.38255119 2.839733124
39.7933197 -11.92317867 1.408014297
39.82655716 -11.89724731 2.851952076
39.75118637 -12.0257864 2.854874134
39.69652939 -12.15996838 2.858893156
39.64142227 -12.2939024 2.862909079
39.58970642 -12.428689 2.867123365
32.04543686 -11.47012901 2.529315233
32.01197052 -11.58306503 2.533470869
31.81724358 -11.64160061 2.528824806
31.2577095 -11.57434082 2.504106522
31.57653427 -11.61849213 4.866353989
31.07473183 -11.63305092 2.499962091
30.5001812 -11.37198639 4.735845089
31.3235302 -11.84141636 2.519658327
32.32523727 -12.15494537 3.774657488
30.36176109 -11.44302177 4.726481915
46.97654343 -17.53569221 1.653551698
31.41115952 -11.99512863 2.530543566
32.33620071 -12.28538799 3.783364534
30.37306786 -11.56581497 4.736575603
46.91436768 -17.69808388 1.659314632
31.68618774 -12.21675205 2.551933527
31.85298729 -12.24032402 3.746231794
31.78690529 -12.18693066 4.929498196
46.72000885 -17.81262779 1.662612438
30.94937897 -12.07553101 2.51692915
30.09009743 -11.73124218 3.589752197
31.46663857 -12.19699001 4.896848202
46.55358505 -17.93632698 1.666408062
31.01695824 -12.22240734 2.526777506
30.0424614 -11.83264256 3.592622042
30.06256104 -11.81154633 4.722236633
46.23871231 -18.00424767 1.667357087
30.79158974 -12.2620182 2.520203352
30.3628521 -12.06931114 3.629972219
29.86362076 -11.85741997 4.704957485
46.12246704 -18.14442635 1.672050357
30.94993782 -12.44328213 2.535246134
30.03020287 -12.0660696 3.606240511
29.76151276 -11.93789673 4.700360775
46.17044449 -18.34615326 1.679908991
32.43802643 -13.12727737 2.625740051
31.69909477 -12.81251621 3.770757675
29.73540878 -12.04638958 4.70579052
46.43799591 -18.63263512 1.692089677
31.10343933 -12.74837875 2.556350946
30.23406219 -12.3825922 3.640452623
29.5511322 -12.09505749 4.690385342
31.51278496 -13.03035545 2.585987568
31.8265934 -13.11454391 3.798745394
30.63854027 -12.62933826 4.84327507
32.17553711 -13.41448021 2.630341053
32.39829636 -13.46376419 3.861059904
30.33226776 -12.63361549 4.811991692
30.77641487 -12.99416161 2.556496143
29.5065918 -12.46116161 3.59428525
30.79170799 -12.93498039 4.882421494
31.20104599 -13.31656456 1.414350867
29.81128883 -12.73519993 2.507150888
29.39149284 -12.54044247 3.591286898
30.68263435 -13.01592159 4.877430439
31.1478672 -13.42777157 1.418325186
29.76568604 -12.8435154 2.510983229
29.42253494 -12.67166233 3.601885319
30.38134003 -13.02582073 4.847243786
8.199892998 -4.139609814 3.161738157
31.35615158 -13.60876274 2.609592438
29.54697227 -12.84718513 3.621899128
30.6090107 -13.24065018 4.887312889
8.188287735 -4.168101311 3.162769318
29.99732018 -13.18012333 2.536915302
29.94373894 -13.12932491 3.667846918
30.19000816 -13.20053101 4.841266155
8.207030296 -4.208825588 3.172649622
61.28340149 -26.2947197 2.057142973
29.75847054 -13.20376492 2.529255629
30.1326313 -13.32929611 3.694010735
30.0734024 -13.2694149 4.834759235
8.139734268 -4.2147789 3.157541275
29.93080711 -13.39745045 2.545685053
30.01925087 -13.39912033 3.690693855
30.24590874 -13.46391487 4.86773634
8.110010147 -4.235715389 3.153358936
22.62452316 -10.46197224 1.263403177
30.05797768 -13.5738821 2.559565306
31.83355904 -14.28494835 3.874718189
30.09712601 -13.52544785 4.857458591
8.076668739 -4.255012989 3.148129702
22.59282112 -10.54160404 1.266312003
30.4654026 -13.87102699 2.590121746
29.44293404 -13.40098286 3.650862217
29.50787163 -13.39956951 4.787454128
22.87119675 -10.75484657 1.27584672
30.37391663 -13.95742798 2.591265678
29.51561928 -13.55967426 3.66639328
29.59503746 -13.55844402 4.809049606
22.51769447 -10.7005043 1.272075891
22.75478935 -10.78147411 2.14401865
29.3375206 -13.60466862 3.657092571
29.68646622 -13.72642231 4.831860542
22.44549179 -10.84511375 0.4198201895
22.59499168 -10.82804871 1.277364492
22.46946335 -10.7509079 2.131923676
29.24524879 -13.68608952 3.65617156
29.65565491 -13.836092 4.837625027
22.1952877 -10.82705116 0.4261934161
22.35544586 -10.81599903 1.275774837
22.46403503 -10.84211922 2.136542797
29.19833565 -13.787117 3.659718752
29.76791382 -14.00889397 4.863036156
7.35670042 -4.109284401 2.958977938
22.10770798 -10.88057423 0.4298855662
22.05238342 -10.77380657 1.272726893
22.96513748 -11.15981293 2.171718836
29.21839714 -13.91796207 3.669905663
21.77888489 -10.58217525 3.776714325
7.369964123 -4.14573431 2.967231035
22.01092339 -10.92947102 0.4337100685
21.49478531 -10.61435318 1.26395607
22.9072113 -11.22997093 2.173332453
30.22072601 -14.49104309 3.777339935
21.77723885 -10.67260647 3.783980131
7.37776804 -4.179959774 2.973921776
21.71420288 -10.88592148 0.4407108128
21.48254776 -10.69922638 1.267195225
22.89815521 -11.32217121 2.177919149
30.10931778 -14.5674696 3.774907589
21.77161407 -10.76149464 3.790754557
7.344911575 -4.196110725 2.968587875
21.97130394 -11.09245872 0.4387485087
21.56253433 -10.82217407 1.27234304
21.55303574 -10.79641724 2.100866318
30.20299339 -14.73093033 3.792445421
7.323172569 -4.215581417 2.96634078
21.86501694 -11.1360054 0.4426857233
21.51685524 -10.89227295 1.274863839
21.34610748 -10.79175377 2.093104124
30.07043076 -14.8037281 3.788393021
8.160333633 -4.639266491 2.888391256
7.339419842 -4.253855705 2.975653648
21.78945541 -11.19809914 0.4462337494
21.38048363 -10.92432117 1.275494337
21.3548069 -10.890975 2.098759651
30.01600266 -14.90591526 3.791713238
21.57809639 -10.9474144 3.78686285
7.32333374 -4.279008865 2.975594044
21.5512619 -11.17767525 0.4521872997
21.10674477 -10.88595486 1.272760391
21.33593369 -10.97303963 2.102508307
22.30779076 -11.40935993 3.027126312
21.55875015 -11.03011322 3.791888952
22.20108795 -11.30912495 4.753678799
7.3392663 -4.317482948 2.984916925
21.46485901 -11.22854233 0.455747366
21.13853264 -10.99594116 1.277204275
21.37264061 -11.08170319 2.109716892
22.29413605 -11.49815178 3.03235364
21.53908539 -11.11739063 3.79730773
