# .PCD v0.7 - Point Cloud Data file format
VERSION 0.7
FIELDS x y z
SIZE 4 4 4
TYPE F F F
COUNT 1 1 1
WIDTH 1313
HEIGHT 1
VIEWPOINT 0 0 0 1 0 0 0
POINTS 1313
DATA ascii
-7.190498352 9.63424778 3.47154355
-13.0632906 22.94722366 1.121429801
-7.607242584 10.4241581 1.834426284
-7.860647202 11.06852722 2.272044659
-7.408116341 10.12664413 2.873884916
-7.406525612 10.17677689 3.246097565
-7.166060925 9.661837578 3.473668814
-7.650343895 10.88444138 4.206136227
-12.99744797 23.0061512 1.117018104
-9.000099182 13.69943142 1.597086668
-7.531719685 10.33948517 1.824903965
-7.151842117 9.55182457 2.42523551
-7.386626244 10.16597939 2.876907587
-7.313972473 10.04631901 3.210900068
-7.103599072 9.597939491 3.451073647
-7.120233536 9.695960999 3.830532551
-14.6250906 27.04550743 1.114851594
-7.539999962 10.45100307 1.830455303
-7.997125149 11.59231281 2.324432373
-7.159108639 9.654292107 2.437173843
-7.318072796 10.09250927 2.858347178
-7.413497448 10.37819576 3.28233552
-7.053412437 9.562429428 3.436254501
-7.096124172 9.725078583 3.833730459
-7.588404655 10.66022491 1.843393683
-7.514783382 10.53954697 2.200308323
-7.109660625 9.621502876 2.428447962
-7.272552013 10.07331371 2.850246191
-7.151019096 9.889861107 3.519187689
-7.065384388 9.738089561 3.831959963
-7.944965839 11.55176353 1.101763487
-7.964477539 11.59655476 1.507146001
-7.444301128 10.40918636 1.82130456
-7.505444527 10.61253548 2.205068111
-7.083016396 9.643451691 2.42808938
-7.258409977 10.13052845 2.856737614
-7.109565735 9.877792358 3.510615826
-7.034599781 9.750993729 3.830187321
-7.924453735 11.54620361 0.6976999044
-7.829144478 11.37680435 1.099631667
-8.298207283 12.50988674 1.53894043
-7.393712044 10.38056755 1.81618917
-7.07413435 9.709367752 2.434396982
-7.388986111 10.61125469 3.320123672
-7.033793449 9.778988838 3.478862286
-6.995993614 9.744119644 3.82235837
-7.904467106 11.60845375 0.6937025785
-8.011825562 11.9331255 1.097291112
-7.362759113 10.40414047 1.814886689
-7.342091084 10.40896893 2.174804211
-7.04410696 9.72817421 2.433374166
-6.99393034 9.660189629 2.758710146
-7.063887596 9.951267242 3.51947403
-7.048382282 9.974100113 3.887051821
-7.861836433 11.61070156 0.6920471787
-7.718904972 11.32033634 1.095357418
-7.698689461 11.27384758 1.486668825
-7.361647606 10.49727631 1.818942547
-7.322051525 10.46012497 2.176962852
-7.03153944 9.79105854 2.439000607
-6.964124203 9.67446804 2.757299662
-7.004163265 9.891763687 3.498364925
-7.027880669 10.01564693 3.894028425
-7.728392124 11.38218594 0.6992886066
-7.685869694 11.33795834 1.093369603
-7.679199219 11.32486916 1.486066341
-7.267814159 10.35445213 1.805496573
-7.337259293 10.59129238 2.188436031
-7.834482193 11.91901302 2.755160093
-7.356122494 10.76314259 2.958563805
-7.291578293 10.66362381 3.316760063
-6.975802898 9.907382965 3.497617722
-6.994965553 10.02061176 3.890096664
-7.704040051 11.42203999 0.6962946653
-7.895939827 11.97334862 1.090758443
-12.77773762 24.26683235 1.959755301
-7.242171764 10.38622284 1.804980397
-6.983406067 9.842429161 2.439760208
-7.254926682 10.60418415 2.924124718
-7.273306847 10.71306038 3.323177576
-6.889024734 9.774834633 3.457280159
-8.23078537 13.37621403 4.908823967
-7.839352608 11.87146759 0.6774340868
-7.24973774 10.50342751 1.810782671
-6.962924957 9.882498741 2.442110777
-7.22603941 10.63044548 2.924595833
-7.056091785 10.2455883 3.212487221
-6.910941601 9.926876068 3.492563486
-7.517807007 11.60885811 4.362643719
-7.821548462 12.01117134 1.086307406
-7.758049488 11.84626484 1.497268677
-7.23423624 10.56310558 1.812288165
-7.948578835 12.48231792 2.388701439
-6.928087234 9.885519981 2.438932896
-7.056005955 10.28448582 2.855448246
-7.027665615 10.26932335 3.213094473
-6.863179207 9.895532608 3.479213953
-7.456409931 11.55851555 4.340763092
-7.786388397 12.0354948 1.08406806
-7.20767355 10.59483528 1.811720848
-6.891171455 9.882846832 2.434930325
-7.136734962 10.59970379 2.910025358
-6.782001495 9.772920609 3.441850901
-6.727061272 9.687829018 3.766623974
-8.228837013 13.31379795 1.079779863
-7.173166752 10.60597038 1.809643149
-6.892443657 9.982091904 2.446059227
-6.794579983 9.781422615 2.753341198
-6.970842361 10.32267666 3.215431929
-6.72075367 9.766437531 3.785125256
-7.851442337 12.37867355 0.6509288549
-8.36811924 13.82136726 1.076269627
-7.671072483 11.96970367 1.493364692
-7.699260712 12.12011814 1.916852236
-7.172695637 10.77509499 2.188256502
-7.647869587 12.12995529 2.75972724
-6.913597584 10.27322197 3.199448347
-6.729284763 9.892774582 3.81773448
-7.977065563 12.83531475 0.6312875152
-7.829852104 12.51519203 1.076374531
-7.28784132 11.06528378 1.458594799
-7.154402733 10.83723736 2.191514015
-6.881647587 10.15982151 2.464730024
-6.743857384 9.840585709 2.756215811
-6.810627937 10.09028625 3.153951645
-6.666664124 9.750192642 3.421088457
-6.654824734 9.783041 3.779301643
-7.798294544 12.54822063 1.074124932
-7.242409229 11.0459528 1.455545306
-8.015037537 13.21849442 1.989740372
-7.040519714 10.62701321 2.165261745
-7.400507927 11.69157887 2.686480761
-6.783495903 10.11079407 3.154262304
-6.643208981 9.777531624 3.423720121
-6.642653942 9.842941284 3.792369366
-7.499362946 11.7802515 0.6696351767
-8.200221062 13.76844883 1.069006562
-7.471364975 11.7775135 1.478651524
-7.936131001 13.12849522 1.979841828
-7.014377117 10.65572548 2.165253639
-6.802494526 10.26228142 3.183736563
-6.618966579 9.802980423 3.425865173
-6.714789867 10.14637852 3.878595591
-7.472878456 11.81964874 0.6665240526
-8.211303711 13.93252373 1.066176295
-7.444163799 11.81511211 1.477430105
-7.871356964 13.07566643 1.972673178
-6.983408451 10.6712532 2.163809061
-7.266200542 11.54032516 2.656425476
-7.377846718 11.9293108 3.129432917
-6.842457771 10.47683907 3.227112532
-6.721148014 10.19350147 3.523208857
-6.605341434 9.928232193 3.808074951
-7.843336105 12.98836136 0.6180443764
-7.388298988 11.79702759 1.473757982
-8.601299286 15.29006863 2.12659359
-7.250079632 11.55430698 2.255829096
-7.38106823 12.00644875 2.719718218
-7.491951942 12.40132427 3.210598469
-6.737771034 10.29815578 3.182266712
-6.710314751 10.2840538 3.54115057
-6.59577322 10.01956081 3.829451561
-7.626270294 12.66329288 1.935977697
-7.225924015 11.59882164 2.25726223
-7.352712154 12.04388046 2.721152067
-7.424438 12.32913113 3.192717552
-6.723083019 10.35738659 3.19113636
-6.696069241 10.34475327 3.552267313
-6.768951893 10.63591003 4.008662701
-11.80476284 24.67305756 1.023845196
-7.619346619 12.69075108 1.498993635
-7.379263878 12.08388138 1.891592741
-7.817893505 13.43227482 2.451625824
-7.298503876 12.00625706 2.711692333
-7.328862667 12.17892551 3.160435677
-6.684115887 10.41893673 3.566609859
-6.747771263 10.6861639 4.018157005
-7.38663435 12.07059765 0.6497556567
-7.256439686 11.77362823 1.465341687
-7.600520611 12.85631847 1.942852497
-8.290040016 14.96179867 2.611941576
-7.739606857 13.43880272 2.914870739
-6.76978159 10.64369965 2.875882149
-6.83022356 10.89434814 3.300741673
-6.641810417 10.40279388 3.557556868
-6.713086128 10.69616222 4.015660286
-7.284039021 11.97956371 1.0601753
-7.224987984 11.80564308 1.463801384
-7.544099808 12.82723236 1.937413573
-8.221974373 14.92213058 2.603070498
-6.731484413 10.64228821 2.871556759
-6.628615856 10.47509289 3.571387529
-6.766793728 10.97883415 4.094204903
-7.429012775 12.45105648 0.63092345
-11.62986183 24.97590828 1.897392511
-7.50124979 12.83763409 1.934768319
-8.141046524 14.84250927 2.589982748
-6.891963482 11.16761971 2.578506708
-6.700605869 10.66319942 2.87131238
-6.567246914 10.32427025 3.16652298
-6.632862568 10.60287571 3.59947753
-6.726993561 10.97607613 4.087846756
-7.596131802 13.17237568 1.051101089
-12.84850216 28.90659142 2.020903111
-7.453983784 12.83461857 1.931198955
-8.112345695 14.91937447 2.593645334
-7.678463459 13.69825077 2.938200474
-6.674482346 10.69901562 2.873777866
-6.576373577 10.46578121 3.193194628
-7.252056122 12.66107464 4.123792648
-6.789450169 11.29614925 4.177092552
-7.021761417 11.65553665 1.846068025
-11.7741909 26.34849548 3.803106308
-6.97124958 11.65930271 2.641415119
-6.652956009 10.74978542 2.87894392
-6.622452259 10.80702496 3.642200708
-12.90781498 29.75480461 0.9738003016
-7.103601456 11.95181847 1.458160996
-7.3725667 12.86790848 1.9268291
-6.939770699 11.69051456 2.64196825
-6.618040085 10.75918102 2.876641989
-6.660989761 10.97598839 3.295539379
-6.602379322 10.86471558 3.652103662
-6.250200748 9.8080616 3.727058411
-8.00849247 15.00941753 2.070669651
-7.027416706 12.0189867 2.273751259
-6.905043602 11.71846771 2.641865492
-6.521454334 10.57708359 2.839737177
-6.629343033 11.00477314 3.297092199
-7.152635574 12.78565598 4.137998104
-6.204717159 9.776247025 3.712728024
-7.100480556 12.13606548 0.6349752545
-7.158131123 12.39797497 1.045136571
-7.567226887 13.69071007 1.508187056
-6.987315655 12.03395939 2.271624565
-7.143018246 12.62446308 2.766580105
-6.578673363 10.96548367 3.2841084
-7.04635334 12.09449482 0.6350632906
-11.69714546 26.96303749 0.97083956
-7.487095356 13.58403492 1.501958251
-7.520736694 13.7845974 1.979485273
-7.358288288 13.36306381 2.407753229
-6.77807045 11.65592003 3.025337934
-6.54875803 10.98727226 3.284640312
-6.694129944 11.64462757 4.251708508
-7.212229729 12.84846115 1.038473725
-7.066055775 12.37734318 1.461169839
-7.212451935 12.94425774 1.918829322
-6.600264072 11.20138264 2.939916372
-6.499614716 10.95134544 3.27249217
-6.450613976 10.86612701 3.633262157
-6.634477615 11.58055878 4.227389812
-6.833647728 11.77015781 1.041818619
-6.940800667 12.11899281 1.450295687
-10.95580673 25.4072876 2.75912118
-6.827263355 11.91938782 2.249377966
-7.173024654 13.16540051 2.830681324
-6.564818859 11.22059441 2.939110756
-6.417482853 10.80863953 3.237163544
-6.410892487 10.86618328 3.628340721
-6.598631859 11.60369301 4.228402615
-10.81582355 25.25185966 2.741998434
-6.742607117 11.78295517 2.231606007
-7.142744541 13.22853374 2.835073709
-6.627026081 11.56643391 2.996599436
-6.45785284 11.076828 3.290657282
-6.369178772 10.8524847 3.62021184
-6.54654026 11.56319237 4.211148262
-6.740773201 11.72931099 1.03795886
-6.948451519 12.43013477 1.454663396
-7.32090044 13.77310944 1.964708686
-6.760519981 11.97712326 2.248552561
-6.638331413 11.73804951 3.023146868
-6.412821293 11.04743481 3.280240059
-7.002470016 13.20252991 4.209879875
-6.5117836 11.57565022 4.209674358
-6.69960928 11.72902012 1.035871983
-7.328895569 13.85836697 1.495753646
-7.156479359 13.37854481 1.934852958
-7.266150475 13.85328197 2.439314365
-6.79722929 12.43744755 3.142837048
-6.284153461 10.72198582 3.206386328
-6.359360695 11.07852554 3.668283463
-6.510237217 11.71470451 4.244778633
-6.673048973 11.77849102 1.033482909
-6.950073719 12.72788048 1.458506107
-6.667665482 11.85176277 1.829777837
-6.893807888 12.72641659 2.319196701
-6.512503147 11.48882103 2.579658747
-6.248879433 10.72826576 3.203626394
-6.930734158 13.27842522 4.217723846
-6.643732071 11.91277885 1.830911994
-6.416668892 11.28961277 2.548290014
-6.530207634 11.79038715 3.02002573
-6.223861694 10.77834702 3.210046768
-6.329420567 11.24919701 3.70194602
-11.27743912 28.29066277 0.9217130542
-7.19349432 14.02048588 1.9671489
-6.369132519 11.26612377 2.54134059
-6.454371452 11.67058468 2.99467206
-6.187726498 10.78867912 3.207986355
-6.605838776 12.53703213 4.46649313
-6.734752655 12.44515038 1.022633433
-6.751410961 12.6064415 1.87060523
-6.280919552 11.0015049 2.131940126
-6.340070248 11.3093605 2.543687344
-6.354016304 11.44896221 2.951768637
-6.400799274 11.72181797 3.402493238
-6.269459248 11.32278728 3.710907459
-6.571193218 12.57079601 4.470639229
-6.692242146 12.44036293 1.020560026
-6.723677635 12.56178856 1.44268322
-6.474611282 11.74912357 1.811463475
-6.241209984 10.98779869 2.127685785
-6.326743603 11.39745426 2.552583218
-6.401555061 11.87005043 3.429816246
-6.231519222 11.31921864 3.70565033
-6.665694714 13.09428024 4.616294861
-6.658228874 12.46628857 1.018273115
-6.597163677 12.25036812 1.431087017
-6.40322876 11.62802792 1.800857067
-6.210902214 11.00854397 2.126954556
-6.238533974 11.2058506 2.522829056
-6.506196976 12.31118679 3.095156908
-6.223767281 11.33784962 3.312807083
-6.2121315 11.38703156 3.718252659
-6.538854599 12.76755142 4.51674366
-6.596497059 12.3897686 1.016720772
-6.607400417 12.43822193 1.434087992
-6.37954855 11.68206501 1.801720023
-6.20089674 11.20170116 2.519036531
-6.543828011 12.61156178 3.143630028
-6.202410698 11.39845085 3.321681261
-6.156767845 11.31543541 3.696086168
-10.5821352 27.58550072 0.9009554982
-6.560545444 12.43219376 1.431182981
-7.081383705 14.51936054 1.982493997
-6.544650078 12.57812691 2.279551506
-6.143372059 11.13502312 2.506340027
-6.35035944 12.04275227 3.039951563
-6.007527351 10.89050007 3.585444927
-6.43736124 12.7230072 4.492600441
-8.189862251 18.68355942 0.3224050701
-10.44547558 27.4622097 0.8965350389
-6.333223343 11.73546219 1.408616424
-6.454380512 12.40434456 2.25848031
-6.109340191 11.1583643 2.506051302
-6.301885605 12.0229063 3.032315016
-6.189648151 11.68360138 3.372902155
-6.01902771 11.09453201 3.631644487
-6.411519527 12.8054924 4.510513783
-12.2173233 34.71957397 0.8344730139
-6.27111721 11.65869713 1.403897762
-6.540548325 12.80814552 1.865327954
-6.26146698 11.81899738 2.196216583
-6.066505432 11.14697647 2.501022339
-6.29258585 12.15165997 3.05068469
-6.16797924 11.75804996 3.384376049
-5.954089165 10.98283195 3.599648714
-6.372314453 12.82559776 4.510833263
-11.10693836 30.82123947 0.8596445918
-6.235977173 11.66980648 1.40192461
-6.065382004 11.2884922 2.517211437
-6.155967236 11.75504971 2.978287458
-5.909387112 10.94409275 3.586050272
-6.337752819 12.85629654 4.514478207
-11.96637154 34.69451141 0.8220725656
-6.224600315 11.77582932 1.402593493
-6.990725994 14.96969795 1.997248054
-6.02583313 11.27600002 2.512370586
-6.057408333 11.61430264 3.34631753
-5.925358295 11.16865635 3.637370348
-11.86627102 34.79560089 0.8147677779
-6.194828033 11.81831551 1.401347876
-6.212859154 12.10235596 2.215361357
-5.952780247 11.23666191 2.88137579
-6.046086311 11.73423958 3.367351532
-12.16156578 38.5630188 11.8222084
-11.74241352 34.80117798 0.8082498312
-9.6236763 26.33990669 2.709471941
-6.220919609 12.3094759 2.232751369
-5.971251965 11.36916447 2.518454313
-5.920803547 11.26278019 2.882301807
-6.044120789 11.89814949 3.397514582
-11.70582676 37.16079712 11.40706444
-11.69033527 35.10582352 0.7991024852
-6.276018143 12.49413967 1.414865732
-6.302950382 12.72553062 1.845177054
-6.037749767 11.71682262 2.170712948
-5.907393456 11.26017284 2.500454664
-5.907241344 11.36954594 2.897078753
-6.136040211 12.48882484 3.51636529
-5.753851891 10.91833973 3.563056469
-11.46059799 36.65687561 11.24824619
-11.5504179 35.04650497 0.7931135297
-6.204695702 12.38168335 1.409152865
-6.063491821 11.88582325 1.789513707
-5.970038414 11.59584618 2.155742645
-5.840772152 11.14354706 2.481356382
-6.017337322 12.14839363 3.44121933
-5.729464054 10.97408676 3.572726727
-11.33772087 36.69390869 11.24330616
-11.38750076 34.88532639 0.7880852818
-11.24003696 34.60046768 3.206775188
-5.890846729 11.42016697 2.135472298
-5.868680954 11.42621136 2.516395569
-5.797824383 11.22309303 2.86494875
-5.697785854 10.98947144 3.572696209
-11.19765091 36.651371 11.21596336
-11.27612591 34.94374084 0.7810640335
-11.69725227 36.78948593 2.05097723
-10.98526573 34.02011871 3.162275314
-5.842974186 11.36993122 2.127772808
-5.905720234 11.76769829 2.559021473
-5.60532856 10.51641464 2.740906954
-5.991948128 12.40175724 3.485753536
-5.757558346 11.44070911 3.679134369
-12.78201675 44.75363541 13.48994827
-10.91315556 33.88373566 0.7847143412
-11.56424141 36.78290558 2.042950392
-10.86115265 34.00743103 3.153303385
-6.119351387 12.79957104 2.264834166
-5.794447899 11.43914032 2.511709213
-5.562689781 10.48158264 2.73177886
-5.802008629 11.70722675 3.337786674
-5.71202898 11.40713978 3.666820049
-11.42399502 38.99375534 11.84662914
-10.86334419 34.20417404 0.7753127217
-11.60703945 37.57038879 2.055640459
-10.75470448 34.07424164 3.149282932
-5.753118038 11.30857277 2.116030455
-5.734477043 11.33875275 2.495111227
-5.673855305 11.40766525 3.662884235
-11.29171944 39.02511978 11.83963203
-10.41875172 32.71894455 0.7837389112
-11.4940691 37.66698456 2.050153017
-10.65586281 34.1777916 3.147525072
-5.636850357 11.05564308 2.454229116
-5.589505672 10.94643211 2.804341316
-12.9780674 48.11631012 14.38113213
-10.32495308 32.82298279 0.7766337395
-10.37361813 33.05317688 1.923937798
-10.50312042 34.02908325 3.130290985
-5.612868786 11.0009079 2.080508947
-5.533596516 10.73506832 2.408551693
-5.562404633 10.99264717 2.808902025
-5.618303776 11.3822794 3.259329557
-10.31029701 35.01762009 9.39546299
-12.78604794 48.0116539 14.33248615
-10.19719696 32.76822662 0.771129787
-10.26810741 33.10840225 1.918375969
-10.08104992 32.57788849 3.033657312
-5.497746468 10.73457623 2.405575991
-5.569195747 11.32656002 3.244208574
-10.41448116 36.18066025 9.664969444
-10.63378906 37.77043915 11.44109821
-10.10509491 32.883358 0.7638631463
-10.17482758 33.22398376 1.91432786
-9.980614662 32.64991379 3.030369997
-5.522846699 11.03931904 2.4430511
-5.366141796 10.36858749 2.697151661
-5.526501179 11.30140972 3.235432863
-10.05491161 34.97578049 9.359753609
-12.43119144 47.94018936 14.27461243
-10.02459717 33.05900192 0.7559069991
-10.06532192 33.26288223 1.908331752
-10.42959023 35.46411896 3.19314146
-5.553655624 11.25739288 2.097079515
-5.329405785 10.35597134 2.692019939
-5.491373062 11.3146019 3.234563351
-11.59698296 43.79891586 11.48257065
-12.37754631 48.56509399 14.43075562
-9.944911003 33.24426651 0.7477810979
-11.28199577 39.95856857 2.067171812
-10.10858727 34.46983337 3.124872208
-5.547235489 11.41713047 2.109669447
-5.464518547 11.11797047 2.447521687
-5.300509453 10.38392544 2.69373703
-5.610547543 12.15055847 3.402067184
-10.01334286 36.08191299 9.601984978
-10.26737881 37.9533844 11.44839191
-6.712541103 17.123703 0.3435485661
-9.846347809 33.339077 0.7405884266
-10.25799942 35.44700241 1.948045135
-10.11885643 35.15170288 3.157814264
-5.470228672 11.21316814 2.087369919
-5.484068394 11.41738415 2.483976841
-5.266745567 10.38657284 2.691214323
-5.569937706 12.1505785 3.398271322
-9.847364426 35.86672592 9.537294388
-10.37864685 39.32096481 11.8154192
-6.660542011 17.15818596 0.3392434716
-9.735132217 33.37075043 0.7340726852
-10.13379478 35.45087433 1.940745831
-9.978266716 35.06315231 3.144361496
-5.405917168 11.2002039 2.452450275
-5.551716805 12.13433266 2.980884552
-5.495242596 11.96133709 3.355908394
-9.366629601 33.87282181 9.044322014
-11.76526451 48.01337433 14.22157764
-6.603848934 17.16895485 0.3360336125
-9.600445747 33.27822495 0.728969276
-9.579892159 33.17308044 1.878428578
-5.633119106 12.36728001 1.783496261
-5.415351391 11.45686722 2.48314929
-9.408709526 34.32419205 7.905609608
-9.23441124 33.79492188 9.013835907
-11.62145424 48.16230774 14.24507046
-9.457576752 33.14113617 1.870790482
-5.606048584 12.44548798 1.785431623
-5.469347954 11.82758331 2.137646437
-5.370231628 11.41687584 2.474939108
-5.334280014 11.35599899 2.844156265
-5.474375248 12.30047607 3.417535067
-9.117551804 33.80281448 9.004125595
-11.86652946 50.62771225 14.9120388
-9.455899239 33.76847839 0.7108761668
-9.613244057 34.64136124 1.899486065
-9.274981499 33.19620514 3.009763479
-5.427455425 11.81301022 2.133448601
-5.352314472 11.53108025 2.486886978
-5.296181679 11.35294151 2.840475559
-8.988197327 33.73543167 8.976458549
-11.69336033 50.6592598 14.9022398
-9.308781624 33.60583878 0.7065961361
-9.089389801 32.37502289 1.839112878
-9.478755951 35.02191544 3.109730959
-5.38263464 11.78061771 2.127590418
-5.316272736 11.54360962 2.485555172
-5.337701321 11.82269955 2.915405273
-5.392035484 12.29745102 3.409511566
-8.806292534 33.34291077 8.871068001
-11.52008724 50.69020081 14.89243793
-9.192695618 33.61398315 0.700291574
-8.997489929 32.49689102 1.835290194
-8.947105408 32.63817596 2.961927891
-5.494423389 12.67086506 2.208664894
-5.361767292 12.36250305 3.419015884
-8.688997269 33.3358078 8.858242035
-11.314291 50.51470947 14.82569218
-9.155916214 34.08697891 0.688216567
-8.905144691 32.62046814 1.831470609
-8.790822029 32.38559723 2.939794302
-5.450470924 12.66027737 2.204684496
-5.345776081 12.19089031 2.563585997
-5.205383778 11.48713589 2.853332996
-5.32153368 12.3674345 3.416367054
-8.579639435 33.37828064 8.857365608
-11.16911507 50.72356033 14.865448
-8.994796753 33.83419037 0.6851056814
-8.801154137 32.67869949 1.826120853
-8.698904037 32.5125618 2.939897299
-5.404251575 12.6479044 2.200410604
-5.240654945 11.78614998 2.508147717
-5.165122509 11.47190857 2.847702503
-8.417395592 33.11343765 8.782729149
-11.02029037 50.91674805 14.90091705
-8.903820992 33.99911118 0.6767494082
-9.03686142 34.85697556 1.868400455
-8.616635323 32.70433426 2.943727255
-5.361441612 12.64288139 2.196994066
-5.302748203 12.44547367 2.590144396
-5.146310806 11.59504414 2.864938021
-5.07535696 11.29697037 3.193449974
-8.308648109 33.15497971 8.781891823
-10.897686 51.2966156 14.98787594
-8.787477493 34.01173401 0.6703068614
-8.596242905 32.81980515 1.815943956
-8.544880867 32.97086334 2.951814651
-5.3741889 12.99589539 2.226953983
-5.234274864 12.25357056 2.562469959
-5.18155098 12.08321285 2.942260027
-8.431245804 34.74606323 9.150216103
-8.662168503 33.96665573 0.6646193266
-8.483742714 32.82960892 1.809483051
-8.449487686 33.09518814 2.951630116
-5.344291687 13.06919289 2.230914116
-5.214915276 12.39523029 2.577640057
-5.114778996 11.89991188 2.908904791
-5.005280018 11.31211376 3.190239191
-8.223233223 34.13045502 8.992934227
-10.70197105 52.46469116 15.27379608
-8.551411629 34.01401138 0.6577138305
-8.4013834 33.03668594 1.807374358
-8.176557541 32.04233551 2.883983135
-5.296928883 13.04227352 2.225414753
-5.189444065 12.5015564 2.58822298
-5.089893818 11.99962521 2.922139168
-8.126479149 34.28517914 9.018877029
-8.583307266 35.02032471 0.6377996802
-8.290244102 33.05964661 1.801178932
-8.06801796 32.0587883 2.877855301
-5.287356377 13.27537155 2.243981361
-5.131998062 12.3878336 2.570600986
-5.042486668 11.94288635 2.909703016
-7.873427868 33.28961945 8.772353172
-8.459174156 35.00212097 0.6315757632
-8.076874733 32.37976074 1.779810071
-7.967905521 32.13417053 2.875096083
-5.239853859 13.26628494 2.239971161
-5.088160515 12.36622238 2.564826727
-8.045601845 34.2921257 6.56291914
-7.834070683 33.90932083 8.908149719
-10.2077198 52.89190674 15.33825493
-8.336071014 34.98940277 0.6252814531
-7.974556446 32.48750687 1.775255203
-7.862354279 32.17362976 2.870296717
-5.062378883 12.49221039 2.577751398
-10.5329237 55.95127487 14.10474968
-10.02644253 52.91582489 15.32751751
-8.176403999 34.71079636 0.6227443218
-7.961985111 33.16778946 1.783450484
-7.74636507 32.13753891 2.86124754
-7.931350708 34.07136536 4.141798019
-7.89183569 34.32152557 5.352293491
-7.563822269 32.94629288 7.485423088
-7.858633518 35.9410553 9.367388725
-9.455630302 49.74497986 14.44416142
-7.833115101 33.05408859 0.6400259733
-7.871668339 33.34775925 1.78055656
-7.659511566 32.31877899 2.864446163
-7.761867523 33.62818527 4.093689919
-7.44619894 32.91282272 7.469441414
-7.443145752 33.52933884 8.788334846
-9.308242798 49.95973587 14.48687935
-7.697342873 32.8884697 0.6363218427
-7.749979019 33.29750443 1.772820473
-7.553582668 32.36116028 2.859822989
-7.627119541 33.52560425 4.076122284
-7.586738586 35.08318329 7.890926361
-7.321791172 33.52770996 8.777511597
-8.994235039 48.73566818 14.13748646
-8.681928635 41.48820496 0.5039594173
-7.63393259 33.33280945 1.766544104
-7.464046955 32.53593445 2.862584591
-7.53482151 33.71434784 4.085543156
-7.395362854 33.19857407 5.18427515
-7.519123554 34.8421669 6.606431961
-7.479435444 35.19989777 7.904323101
-8.884838104 48.30181122 12.23965931
-8.813998222 48.63425827 14.09466934
-7.551856041 33.54190063 0.6144512892
-7.47383976 32.92179108 1.751847625
-7.318308353 32.25849915 2.840200424
-7.389296532 33.4677124 4.055407524
-7.286146164 33.19234085 5.17576313
-7.387814045 34.74325562 6.581341267
-7.349902153 35.07178879 7.869726658
-8.724811554 48.29240036 12.22400665
-8.930027008 51.2733078 14.79725647
-8.307646751 40.7082634 0.5006662607
-7.451255322 33.67407227 1.760440826
-7.211902142 32.24947357 2.833145142
-7.322593212 33.83513641 4.081395149
-7.374765396 34.97484207 5.39222002
-7.254364967 34.56463623 6.543931007
-7.222577095 35.01023865 7.847970486
-7.156757832 35.16559219 9.132739067
-8.47177124 48.50137329 14.02946186
-7.298708439 33.30234909 0.6060078144
-7.347385883 33.72681808 1.755120873
-7.108798027 32.31612396 2.829940796
-7.194683552 33.73204803 4.064386368
-7.269382477 35.05534744 5.394299984
-7.120130539 34.42150497 6.511968613
-7.135103226 35.26366806 7.88903904
-7.053407192 35.27587128 9.149037361
-7.209246635 33.52193832 0.5964583158
-7.369600296 34.94218063 1.772420764
-7.178307533 33.93650818 2.911951065
-7.080160141 33.69118118 4.053450584
-7.038437366 34.02124786 5.256111622
-6.988788128 34.29551697 6.482915401
-7.013019562 35.25402069 7.877677917
-6.936403751 35.31674957 9.148643494
-8.520597458 52.4451828 15.06915569
-7.091581345 33.49879456 0.590616107
-7.214819908 34.62763214 1.759329796
-7.105771065 34.34460449 2.927054882
-6.973643303 33.77733231 4.053603649
-6.921000004 34.01444244 5.247143269
-6.871860027 34.30262756 6.475418568
-7.604972839 42.47444534 9.290854454
-6.828129768 35.45030594 9.169978142
-8.215849876 51.13077545 14.69784546
-7.014072895 34.59568024 2.933464766
-7.321369648 38.31622696 4.452754021
-6.934707642 35.32052994 5.402336597
-6.757798672 34.33880997 6.472660542
-7.489754677 42.80075836 9.343828201
-6.68782711 35.24794769 9.112976074
-7.822646618 48.73381805 14.03476524
-6.831806183 33.21882629 1.718644023
-6.903050423 34.67166138 2.930303812
-7.188251019 38.30221176 4.442937374
-6.980821133 37.05784607 5.610751152
-6.637252808 34.30774689 6.459167957
-7.307067394 42.41532135 9.256890297
-6.574795723 35.33414459 9.123428345
-7.640550137 48.57217407 13.97706127
-6.719754696 33.23633194 1.712420583
-7.328144073 40.26525879 3.224983692
-7.089228153 38.64470673 4.46495676
-6.703803539 35.4421463 5.40089941
-6.717171192 36.49110031 6.800431728
-7.157648087 42.37517548 9.238016129
-6.445225239 35.2336235 9.090480804
-7.49910593 48.88329697 14.04718399
-6.657135963 33.76898575 1.715853333
-7.200460434 40.38018799 3.222721338
-6.553472042 34.24345398 4.065033436
-6.589261532 36.45795059 6.786223412
-7.009714127 42.34818268 9.221843719
-6.313037872 35.09183121 9.048098564
-7.400591373 49.75818253 14.26924896
-6.755215645 36.06484604 0.5170425177
-6.56375885 34.00888443 1.713656306
-6.526153088 34.44390488 2.896379948
-6.41754055 34.0302124 4.038610458
-6.530705929 37.25299835 6.904341221
-6.854710102 42.23064804 9.188074112
-7.176058769 47.57167435 11.93644524
-7.416291714 52.20849991 14.91518021
-6.618793488 35.92049789 0.512758553
-6.438782215 33.91193008 1.70519805
-6.553302765 36.11600876 2.978429794
-6.292026997 33.9216423 4.021584034
-6.406744003 37.2979393 6.902560234
-6.702557087 42.13797379 9.159329414
-7.011339664 47.55715942 11.92055225
-7.160761833 51.16875076 14.62116146
-6.516827583 36.16614914 0.501912415
-6.533617973 36.37672806 1.74323833
-6.398454189 35.74068069 2.951019764
-6.794102669 42.75322342 6.271727562
-6.277849197 37.28140259 6.891047001
-6.557329655 42.12892151 9.147057533
-6.879262447 47.99494171 12.00957775
-6.909319401 50.08148575 14.31512642
-6.337159157 35.48475266 0.506867826
-6.236738682 35.24523926 2.917439222
-6.223275661 36.02316284 4.19190836
-6.240423203 37.3417511 5.594596386
-6.551548481 42.78861618 7.757529736
-6.409998417 42.0880127 9.12868309
-6.732782364 48.26519012 12.0597496
-6.628194332 48.42622757 13.85739136
-6.218317509 35.5162468 0.499717325
-6.198490143 35.27887344 1.709516644
-6.124331474 35.35050964 2.915755749
-5.966297626 34.21499252 4.025391579
-6.11900425 37.42917633 5.596972942
-6.417112827 42.96582794 7.775604725
-6.738512993 49.12797928 10.48892403
-6.564312935 48.22385025 12.03790092
-6.455993652 48.33134079 13.81914234
-6.105726719 35.63307571 0.4910550714
-6.074926376 35.23833466 1.701914907
-5.971617222 37.14385605 5.553566456
-6.485264301 46.23738861 8.284002304
-5.842998505 37.81193924 8.276361465
-6.40648365 48.4859848 12.08567047
-6.395457745 50.12215042 14.2862711
-5.980368614 35.58198929 0.4853200018
-5.944570065 35.18182755 1.693721056
-5.704825401 35.07344437 5.291018963
-5.824314594 38.1807518 6.998587132
-6.344171524 48.32065582 10.30785084
-6.217805862 48.09906769 11.98438454
-6.127795219 48.39432526 13.81092739
-5.85391283 35.50850296 0.4800020456
-5.857093334 35.57290268 1.693912148
-5.576808929 34.83760071 5.254833698
-5.68516922 38.03199768 6.96637392
-6.195934772 48.48442459 10.32870293
-6.080680847 48.46014404 12.05632591
-6.059261322 50.27362823 14.30108738
-5.734429836 35.53433609 0.4729093313
-5.453771114 34.7621994 5.238028049
-5.521326542 37.41717911 6.86078167
-5.411232948 36.85189056 8.064026833
-5.983055592 49.8102951 12.35523891
-6.110361099 54.89787292 15.52366352
-5.634643555 35.88509369 0.459856838
-5.336127758 34.77555466 5.23213768
-5.35913372 36.75033569 6.747351646
-5.278595448 36.83653259 8.052099228
-5.858697414 50.97793961 12.61106682
-5.756974697 51.2220726 14.52909565
-5.51048708 35.9604187 0.4514220357
-5.263714314 35.80207443 5.349273682
-5.242465496 37.05802155 6.787180901
-5.153260231 36.83994293 8.044324875
-5.705546379 51.47497177 12.71308708
-5.563145638 50.99329758 14.45494652
-5.388383865 35.96908188 0.4445346594
-5.139976501 35.76321793 5.336914062
-5.131518841 37.4005394 6.83282423
-5.028424263 36.85468292 8.038823128
-5.523259163 51.33072662 12.66791725
-5.392383099 51.09934616 14.47089195
-5.025112152 37.7542572 6.880554199
-5.337594986 51.06502151 12.59512997
-5.228471756 51.16962433 14.47803879
-5.379027843 40.85058975 0.3383349776
-5.007126331 34.62082291 2.814512253
-5.170412064 51.03593445 12.57735825
-5.002235889 49.520298 14.02748775
-5.02674675 35.96428299 0.4247517884
1.23996675 17.86034584 0.4563366771
1.304811835 17.87520981 0.4520952702
1.790775418 18.00973511 0.4197195172
1.04714489 14.91467953 1.045012593
2.15499568 18.12792206 0.3949773312
1.080988288 14.85313129 1.0425421
2.238951921 18.18004036 0.3887439072
1.657115221 16.43419266 1.033159852
2.314895868 18.19666672 0.3837356865
1.27306366 15.10331154 1.035981059
1.528006911 14.89391899 1.020633817
1.580164313 14.8856945 1.017931461
1.53374505 14.6088047 1.016858101
1.56061697 14.53491211 1.014618754
1.522409558 14.2887249 1.013517737
1.592931986 14.34120369 1.010654688
1.715553045 14.52133274 1.006760836
1.1293751 12.48484516 4.120455742
1.738265157 14.44614792 1.004724145
1.168950915 12.4674263 4.117801189
1.845125914 14.58054256 1.001062751
2.21028614 15.43217754 1.539136767
1.179309011 12.38405037 4.097871304
1.868374228 14.50693893 0.9990243912
1.19336915 12.30533218 4.079270363
1.880964041 14.40080833 0.9971230626
1.236032724 12.2966671 4.078999043
1.947521091 14.42367363 0.9941160083
1.18294239 12.25419807 2.73228693
2.087460518 14.62590694 0.989652276
2.312278271 15.04387283 0.9836021662
1.066342473 11.63851261 3.483478546
2.307736397 14.9007597 0.9821128845
1.094429612 11.60138798 3.47665906
2.350430965 14.85909939 0.9795194864
1.856919765 13.53945255 1.948639393
1.252386332 11.98316288 2.694136143
2.417624474 14.54614925 4.132609844
2.358587027 14.7362833 0.977655828
1.287372231 11.95328522 2.690114737
1.16521883 11.6089468 3.058201075
2.319666386 14.18753815 4.054865837
2.424126625 14.74966145 0.9746054411
1.298362136 11.86880207 2.678260803
1.213085294 11.61206245 3.059720516
2.38564992 14.20618629 4.061017513
2.530146122 14.45358944 4.661337852
2.627483845 15.10849953 0.968917191
1.346144438 11.95231247 2.263040543
1.358024597 11.85886478 3.105634689
2.709924936 14.82822227 4.20117712
2.553514957 14.39898872 4.649374962
2.663397789 15.05585861 0.9665385485
1.425712943 12.02842426 2.270730257
2.080996513 13.37276936 3.383819103
2.471358776 14.09323215 4.571771622
1.390549064 11.84600925 2.251242161
1.158986688 11.21604633 2.98986721
2.59441185 14.31824684 4.091702461
2.769192457 15.035532 0.9611374736
2.452088356 14.24599648 1.478084326
1.445565343 11.87171459 2.253678083
1.193091869 11.20091343 2.988026619
2.222383738 13.38974762 3.886549711
2.594032764 14.5049963 0.4419983923
2.851926088 15.08840752 0.9577309489
2.166994333 13.48870087 1.454817295
2.366598368 13.86646271 1.962813497
1.571971893 12.04854012 2.272001982
1.510778427 11.85338879 2.67774868
2.212139606 13.32321072 3.378234625
2.751192808 14.41998672 4.118572712
2.618848324 14.05958939 4.571455956
2.902987242 15.06980228 0.9550284147
2.651650429 14.43914413 1.479659081
2.872806549 14.85579014 2.027480841
1.608287334 12.02559566 2.269338369
1.6469872 12.04862213 2.706303835
2.317648649 13.4378891 3.400530815
2.665620089 14.11448383 4.052532196
2.843093395 14.41923714 4.669416428
2.684627295 14.38680077 1.476255298
1.647851348 12.00975704 2.267440319
1.741899967 12.151371 2.721570015
2.611423731 13.95222378 3.496259451
2.012696028 12.60902214 3.718128204
2.945892096 14.51554108 4.698010921
3.067666292 15.16828823 0.9481849074
3.007856369 14.96220112 1.490292668
2.655656338 14.12969017 1.977000237
1.673029304 11.96311951 2.262324333
1.812277198 12.19975376 2.729033232
2.114445448 12.77796268 3.282009363
2.668067932 13.87827969 4.004268646
2.836455584 14.16543579 4.608635902
3.263999224 15.44614887 0.3808001876
3.167880058 15.24750233 0.9442516565
2.530243397 13.67464542 2.441903353
2.594191313 13.74114609 2.951864004
2.165967941 12.78011703 3.283710718
2.68016386 13.78833008 3.98639679
2.878145933 14.12885666 4.602314472
3.116055965 14.99910259 0.3991117179
3.210203409 15.2078495 0.9417405128
1.032124639 10.46579838 1.732585311
2.454844236 13.40215015 2.413076878
2.3279531 13.07086182 2.855784416
2.21928668 12.78561401 3.286062479
2.676335812 13.66667938 3.961435318
2.922461033 14.10372925 4.598908901
3.218110561 15.09576988 0.9400554895
2.736349344 14.0142746 1.458364248
2.655835152 13.77692127 1.950534225
2.425052404 13.22903442 2.394714832
2.589847565 13.51082039 2.919855118
2.229620695 12.70213318 3.272075415
2.617562056 13.43420315 3.911617279
3.28230691 15.10951519 0.9371135235
2.906564713 14.25210762 1.462962627
2.62433815 13.59731007 1.937681437
3.089325428 14.49609089 2.52760458
2.466081619 13.14575195 2.867815018
2.253020048 12.65159988 3.264101028
2.77240324 13.64484406 3.961120844
2.933887482 14.19017792 1.459390402
2.660220861 13.5645504 1.934593439
2.548068523 13.20532799 2.877089739
2.692344427 13.43867683 3.410570383
2.855977535 13.70249081 3.976491213
2.997711897 14.20367527 1.457867742
2.084229708 12.27956676 1.849046946
3.198871136 14.48074532 2.525703907
2.828783274 13.66431618 2.944103956
3.080504894 14.04022694 4.054917336
3.462324858 15.10045242 0.3751274943
3.043182135 14.24761105 0.9386900067
3.030235052 14.15883636 1.454877138
2.137131214 12.28702164 1.848681331
2.715674639 13.39152622 2.41125536
2.384048223 12.66963005 2.801062584
2.724593401 13.28678608 3.385708809
3.22170043 14.20680904 4.095003128
3.150301218 14.00240421 4.58868885
3.176074982 14.39724827 0.407301724
3.496780396 15.0541153 0.9261422157
3.04348135 14.06981468 1.450631618
2.176773787 12.26744938 1.846550465
2.213167667 12.28721523 2.295262814
2.416970253 12.63344383 2.796556234
2.497081518 12.73666286 3.285666466
3.429415703 14.50654507 4.165064335
3.201197386 13.99021626 4.589009285
3.221628904 14.37672997 0.4048097432
3.131963015 14.199193 0.9338669181
2.979575396 13.83362389 1.442607999
2.207186699 12.23446369 1.843594193
2.22043252 12.20350647 2.28641963
3.084153175 13.85004997 2.973254442
2.65247941 12.87814808 3.800697088
3.467572927 14.40093803 4.702031136
3.24701643 14.31025219 0.4045099914
3.154400826 14.13424969 0.9320473671
3.165290356 14.0894146 1.447523952
2.273766756 12.26805305 1.844974279
2.808069944 13.26317501 2.397602797
3.150942087 13.86975002 2.976963997
2.717420578 12.96839046 3.33163929
2.719118118 12.91045284 3.810360432
3.519923687 14.38763046 4.702275276
3.246620893 14.20190716 0.9283989668
3.213028669 14.06973457 1.445151091
2.414195538 12.44983101 1.856101871
2.665215731 12.88015747 2.357380867
2.857991219 13.1931715 2.87989521
2.742746592 12.85446358 3.800263643
3.550555229 14.33276653 4.69146347
3.393146038 14.36577225 0.3940925002
2.698173046 13.01567364 0.9411547184
3.50846529 14.53177834 1.455344081
2.461731911 12.44349003 1.854871511
2.664713383 12.77753735 2.346609354
3.069576979 13.49490547 2.924478054
2.819647551 12.96059036 3.333610058
3.600918531 14.31569004 4.690797329
3.460208893 14.3805809 0.3895177245
2.755035877 13.02240181 0.9385116696
3.492418766 14.38486195 1.449621439
2.33387661 12.04520035 2.269764423
2.642404795 12.57690144 2.792356014
2.921548605 13.05235386 3.352381229
2.778012276 12.72164154 3.77541995
4.324247837 15.93470383 0.8965390325
2.912988424 13.16273117 1.416216612
3.012173891 13.29170227 1.908582211
2.361510754 12.00389481 2.265465498
2.728593349 12.64162254 2.802628279
2.621475697 12.38306141 3.230133533
3.052737951 13.13133621 3.871019363
3.267294645 13.78827763 0.9227196574
2.969011307 13.16046715 1.414356828
3.038479567 13.23733234 1.904199123
2.418002605 12.01249123 2.266425848
2.403627872 11.93169498 2.700592041
2.615637779 12.27688217 3.212175369
2.966643095 12.87082481 3.814733028
3.563853502 14.23127079 0.3858256936
2.833009243 12.85969353 0.932952702
4.279663086 15.52088261 1.472834587
3.07133317 13.19059658 1.900291204
2.419932842 11.92359829 2.257169724
2.425059557 11.87993908 2.693972111
2.659079313 12.25832939 3.210592747
3.019751549 12.86485863 3.816299438
3.62258029 14.24064255 0.3818789423
2.817775965 12.74093437 0.9323427677
3.428900242 13.82412529 1.427944064
2.558714628 12.0978508 2.275545835
2.466082335 11.8737793 2.693901539
2.989726305 12.78435898 3.309947252
3.216488123 13.1399889 3.881218433
3.74764514 14.36159706 0.3714892268
2.85048008 12.70296001 0.9303615093
3.629843235 14.08842659 1.432812929
3.806886435 14.35729122 1.974632621
2.57670331 12.03843307 2.269419909
3.255758286 13.22412205 2.891090393
3.032025814 12.76382828 3.308054447
2.91923666 12.73169804 0.9274168015
3.528045177 13.79793072 1.423777342
3.950579643 14.50881004 1.983609796
2.652905703 12.0854702 2.27448988
3.044560671 12.68964291 3.296199083
2.934390783 12.66648197 0.9259700179
3.817497253 14.15603352 1.959869027
2.628087044 11.95377541 2.260803223
2.955056429 12.48875618 2.786239624
3.082565546 12.66659355 3.293791771
3.830156565 13.94056988 4.072516918
4.235048771 14.91912746 0.329290539
2.930943966 12.56339455 0.924986124
2.983117819 12.6031065 1.390533566
3.824447155 14.06558514 1.953225732
2.929896593 12.40371132 2.308227301
3.570503473 13.49065399 2.933195829
3.176841974 12.73857784 3.309249163
3.858110189 13.88480091 4.06307888
2.966696739 12.53213692 0.9229463935
3.954284191 14.18991947 1.960471511
3.013931513 12.45954895 2.314287901
3.16924119 12.62985897 3.291018248
4.29058075 14.78965092 0.3282361627
3.030669212 12.55136013 0.9201338291
3.664958477 13.62403488 1.412354946
3.831484795 13.86505795 1.938658595
3.040387869 12.41276932 2.309589386
2.983349323 12.2596302 2.756164312
3.215942621 12.61724663 3.290757418
4.341901302 14.76748276 0.3253593147
3.238495827 12.82447433 0.9133315682
3.526633024 13.27735329 1.402134061
3.92803812 13.92979813 1.942075849
3.037893534 12.31581879 2.299637556
3.903543949 13.76795769 2.977368355
3.275471449 12.6266737 3.294656754
3.563919306 13.06910419 3.886453629
3.373069525 12.96421432 0.9085202217
3.514102221 13.15566349 1.397472382
4.05398798 14.04423332 1.948707104
3.061688423 12.26559925 2.2946136
3.448580742 12.88078785 2.849175453
3.381846905 12.71601391 3.313570499
4.619870186 14.77728558 4.281323433
4.37719202 14.6153307 0.879322648
3.552770376 13.1242733 1.395026088
3.145326853 12.3186388 2.300463915
3.872829199 13.51120853 2.942555189
3.587884426 12.97332096 3.364057064
3.915614128 13.47357368 3.985889435
3.577121496 13.07324982 1.392202973
3.451554537 12.8034811 1.86724472
3.194134712 12.31110477 2.299968004
4.319386959 14.17438221 3.040819645
3.693231106 13.05603504 3.38190937
3.715718508 13.03837109 3.889373779
6.980509281 18.86415482 0.803286612
3.490962029 12.7758894 1.864811301
3.265310287 12.34568501 2.303905964
3.988708735 13.51269627 2.945481062
3.537256241 12.70356655 3.317942858
3.778009415 13.05196285 3.895752668
5.810329437 16.73132706 0.8350316882
3.547552347 12.78201675 1.864594579
3.287809849 12.29318142 2.298719883
4.059090137 13.53115177 2.949622393
3.591539621 12.70140266 3.319890499
5.848120213 16.66948891 0.8325868249
3.932129383 13.3818922 1.394471169
3.88325429 13.1952467 2.394015312
4.078440189 13.46430874 2.941301584
3.521820068 12.44210339 3.762105703
4.119064331 13.43309021 2.938224316
3.677680731 12.65928936 3.316787004
3.550683498 12.39967632 3.755715609
7.128827572 18.54818916 0.7929044962
3.774695158 12.92611885 1.380427241
3.694173098 12.74567795 1.860402822
3.939695358 13.0963726 2.384443521
3.643256903 12.55904007 2.811453581
3.731003284 12.65481663 3.31841588
3.827932358 12.75951576 3.842371464
4.627180576 14.28858376 0.8640443683
4.694828987 14.34656429 1.411804676
3.759380817 12.75985622 1.860718846
3.715070009 12.63619518 2.336415291
3.678669691 12.53057671 2.808655739
4.021612167 13.03277874 3.392341852
4.641211987 14.21208382 0.8625676632
4.756290436 14.34183598 1.409861207
3.731459618 12.6224556 1.8513304
3.884977341 12.82416248 2.356658459
3.968614817 12.90689182 2.865473509
4.076355934 13.03168106 3.394641638
4.662377357 14.1427269 0.8608376384
4.939906597 14.53406715 1.412434697
3.871415854 12.7614212 1.859695792
4.333605289 13.45089817 2.423220158
3.767950058 12.49437237 2.806330442
4.091208458 12.96219349 3.384166002
4.052128315 12.84769726 3.873645782
4.732756138 14.15322018 0.8576690555
5.077332497 14.64883804 1.413193583
3.975242615 12.8356638 1.863889337
4.042122364 12.89092445 2.364694834
3.980000734 12.74112701 2.844223738
4.155380249 12.97112942 3.388572931
4.12847805 12.87647057 3.884133339
4.770409584 14.1108408 0.8554649949
5.192246437 14.72557354 1.413062096
3.931510687 12.67458057 1.853038549
3.979334116 12.69991779 2.345076323
3.765412807 12.3135004 2.782787561
4.195245266 12.94149303 3.385707378
4.093802452 12.73142624 3.854232788
4.19472456 12.83641148 4.399955273
4.858017921 14.14784908 0.8517828584
6.627360821 16.88438797 1.459775329
4.109680176 12.86445141 1.86464417
3.963560343 12.58504105 2.33349967
3.804050446 12.28676701 2.780429363
4.29914856 13.01135254 3.401782751
6.758141518 17.03467941 0.7940315604
4.80200243 13.90296173 1.390906215
4.276329994 13.03305054 1.87488699
3.833867788 12.29452038 2.303385019
3.843667269 12.26156807 2.778323412
4.355255604 13.00608063 3.403641462
4.522142887 13.21044064 3.973861694
4.970661163 14.12116241 0.8462707996
3.878919363 12.36891842 1.355032325
4.201537609 12.82483673 1.861079097
3.881106853 12.28082466 2.302514315
3.881029844 12.23290443 2.775730848
4.329276085 12.87493515 3.381561756
6.895119667 17.01333618 0.7874533534
3.912679434 12.34240627 1.353049159
4.060338974 12.52617359 1.841580272
3.893878937 12.22279739 2.296917915
3.907811165 12.19671249 2.771880627
4.211476803 12.61480427 3.334570169
4.704078674 13.31039619 4.005193233
5.09073019 14.11498547 0.8406429291
4.459692001 13.09350586 1.368011355
4.015424728 12.36959934 1.831125736
3.93437314 12.19885731 2.295001745
3.976658821 12.21586323 2.776417971
4.267508984 12.61133671 3.336807966
4.738536835 13.26922321 3.999837399
7.729291439 18.04273033 0.759614408
4.51971817 13.09247494 1.366342306
3.935399294 12.16180992 1.817433596
4.470174313 12.92199326 2.372161388
4.464810371 12.86419678 2.874302864
4.545292377 12.93935585 3.402485847
7.218357086 17.13890457 0.7738127708
5.509999275 14.49463558 1.395138383
4.065068722 12.26768589 1.823718309
4.447822571 12.79830265 2.359768152
4.473261833 12.78725624 2.864752769
4.537400246 12.83330345 3.385406494
7.576786518 17.5490303 0.7615255117
5.617444038 14.54809952 1.394368052
4.043457508 12.15015507 1.815814972
4.199768066 12.33640003 2.311590433
4.603398323 12.8866291 2.881513834
4.663201809 12.92988682 3.407027721
8.463177681 18.74605942 0.7330409884
5.661601543 14.51132107 1.391742587
4.045713902 12.06932163 1.810266256
4.239562035 12.30973053 2.309480667
7.961425304 17.66502762 4.319530964
7.407167912 17.0487175 0.7641749382
5.71559 14.49420643 1.389639258
4.045250893 11.98530674 1.804533482
4.298374176 12.31088638 2.310342789
5.193288803 13.57350636 2.987659216
8.86458683 18.85225296 4.552331924
7.534813404 17.12157822 0.759051621
3.909880161 11.70541573 1.786376715
4.223135471 12.12110329 2.290925741
5.252049446 13.56473064 2.988489389
7.60485363 17.10274887 0.7556402087
8.182011604 17.88300133 1.457394242
4.343921185 12.21223831 2.301378012
5.347204685 13.61261368 2.997704983
5.068926334 13.16305447 3.464814663
7.620957851 17.01151848 0.7539696693
7.839045048 17.26206398 1.442133307
4.594549656 12.53383541 1.838263988
4.375614643 12.17825794 2.298530579
5.448410034 13.66334534 3.0075109
5.112859726 13.1398983 3.463605881
7.391625881 16.5621624 0.7599138021
7.809607029 17.10478592 1.436782479
4.227280617 11.92805958 1.799500227
4.654455662 12.49156761 2.332673788
5.355483532 13.44263363 2.976646185
8.339320183 17.8051815 0.7291080356
8.318029404 17.70821762 1.447073936
5.44974184 13.57862759 1.903818727
4.748060226 12.5427742 2.338951826
5.5682621 13.64987564 3.009964228
7.834444523 16.9647541 0.7437164783
7.607459068 16.5870285 1.421929717
4.523061275 12.18649101 1.815252304
4.900842667 12.67152023 2.353563786
8.607897758 17.80530167 3.635418415
8.747941971 17.93309402 4.403691292
8.039302826 17.14061546 0.7361238003
7.579610825 16.4326973 1.416687369
4.358831882 11.87441349 1.795174837
4.911847115 12.60503864 2.347368956
8.286857605 17.23701286 3.553251505
8.046959877 17.03193474 0.7346832752
7.695519924 16.48012161 1.415574789
4.38927412 11.8403616 1.792745113
5.018006325 12.66627884 2.354857206
8.21062851 17.01322746 3.522721529
8.331177711 17.30780411 0.7244791389
7.436667919 16.00856209 1.404008508
7.51235342 16.05981827 2.059541464
4.625714302 12.04268074 2.289287329
5.844852924 13.6646719 3.021724463
8.286052704 17.12564468 0.7247196436
7.680125713 16.2321701 1.406464815
7.541518211 15.98929024 2.054717064
4.890977383 12.32286072 2.320177317
5.898682117 13.64518356 3.021307945
8.400399208 17.16346931 0.7198910713
7.972623825 16.51872635 1.410113335
7.610618114 15.97341442 2.053370476
4.591736794 11.83566189 2.269103765
8.500303268 17.05548477 3.538649797
9.183116913 18.10691261 0.6936413646
8.251403809 16.78779411 1.413447976
8.126262665 16.55862808 2.090048075
4.601204872 11.76927662 2.262994528
8.430017471 16.85075951 3.510841608
8.647422791 17.07883263 4.26763916
8.713262558 17.3550396 0.7075669765
7.853880882 16.13903809 1.398623109
7.671125889 15.83678722 2.044105291
4.627562523 11.72985935 2.259735346
7.712516308 15.78348637 3.352621555
8.610319138 16.91931534 4.24132967
8.769346237 17.31069374 0.7045870423
8.231014252 16.53128052 1.404233456
7.710893631 15.78713036 2.040696859
4.694080353 11.73984337 2.261839151
8.825300217 17.14302444 3.561817646
8.606176376 16.79901695 4.222954273
9.213816643 17.78209305 0.6890580654
8.269738197 16.46961975 1.400967121
7.90755415 15.9391222 2.050032377
5.083084106 12.17282295 2.309349298
8.809458733 17.00579262 3.544475555
8.725205421 16.84044075 4.236393929
9.319713593 17.79973412 0.6844361424
8.302119255 16.39992523 1.397564411
7.776769638 15.65978622 2.032140732
5.136855602 12.1620512 2.309322357
8.251384735 16.16553497 3.420274973
9.474448204 17.88039017 0.6782224178
8.635974884 16.72372437 1.401683688
7.756256104 15.52717495 2.023540735
7.590511799 15.25793266 2.643232107
8.29961586 16.11866188 3.416525602
9.5225811 17.82072639 0.6754707694
8.334067345 16.21927834 1.390037775
7.68355608 15.328578 2.010797977
3.235183239 9.557126999 2.031402588
8.306110382 16.01842117 3.404675245
8.480714798 16.29795074 1.389489532
7.953789234 15.57153416 2.025945663
3.260385513 9.527509689 2.029143333
