# .PCD v0.7 - Point Cloud Data file format
VERSION 0.7
FIELDS x y z
SIZE 4 4 4
TYPE F F F
COUNT 1 1 1
WIDTH 1329
HEIGHT 1
VIEWPOINT 0 0 0 1 0 0 0
POINTS 1329
DATA ascii
-10.03039742 44.59224701 13.15193748
-9.933474541 40.47933197 0.5923830271
-9.930188179 40.50948715 1.994646788
-9.85316658 40.56679535 3.397697449
-10.3545723 44.33787537 5.155698299
-10.25649834 44.37002563 6.70821476
-10.16784859 44.41866302 8.279093742
-10.06906223 44.45933533 9.868048668
-9.984605789 44.55343628 11.49439526
-9.885584831 44.61394119 13.14324284
-9.799875259 40.48451996 0.5851830244
-9.794313431 40.50110626 1.986572623
-9.718736649 40.56830978 3.389138222
-10.20712566 44.33745575 5.145373821
-10.09979057 44.30884552 6.689225674
-10.02674675 44.46135712 8.274171829
-9.926352501 44.49217224 9.861856461
-9.836821556 44.5534668 11.48073769
-9.738796234 44.62178802 13.13086891
-9.666919708 40.49320984 0.5779345036
-9.659486771 40.4981842 1.978639007
-9.581946373 40.55357742 3.379677057
-10.0570755 44.31882095 5.1334095
-9.963397026 44.3805542 6.687414646
-9.882581711 44.48405075 8.266028404
-9.780145645 44.50123978 9.850981712
-9.689663887 44.55684662 11.46800232
-9.593101501 44.6367836 13.12059879
-9.511480331 40.49272156 0.5696790218
-9.512149811 40.50481796 1.97010684
-9.429325104 40.57313919 3.370865583
-9.901396751 44.36502457 5.126446247
-9.804606438 44.40702057 6.678683758
-9.712769508 44.49018478 8.253390312
-9.618771553 44.51211548 9.839252472
-9.520019531 44.56511688 11.45444298
-9.422460556 44.63944244 13.10484028
-8.691215515 35.91204834 0.6243915558
-9.370285034 40.49998856 1.961753368
-9.290187836 40.58807755 3.362721443
-9.744832039 44.35236359 5.114616871
-9.650238037 44.41016769 6.667612553
-9.55711174 44.48559189 8.240333557
-9.46659565 44.5329361 9.830287933
-9.366909981 44.58012772 11.44402981
-9.265865326 44.62962723 13.087327
-8.484949112 35.34794998 0.6255180836
-9.229956627 40.50453949 1.95362103
-9.152144432 40.61043549 3.35502696
-9.591197968 44.35886765 5.104616642
-9.497558594 44.42456436 6.658052444
-9.404211044 44.49999619 8.230484009
-9.310987473 44.52793503 9.816271782
-9.213274002 44.59073639 11.43270588
-9.112617493 44.64413071 13.07663727
-8.34948349 35.25611496 0.6202634573
-9.090229988 40.5125618 1.94557786
-9.010723114 40.6085701 3.345986843
-9.432184219 44.38167953 5.095644474
-9.343269348 44.42660904 6.646990299
-9.250258446 44.50604248 8.219358444
-9.149915695 44.53901291 9.80493927
-9.051789284 44.59994507 11.42049885
-8.958622932 44.65234375 13.06437683
-8.285793304 35.72524261 0.6067724228
-8.944698334 40.52896118 1.937315226
-8.861401558 40.59924698 3.336117983
-9.27882576 44.38904953 5.085831165
-9.181977272 44.43309784 6.636006355
-9.090251923 44.52433014 8.209722519
-8.996441841 44.54845428 9.794039726
-8.896018982 44.5920372 11.40507698
-8.798419952 44.67255783 13.0548315
-8.111577988 35.34717178 0.6055877209
-8.251633644 36.40172577 1.842778325
-8.721737862 40.60822678 3.327759981
-9.126000404 44.39982605 5.076381683
-9.028548241 44.43993759 6.625704288
-8.933883667 44.50965881 8.195414543
-8.842981339 44.55734634 9.78314209
-8.74223423 44.59904861 11.39330769
-8.643303871 44.67007828 13.03996181
-7.987401485 35.28482437 0.6002804637
-8.039012909 35.73612595 1.821671128
-8.588998795 40.61580658 3.31979394
-8.970938683 44.39227295 5.065313339
-8.877088547 44.46198273 6.617400646
-8.787662506 44.51304245 8.184731483
-8.689763069 44.56764984 9.77263546
-8.589597702 44.6151886 11.38381958
-8.496107101 44.66797256 13.02605057
-8.528199196 40.50382614 0.5169106722
-8.531725883 40.54166031 1.913474679
-8.449841499 40.62778473 3.311661005
-8.819382668 44.41184616 5.056771278
-8.730775833 44.46282959 6.607032776
-8.634344101 44.5208168 8.174260139
-8.542566299 44.56280136 9.759851456
-8.443656921 44.6220932 11.37294006
-8.342434883 44.67593002 13.01432896
-8.389643669 40.51702118 0.5091908574
-8.396731377 40.58491516 1.90621233
-8.312106133 40.65117264 3.304188967
-8.673930168 44.41808319 5.047577858
-8.57600975 44.45624161 6.595246792
-8.481938362 44.5358963 8.165061951
-8.389828682 44.57594681 9.750124931
-8.291184425 44.63911438 11.36390686
-8.18980217 44.69293213 13.00521755
-8.248196602 40.50590897 0.5018309355
-7.707769871 36.00769424 1.806028128
-8.169604301 40.63441086 3.294522285
-8.521143913 44.42671967 5.03813982
-8.422697067 44.46092987 6.584959984
-8.328190804 44.53866959 8.153961182
-8.23643589 44.58270264 9.739239693
-8.135577202 44.62654877 11.34806347
-8.038705826 44.72477341 13.00027943
-7.593811035 36.08455658 0.5619196296
-8.118167877 40.60250092 1.890308738
-8.02976799 40.63896561 3.286068201
-8.368805885 44.43878937 5.029061794
-8.271788597 44.48678207 6.577404976
-8.175330162 44.54875183 8.144132614
-8.083674431 44.59476852 9.729515076
-7.98826313 44.69287491 11.35082626
-8.09216404 46.80229568 13.55033875
-7.427659512 35.71299362 0.5609831214
-7.979556561 40.61652374 1.882477403
-7.8910532 40.65295029 3.278161287
-8.207366943 44.43730927 5.01831007
-8.118675232 44.49237061 6.567369461
-8.024097443 44.57400513 8.136837959
-8.011018753 45.47410965 9.890332222
-7.831212521 40.52917862 0.4788757861
-7.833544254 40.62683868 1.874178648
-7.751874447 40.6624794 3.270037651
-8.055656433 44.45421219 5.009770393
-7.9632411 44.54958725 6.563335419
-8.375239372 52.07199478 13.04796886
-7.693690777 40.54988098 0.4710073769
-7.700105667 40.62322235 1.866430283
-7.611655712 40.66158295 3.261375189
-7.998442173 45.40609741 5.084993362
-8.435260773 52.01821518 9.309973717
-8.322827339 52.02187347 11.15462017
-8.205591202 52.08618927 13.03753853
-7.554452419 40.55418015 0.4633915722
-7.56144619 40.63577271 1.858602405
-7.472688675 40.67211914 3.253364086
-8.141770363 48.39552689 5.342349529
-8.365098 51.90329361 7.459676743
-8.252795219 51.98950577 9.292387009
-8.142642975 52.01687241 11.13999653
-8.026995659 52.10071564 13.02660656
-7.414843559 40.55401993 0.4558436275
-7.423535824 40.65580368 1.85092485
-7.333696365 40.68217087 3.24535346
-8.293941498 51.78400803 5.633444786
-8.187040329 51.91722488 7.44919014
-8.072012901 51.97587585 9.277338028
-7.965628147 52.04642868 11.13228416
-7.847706795 52.10685349 13.01386833
-7.276037693 40.56132126 0.4481694102
-7.28420639 40.66142273 1.842983723
-7.195057392 40.69570541 3.237557411
-8.114295006 51.77550125 5.621182919
-8.009645462 51.93843842 7.439687252
-7.8951087 52.00490189 9.269221306
-7.785851002 52.0440712 11.11843681
-7.669698238 52.12789536 13.00474453
-7.139240265 40.59004974 0.4401330352
-7.14288044 40.64464188 1.834640503
-7.05565834 40.70080185 3.229335308
-7.937016487 51.7921524 5.611217022
-7.830322742 51.93727112 7.427484512
-7.717411995 52.0254364 9.259843826
-7.607093811 52.0528183 11.10689259
-7.490999699 52.14054871 12.99381447
-7.001936436 40.6143074 0.4321570396
-7.005053997 40.66521072 1.82700038
-6.916267872 40.70540237 3.221115589
-7.758860111 51.79825592 5.600373268
-7.651223183 51.93745804 7.415533066
-7.538076401 52.02565384 9.24732399
-7.428930759 52.06876755 11.09687996
-7.312561989 52.15645981 12.98378754
-6.863492012 40.62614441 0.4243791699
-6.86628294 40.67533493 1.819176435
-6.777219296 40.71349716 3.213109493
-7.573588371 51.82633591 5.590960979
-7.472946167 51.94691086 7.404808998
-7.360133648 52.04297638 9.237631798
-7.242377281 52.09267426 11.08789539
-7.123220444 52.14528275 12.96695614
-6.723713398 40.62155151 0.4168752134
-6.719749928 40.67557144 1.81078577
-6.637536526 40.71313858 3.204684734
-7.394926548 51.82520294 5.579595566
-7.288417816 51.9920845 7.397981167
-7.181412697 52.04981232 9.226372719
-7.063263416 52.09559631 11.07559013
-6.945290565 52.16768265 12.9587326
-6.585559368 40.63639832 0.4090310335
-6.588666439 40.69411469 1.803530574
-6.498338699 40.71826553 3.196578264
-7.216901779 51.83138657 5.56893301
-7.11833334 51.99165726 7.386779785
-7.002568245 52.05406189 9.214804649
-6.893874168 52.10895538 11.06607819
-6.776435375 52.19267273 12.95190525
-6.455744743 40.67020035 0.4012233615
-6.448489189 40.68483353 1.795394778
-6.367805958 40.74629211 3.190117836
-7.046783924 51.82237625 5.557554245
-6.939542294 51.99329376 7.375327587
-6.833159447 52.06490707 9.204989433
-6.715029716 52.11457825 11.0545435
-6.598052502 52.2099762 12.94277668
-6.315978527 40.66415787 0.3937261403
-5.942883492 35.4125061 1.696681023
-6.22758007 40.73652649 3.18128252
-6.769806862 51.99565506 7.364621639
-6.654811382 52.07581711 9.194674492
-6.545110703 52.11893845 11.04351044
-6.42764473 52.21046066 12.9305582
-6.176289558 40.65763474 0.3862354457
-6.170585155 40.69670486 1.779691935
-6.088494301 40.7422142 3.173285007
-6.582655907 52.0045929 7.353649139
-6.47678566 52.09201813 9.185295105
-6.358247757 52.13961411 11.03452206
-6.239513874 52.21351624 12.91778946
-5.732572556 35.88508987 0.465218693
-5.702913761 35.43890762 1.683349609
-5.949282169 40.74541092 3.165185928
-6.413969994 52.02360153 7.34512949
-6.298034668 52.09576797 9.17404747
-6.188918114 52.15455246 11.02577114
-6.069467068 52.21865463 12.9069252
-5.898723125 40.66905212 0.370797962
-5.589753151 35.56624985 1.678596854
-5.810775757 40.76009369 3.157707214
-6.236500263 52.04655838 7.336591244
-6.119298935 52.0988884 9.16280365
-6.010410786 52.1655426 11.01576042
-5.89131403 52.24127197 12.89958858
-5.760887623 40.69100571 0.3627669811
-5.760406971 40.7064743 1.756474137
-5.672307491 40.77627945 3.150329113
-6.057628155 52.04311752 7.324912071
-5.942652702 52.14479446 9.158390999
-5.822227001 52.16071701 11.00221825
-5.70409441 52.26377487 12.89174652
-5.61482048 40.69087219 0.3547535837
-5.614943981 40.71860504 1.748373032
-5.526497364 40.78636932 3.142252207
-5.75488615 52.14713669 9.1466465
-5.643539906 52.16650009 10.99145508
-5.524857998 52.26370239 12.87948895
-5.4756217 40.68787003 0.3471704423
-5.476064682 40.72386169 1.740563512
-5.385803699 40.75767517 3.13263154
-5.576220512 52.15230179 9.136023521
-5.465143204 52.17950821 10.98220634
-5.345927715 52.27078629 12.86902046
-5.343408585 40.68406677 0.3399806917
-5.338186741 40.75060654 1.733104467
-5.405741215 52.13668823 9.122813225
-5.287097931 52.2036705 10.97522354
-5.167172909 52.2830925 12.85989094
-5.204983711 40.69609451 0.3320982456
-5.205647469 40.74260712 1.725494504
-5.227673054 52.15642548 9.1146698
-5.117365837 52.21112823 10.96571732
-5.257860661 45.60808945 1.793051481
-5.049977779 52.19134521 9.108991623
-5.103475094 45.65404892 1.784940004
3.402148962 36.22182465 1.195854425
3.500611067 36.0739975 1.188774824
4.284350872 35.5995369 1.141732812
13.3731308 71.49145508 1.131105065
13.98025894 73.32398224 3.728613853
13.71159458 71.75963593 1.117031097
14.12657452 71.76216125 3.649199724
13.25931835 66.93032837 1.078673005
13.43947887 66.67783356 1.066177726
13.64908791 66.59042358 1.054283619
15.15040112 70.76571655 3.558899164
15.77187061 72.09766388 3.594529152
15.45406342 70.51786804 1.011538625
12.31585693 56.96154404 3.037324429
16.19291496 70.35816193 0.9717321992
12.49573612 56.85264587 3.024804115
12.43110657 56.35282898 0.9869312048
12.6647625 56.74404907 3.012783051
12.65596008 56.44186401 0.9765933752
12.85869789 56.68582916 3.002096415
12.80647564 56.23939133 0.9663823247
12.97616005 56.37015915 2.982708693
13.00611305 56.20519638 0.9558008313
13.20390797 56.42761612 2.976044416
13.20338726 56.16261673 0.9452463984
13.35678959 56.27100372 2.962610006
14.27184582 58.82473755 5.166217804
13.36521339 56.03813553 0.9354758859
13.5284338 56.1435051 2.949788332
14.46527958 58.73655319 5.153345585
13.6294632 56.21206284 0.924261272
13.6958313 56.00403595 2.936624765
13.7874279 56.04130554 0.9141308665
13.65171432 55.19691467 2.901372433
14.73102379 57.53292084 5.049974918
14.28721428 55.90526199 2.908429146
14.87754154 57.3142128 5.02839613
13.96664238 54.6697998 0.8879865408
14.11073589 54.71854782 2.861188412
14.19764709 54.74155045 0.8772378564
14.24665833 54.50156784 2.845912933
14.38193512 54.63842773 0.8666831851
14.44584274 54.44609451 2.835550785
14.58953953 54.63639069 0.8562214375
14.55209351 54.14691544 2.817768097
14.69005871 54.20729446 4.788601875
15.52950287 56.27616882 6.989021301
14.2596817 53.05459976 0.8532227874
14.67901325 53.94344711 2.803567886
15.05538464 54.66497803 4.81447649
14.69265079 53.75190353 0.8401164412
15.5075798 55.76845551 2.854297161
15.08600521 54.18182373 4.775684357
4.002644062 22.46382523 0.9899603128
3.993209124 22.28922462 1.780644655
15.31269932 54.26372528 4.7759552
4.070450783 22.41677284 0.9859877229
4.090394974 22.32717705 1.778624892
15.54131603 54.28926468 4.771814823
4.033783913 22.06482315 0.9834956527
4.180212021 22.33139038 1.775375605
15.78409004 54.38100433 4.77254343
16.7029705 56.55514908 7.001930237
4.087186337 21.98195839 0.9798128605
4.098906517 21.87419701 1.757821798
16.00286865 54.37457657 4.766293526
16.87204742 56.41828918 6.984276772
4.065153599 21.71555901 0.9776488543
4.11794281 21.72271156 1.750264883
16.13495827 54.24599075 4.752824783
4.097114563 21.56756973 0.9742471576
4.159395218 21.60107803 1.743218541
16.22973061 53.90517426 4.72382164
4.123218536 21.40650558 0.9709824324
4.201374054 21.49386406 1.736816287
16.40382195 53.78105545 4.709734917
4.225524902 21.47287369 0.9667065144
4.362148762 21.70265007 1.740176201
17.12298584 55.11869431 4.795623302
4.131134987 21.008255 0.9657410979
4.483808517 21.80411339 1.740193605
17.34242439 55.15514374 4.792997837
4.078711987 20.66219139 0.9641389251
4.005249977 20.34760284 1.69270432
4.096960068 20.50509262 0.9613311291
3.967954397 20.06197357 1.681305528
18.26653862 56.40365601 4.867119789
4.123932838 20.38296127 0.9585190415
4.039403915 20.05771255 1.678488135
18.45013237 56.33197784 4.857171535
4.164147377 20.29620552 0.9554839134
4.092821121 19.99799347 1.673869371
4.075259686 19.87742805 0.954823494
4.069918633 19.74889946 1.663610935
4.240077496 20.06551933 2.395475626
4.115180016 19.78596306 0.9517545104
4.129545212 19.70769119 1.659616232
4.309067726 20.04422379 2.392237425
4.110799789 19.58702469 0.9495810866
4.209442139 19.71624565 1.657112241
4.33010006 19.9064045 2.381165266
4.130236149 19.44937897 0.9469750524
4.204636574 19.5194149 1.648560047
4.390911579 19.86634827 2.376716375
4.174890518 19.37462616 0.9438864589
4.281808853 19.52207184 1.645918369
4.484005928 19.90339088 2.377475023
4.246968269 19.36617661 0.9402478933
4.374637604 19.5612545 1.644346356
4.301142693 19.31509018 0.9369832277
4.388681889 19.41425133 1.637363791
4.570650101 19.74134445 2.363191128
4.381008148 19.32453728 0.9331845641
4.458681583 19.39960098 1.634251356
4.70756197 19.87825012 2.370687485
4.445971489 19.29876137 0.9297010899
4.552569389 19.4397068 1.632721305
4.764055252 19.82782364 2.365650177
4.523634911 19.30208588 0.9259460568
4.571366787 19.31598854 1.626633883
4.819484711 19.77540398 2.360505819
4.590965271 19.29003143 0.9225176573
4.675941944 19.37926865 1.625772953
4.887636185 19.75201225 2.35732317
4.694786549 19.35124779 0.9181787372
3.847529173 17.35179329 1.565714002
4.773772717 19.35538864 0.9143814445
3.851406813 17.20770264 1.559286714
3.976457357 17.42236137 0.9304534793
3.929719925 17.22938728 1.557550073
3.994945765 17.31066895 0.9282461405
3.926506281 17.07266045 1.550837636
4.016102314 17.20631599 0.9259989262
4.003835678 17.09211922 1.549060345
5.09352684 19.35234833 2.323062181
3.974198818 16.96782875 0.9252467155
3.932323456 16.79247665 1.538477182
5.270699501 19.56283379 2.335510015
3.988513708 16.85294151 0.9232158661
4.01304245 16.82753754 1.537284017
4.250141144 17.2432518 2.180648088
3.966840506 16.67077065 0.922147274
4.112323761 16.89341164 1.536812425
4.301867485 17.20554924 2.176871061
4.021763802 16.64461517 0.919190824
4.039910316 16.60012436 1.526567578
4.364474297 17.19780731 2.175154448
3.986281157 16.43091202 0.9184308648
4.155602455 16.69978523 1.527030349
4.188747883 16.69301987 2.140638828
4.039492607 16.40289307 0.9155429006
4.328124523 16.92053986 1.530837655
4.307982922 16.79714775 2.146291256
4.091663837 16.37960434 0.9127630591
4.18587923 16.49153137 1.51709187
4.334958553 16.71279526 2.139552116
4.143795013 16.34943199 0.9099094272
4.196515083 16.38371468 1.51212728
4.359594822 16.6315918 2.133104801
4.189552784 16.31326866 0.9072968364
4.232504845 16.32112885 1.508283615
4.469169617 16.71306419 2.137296438
4.248620987 16.29705429 0.9042771459
4.308756828 16.33877182 1.506574154
4.519659996 16.68322563 2.13425374
4.288659573 16.24316597 0.901743412
4.305264473 16.1993351 1.500748277
4.565497875 16.63761139 2.130140066
4.334796429 16.20165062 0.8990621567
4.369512558 16.19344902 1.498444557
4.679875851 16.72489738 2.13473773
4.402763367 16.20264244 0.8958232403
4.425522327 16.17133331 1.495725036
4.734966278 16.69649124 2.131781578
4.456052303 16.17496681 0.8929644227
4.581703186 16.34704971 1.498221993
4.709115505 16.51413918 2.118799448
4.519602776 16.17329216 0.8899133801
4.701731205 16.44442368 1.49855721
4.720447063 16.4044857 2.110595226
4.588695049 16.17525291 0.8866425157
4.835687637 16.56585884 1.499481678
4.871483326 16.56403732 2.120001554
4.69464159 16.24571419 0.8823909163
4.700209141 16.18265343 1.487577677
4.883383751 16.45586395 2.111934185
4.803070068 16.3191452 0.8780582547
4.790525913 16.22264099 1.48645699
4.909883976 16.37586975 2.105726719
4.909245491 16.38673019 0.8737709522
4.9884758 16.45877457 1.490248084
4.954161644 16.32915115 2.101705074
4.948769093 16.33097267 0.8712738156
4.989837646 16.33954811 1.485219955
5.013662815 16.31027222 2.099510193
4.969861984 16.24859238 0.8693577051
4.983720303 16.20823669 1.479926109
5.168563366 16.46885872 2.108879566
5.063405514 16.29732132 0.8654699326
5.054829121 16.21679497 1.478122354
5.130964756 16.29849625 0.8622879982
5.101568222 16.18148613 1.475241899
5.169543266 16.23542213 0.8597693443
5.192965031 16.21258163 1.473783731
5.241064072 16.24308205 0.8564789295
5.245280266 16.18053246 1.470892787
34.1470871 66.15213013 2.674823523
27.07654572 45.80554581 3.953922272
27.46753883 46.21291351 5.906301498
27.05558777 45.4575119 3.930361509
27.22654152 45.37430573 3.923611403
26.76273155 44.52769089 5.733484268
27.05761147 44.97774506 2.021377087
26.92365837 44.43592072 5.726838112
27.21367836 44.89125824 2.013970852
26.81951523 44.15477371 3.843547821
26.63412094 43.71987534 5.653722763
27.33729362 44.75840378 2.005634785
26.9556179 44.04486847 3.83536315
26.91391563 43.8157959 5.666996479
27.34430695 44.44523621 1.993345737
27.53404045 44.54125214 3.865591049
27.14606094 43.84220886 5.672968388
26.55385399 43.01750946 1.958429098
27.408535 44.06201935 3.834100485
27.11170387 43.48040771 5.637831211
28.10109901 44.68426132 7.675287724
26.75297737 42.98574066 1.952164173
27.49095917 43.86062241 3.820217133
27.21310616 43.30978775 5.623119831
28.23005867 44.54301834 7.662413597
26.94842148 42.96325684 1.946380377
27.66864777 43.79165649 3.814777374
27.10660934 42.87320709 1.938975453
27.70699883 43.5317955 3.79731369
27.53588104 43.14997101 5.613094807
27.24796104 42.75999451 1.931139588
27.2174511 42.57336426 3.735776901
27.17322159 42.35364532 5.531702995
28.74075317 44.30432129 7.651825905
27.47929573 42.76848221 1.925738573
27.41009331 42.53071976 3.732185364
27.51750565 42.51576614 5.552817345
27.9710865 42.96247482 7.457871914
27.46009445 42.43915176 1.913722396
27.71048546 42.63119125 3.737691641
27.39190292 42.04812622 5.506616592
28.11740303 42.85377121 7.45015955
27.61667442 42.34714508 1.906415701
27.48458672 41.87430573 5.49191761
28.18169785 42.6370163 7.426169395
27.54895592 41.81853485 3.684818029
28.15359306 42.45811462 5.558563232
28.30998802 42.52043533 7.416989803
28.19078445 42.52005386 1.899013042
27.77867317 41.82484055 3.684538364
28.59041214 42.58677292 7.436153889
29.47145653 43.5843811 9.512854576
28.21150208 42.24765015 1.888304472
27.92127609 41.7310257 3.678018093
30.39408302 44.46595001 9.701512337
28.14757347 41.8679924 1.875641108
28.46472931 42.13961792 3.70323348
28.06505585 41.47242355 5.465103626
29.14157295 42.69946289 7.471973896
28.32453918 41.80178833 1.868975163
28.438591 41.81118774 3.681975603
28.40533066 41.61713409 5.485049725
29.03407478 42.26515961 7.415241718
30.9929657 44.60741043 9.75998497
28.76292801 42.06854248 1.868546367
28.45007324 41.53367615 3.663991213
28.31734467 41.21556854 5.446237087
29.12369919 42.08425522 7.397208691
28.86188698 41.91453934 1.860522389
28.72291183 41.58856964 3.667036533
29.38516235 42.27223206 5.564804554
29.21769142 41.92439651 7.381977081
30.39989281 43.24914932 9.521292686
28.89140129 41.65917587 1.850404143
28.8894043 41.50774765 3.661573172
30.59685135 43.20901871 9.528047562
29.12236977 41.67208099 1.845529556
28.74346542 41.05186844 3.632521868
29.61292076 41.98430634 5.543043613
29.19588661 41.33287048 7.31046629
29.27931213 41.57696915 1.838424921
28.77514076 40.8061676 3.61676836
29.80553436 41.795784 7.391690254
29.01565742 40.97761154 1.822524905
29.50542641 41.44881821 3.657110929
29.536129 41.33979034 5.482653141
30.44433784 42.30075455 7.479260445
28.8894043 40.53898239 1.80939436
29.5952816 41.25723648 3.644866228
29.66414452 41.20986557 5.473609447
30.27220154 41.80059433 7.412624359
30.04087639 41.6431427 1.823521614
29.72297859 41.12674332 3.636538982
29.69690323 40.95102692 5.450894356
30.45965576 41.72382355 7.411881447
30.23372078 41.58771133 1.817181945
31.31155968 42.75283051 3.739027977
29.74937439 40.731884 5.432282925
29.91588211 40.93397903 1.800655842
30.55922127 41.55979538 3.663813591
29.86484528 40.58914185 5.422040462
32.17022705 43.19490433 7.661194324
29.97283173 40.71943665 1.791665792
30.36577797 41.04434204 3.631378651
32.10504532 42.97131348 5.686878204
30.37706947 40.9306221 1.790335894
30.50106239 40.93550873 3.62463212
31.89455795 42.42918396 5.633521557
22.72410965 31.66955376 1.626585245
30.8662796 41.0814209 3.634011269
31.88644218 42.14318466 5.607831478
30.55365562 40.57541656 1.773789048
32.04554749 42.03857422 5.602316856
21.88779068 30.27129936 1.594944119
23.1826458 31.672575 3.041041851
21.91400146 30.10570908 1.588513494
22.15047455 30.27510452 2.95314908
32.49682236 41.98044968 5.608128548
21.82343292 29.80788803 1.579929829
22.21986771 30.15884781 2.946095705
21.88301086 29.67304993 1.573918819
22.3046627 30.06041336 2.940203428
22.23681641 29.87006378 1.573367
19.9073391 27.16665077 2.75793004
22.77519798 30.27968407 1.576403141
19.97470284 27.05847359 2.751480103
22.49149132 29.76371574 4.285120964
22.49197769 29.76005173 1.564196944
23.04741096 30.27625847 2.955101013
23.3887825 30.56272697 4.377913475
22.16247368 29.19534492 1.551408529
20.00400734 26.7364006 2.731989145
22.42625618 29.30200005 4.243337631
22.27171898 29.11763763 1.546474218
23.06016159 29.89257622 2.931903839
22.48861694 29.17246246 4.233807564
22.41321945 29.07483673 1.54210937
20.29456329 26.69298363 2.730267286
22.27685547 28.74733162 4.191505432
23.43275452 29.89736176 5.717823029
22.14977646 28.59414673 1.530942321
20.4549942 26.6863327 2.730417967
22.64011383 28.94371986 4.218252182
23.53629875 29.80712509 5.713047981
20.56700706 26.70433235 1.498159409
20.48464203 26.53880882 2.721698761
22.32427216 28.41265488 4.164139271
15.44884109 20.82108688 7.262690544
20.41582108 26.36381721 1.489573956
20.22313118 26.08309174 2.693512678
22.45008659 28.35495186 4.16272831
23.52101326 29.39200592 5.666129112
15.42718029 20.79706573 5.268306255
15.46860218 20.7727623 6.255563736
15.52751637 20.7659893 7.262158871
20.52640724 26.30362892 1.485330343
20.13610458 25.81648254 2.677314997
20.55274391 26.17116547 3.923815489
15.48652935 20.78157043 4.293108463
15.46899509 20.70323372 5.258720875
15.54040146 20.7103672 6.252717972
20.35273361 25.94466209 1.476609945
20.16895866 25.67791939 2.669252396
15.47207165 20.69498825 3.315649748
15.5418911 20.70157814 4.287219524
15.45231342 20.67484665 1.395037532
15.50926208 20.66869164 2.352572918
15.5360918 20.63103485 3.312099457
24.40148354 29.73394012 5.750290871
15.49655533 20.64836884 0.4359668791
15.51278019 20.60009575 1.391346097
15.57663631 20.60113335 2.348920345
20.58320427 25.6981163 3.884792805
15.54719734 20.56324196 0.4330420494
20.3997364 25.49168968 1.460472584
20.09597206 25.1078186 2.635385513
20.46873474 25.40933418 3.857239485
23.92819786 28.85418892 5.628730774
15.64633274 20.52809715 0.4284243286
20.47969627 25.40259933 1.455962896
20.42229271 25.27240944 2.646683216
20.78477097 25.56055641 3.879243374
24.15665054 28.89215851 5.645274162
20.79095078 25.5482769 1.454856157
20.46072197 25.14229584 2.639321804
20.83964729 25.44517136 3.871293068
24.57627296 29.12043953 5.692966461
20.70060921 25.28609467 1.447893023
20.50980759 25.02353668 2.632714748
20.80104256 25.23658752 3.85283947
24.0669136 28.41693115 5.588974953
20.96357155 25.37991333 1.446030021
20.57108498 24.91743279 2.626945019
20.65384483 24.9217205 3.82233882
20.79055023 25.03801155 1.438040614
21.05627632 25.23166275 2.647951365
20.83525085 24.93458748 3.829002857
20.89025879 24.9771862 1.434197068
20.97142982 24.97947693 2.632968664
20.67828941 24.61422729 3.797850609
23.83963203 27.63728523 5.492745876
20.94127846 24.8683548 1.429708004
20.93384171 24.7840786 2.621569633
20.65810776 24.43854523 3.782868624
21.79405975 25.53235626 1.435619473
20.93105698 24.62398911 2.612444162
20.82039261 24.44073296 3.788203716
21.43839645 25.01730156 1.425445914
21.01357079 24.53899193 2.608194113
20.88643837 24.34115791 3.782248497
21.37388611 24.79610443 1.419490218
21.07702827 24.43574524 2.602814436
21.09486198 24.37768745 3.791943312
21.48305893 24.73418427 1.415542245
22.51410484 25.63903046 2.680964231
21.31854057 24.43519211 3.803872108
21.43675804 24.52461052 1.409674168
22.74690056 25.69575882 2.68588829
22.34965706 25.24302483 3.902583599
21.47669411 24.39787865 1.404935479
22.99488831 25.75618172 2.691170454
22.4677906 25.18465424 3.901848555
21.59964943 24.35744095 1.401491046
24.83422089 27.29704857 2.791367054
25.19515228 27.54900551 4.181310654
21.70177078 24.28892708 1.397545099
24.88348961 27.15911484 2.784131527
25.78730202 27.91950798 4.230680943
21.82283592 24.23760414 1.393832564
25.19239616 27.26947021 2.792787552
26.47960472 28.36606789 4.289521217
22.29350471 24.50571823 1.394112229
25.29001236 27.17502594 2.788432598
22.35045433 24.39286995 1.389623523
22.96509933 24.88500786 2.642884731
22.50343704 24.36700249 1.386224031
23.01583099 24.76352119 2.636720896
22.79357338 24.46315193 1.384302258
23.00849915 24.48974991 1.381523371
42.32316589 41.56616211 3.724635124
23.21981621 24.51979256 1.378931761
23.27341461 24.40151405 1.374443412
27.52973747 27.94686508 1.412285089
26.76267242 26.56306267 1.38311255
26.7004776 26.32995796 1.377182126
26.74595642 26.18868828 1.372299552
26.76797104 26.03734207 1.367511153
26.83224678 25.91266823 1.36287272
26.92697144 25.81318855 1.358525753
27.18136024 25.95513916 2.743130684
27.15327454 25.82058716 1.355297327
27.2808876 25.85844231 2.739376545
26.93958855 25.47121048 1.348455787
27.44360161 25.8035984 2.738554001
27.10150528 25.42630196 1.344742179
27.39749146 25.58989525 2.72718358
27.22478676 25.35853004 1.340974808
27.32095337 25.3622818 2.714776039
27.37932968 25.31500435 1.337457418
27.76898003 25.54989052 2.729833126
27.40444565 25.16035652 1.332719326
27.90818787 25.48295593 2.728278637
27.58187866 25.12508583 1.329147458
26.62060356 24.20762634 1.317354798
26.88892937 24.34609032 2.65865016
26.58587074 24.01360321 1.312453389
26.99106216 24.25614166 2.655595541
26.59627533 23.85528374 1.30792284
26.94022369 24.04963112 2.644807577
26.72471809 23.79540443 1.304463267
26.91781998 23.87433052 2.635968447
26.97695541 23.81978416 1.30160284
27.21032715 23.92792511 2.642635107
26.98132706 23.65723228 1.297112226
27.08198547 23.66592407 2.628201008
26.77284241 23.33772469 1.291323185
26.89755058 23.36470795 2.611126661
26.79930305 23.19419479 1.287092328
26.99590874 23.2819519 2.608601093
26.80091858 23.03304672 1.28275013
27.32890511 23.36177444 2.617262602
26.97925377 23.00896835 1.279710174
27.28553963 23.16663742 2.607406855
27.05715561 22.91147423 1.276084304
27.26168251 22.99492073 2.598983049
27.14019012 22.80953026 1.272295356
27.56242561 23.05569077 2.606381655
27.77086639 23.09623146 1.271532655
27.76012802 23.03304672 2.608359337
27.49925613 22.74948502 1.266026616
27.61618614 22.67001152 1.262453079
27.03313828 22.10401154 1.255331993
27.03971481 22.05584335 2.552107096
26.84832001 21.81927872 1.250382304
27.11817932 21.95296478 2.548681736
26.8695488 21.68596077 1.246715426
27.25242233 21.88809204 2.547919512
26.84916496 21.51708221 1.242689848
27.13342476 21.65104675 2.535303116
26.890728 21.39861488 1.239188552
27.81717873 21.96357155 2.560595989
26.98525238 21.30817413 1.235758305
27.31526566 21.47066307 2.530272722
26.85277557 21.0743103 1.231552958
27.30821991 21.31909943 2.523444653
26.84443855 20.91666031 1.227751255
27.4209137 21.23934364 2.521852016
26.91389275 20.81829643 1.224495888
27.51485062 21.15459633 2.519757032
27.00659561 20.72746468 1.221168995
27.52317238 21.00644302 2.513453245
27.12257385 20.65139961 1.217948914
27.36098289 20.75680542 2.499809027
27.24344254 20.57799911 1.214759231
28.1997757 21.14092827 2.531161547
27.39962578 20.52651596 1.211707592
27.57950592 20.48910904 1.208742142
27.25762367 20.14425087 1.204252243
26.92690277 19.79011154 1.199665666
26.890522 19.62843323 1.196293235
27.08317947 19.6946125 2.449757099
26.90100861 19.48903465 1.192937016
27.10752106 19.56320953 2.444758892
26.93824768 19.3663826 1.189694524
27.48715401 19.65449333 2.455657482
26.91503143 19.20760155 1.186308742
27.27302742 19.37893677 2.440307379
27.78415489 19.58993721 1.185568452
27.08482361 19.12146568 2.426227808
26.99774742 18.98338699 1.180324197
27.04002762 18.95829201 2.418762207
26.86923599 18.76445007 1.176778316
27.09963036 18.85731888 2.41585803
26.941679 18.66455078 1.173781872
27.34682274 18.85841942 2.420734882
26.87012672 18.48121643 1.170471668
27.47324371 18.78803635 2.420432091
26.90866661 18.36232758 1.167455316
27.16772461 18.46961403 2.401808739
26.91071129 18.22987366 1.164541364
27.12102318 18.30165291 2.394295216
26.96222115 18.11887169 1.16160655
27.42348099 18.33150101 2.401553631
27.51968765 18.29872894 1.159821868
27.47577477 18.2263298 2.398551226
27.317976 18.04467773 1.156420708
27.44856262 18.07003593 2.391995192
27.46860123 17.98741913 1.15370369
27.49296951 17.96096611 2.38875103
27.44023705 17.8313961 1.150698662
27.7188797 17.94408798 2.392796755
27.14811134 17.5399189 1.147469282
27.00868988 17.32681847 1.144403219
27.5392971 17.56677437 2.374897003
27.11868477 17.24865913 1.141735435
27.57841492 17.45568848 2.371607304
27.04291153 17.07166672 1.138843894
27.36021233 17.20188522 2.357615948
26.99815369 16.91213417 1.136035085
27.24331284 17.00359154 2.34786272
26.93136597 16.74202538 1.13324213
27.45886993 16.97950172 2.351643324
26.97476578 16.63659859 1.130736709
26.98695755 16.59997177 2.327725172
27.03297997 16.53212929 1.128134251
27.00942802 16.47750092 2.323840618
27.0506897 16.41374779 1.125649571
27.1927681 16.44345284 2.326668262
27.0938549 16.30178642 1.123080015
27.40570831 16.41644096 2.330432415
27.10260963 16.17274284 1.120510936
27.8558979 16.5129261 2.343830109
27.23094368 16.10324669 1.118041158
27.52025223 16.20465469 2.325623989
27.20473289 15.95730686 1.115502834
27.18734932 15.90789318 2.307914734
27.29758644 15.87655544 1.113173842
27.13973999 15.75933266 2.301766872
27.38202286 15.78476238 1.11073184
27.49497223 15.80529118 2.311424017
27.68816566 15.79860497 1.108366132
27.4554615 15.64731312 2.305212975
27.75616837 15.6975193 1.105936766
27.59160614 15.57967758 2.306101799
27.84663391 15.61349583 1.103650093
28.405756 15.83532333 2.333431721
28.20887566 15.65560722 1.101388931
28.41150665 15.70963955 2.329447746
28.41993713 15.61870289 1.098986983
27.36683464 15.00285816 1.096718073
27.11516953 14.75910378 1.094489813
27.22110367 14.68467903 1.092347622
27.7566185 14.88697147 2.287570715
27.16423798 14.53738022 1.090268135
27.78812599 14.77714348 2.284875154
27.22203255 14.44142246 1.088177562
27.96928787 14.73321152 2.2878654
27.31119728 14.35267067 1.085983157
27.53897667 14.41541576 2.267650843
28.44535637 14.77891922 3.520204782
27.23123169 14.19043255 1.083892941
27.66796494 14.34921741 2.268759012
27.20979691 14.04795742 1.081702471
27.40079498 14.10025024 2.254687071
27.322155 13.96280766 1.07945621
27.6440239 14.06983852 2.259742975
27.30336189 13.82206249 1.077320933
27.93537331 14.05789757 2.266574383
27.35773468 13.74380875 1.075661659
28.37849998 14.13272095 2.279758215
27.30430603 13.59579277 1.073707819
28.12490654 13.89866257 2.266612291
27.3113308 13.47323895 1.071732163
28.15850258 13.79032993 2.264317751
27.38648796 13.37850857 1.069715738
27.71749878 13.48434544 2.24447608
27.78972244 13.42106533 1.067471147
28.03219795 13.48386002 2.25240016
27.89639091 13.33697987 1.065433025
28.09257889 13.38072205 2.251033068
28.06586266 13.2833519 1.063431025
28.21189308 13.30685139 2.252014399
28.15143585 13.19614506 1.061535358
28.25092316 13.20127773 2.250103474
28.46104622 13.18838501 1.059276223
28.53780556 13.19080257 2.25717783
27.49775505 12.57065392 1.056928992
27.7989521 12.62613297 3.392956734
27.37893486 12.40319443 1.055351973
27.40743065 12.38245487 2.206343174
27.82649803 12.51256847 3.390185833
27.44136238 12.30379677 1.05354166
27.42098236 12.26522636 2.203633547
28.07482529 12.47385693 3.403338671
27.45264626 12.19168377 1.051913619
27.52605247 12.18759346 2.204378366
28.17483902 12.3921423 3.406153917
27.3262043 12.03003883 1.050528288
27.58016968 12.0911026 2.203332901
27.28946495 11.89562607 1.048948646
27.44572449 11.92122841 2.195487499
27.32383347 11.78691101 1.047275901
27.7082634 11.89863968 2.201876879
27.71278 11.80207157 1.044999719
27.41983986 11.67621899 2.188705683
27.36686325 11.56670189 1.044118643
27.43829918 11.56208992 2.186407566
27.40196037 11.45841026 1.042508364
27.39200592 11.42604256 2.181879997
27.46320343 11.3589468 1.040869117
27.77141762 11.44009972 2.192415714
27.47859955 11.2439909 1.039337754
26.06892776 10.75185871 2.130241871
27.54674911 11.14661121 1.037723541
27.77574158 11.19979286 2.186896086
27.53094101 11.02159023 1.036299348
26.14255524 10.54776096 2.127510309
27.56254005 10.92418385 1.034943342
26.1897831 10.46043396 2.126811028
25.04153061 10.039814 4.188893795
27.72685432 10.85717392 1.033180237
26.18480873 10.34497833 2.12408042
23.43753242 9.447115898 3.01795435
24.96694756 9.907277107 4.176064014
27.77109528 10.75732422 1.031757832
23.50901794 9.366685867 3.019671202
24.84657288 9.766623497 4.15861702
24.57570076 9.618343353 2.063838005
23.61502266 9.301782608 3.0240345
24.84494209 9.658392906 4.15383482
25.61201668 9.854106903 1.033932686
24.60631371 9.526103973 2.062690258
23.73570061 9.23563385 3.029292822
25.03128242 9.607767105 4.169340134
25.539711 9.721194267 1.032864571
24.62471199 9.42480278 2.061039925
26.09295273 9.844826698 3.192736149
25.06141663 9.508871078 4.168072224
25.56109238 9.622681618 1.031664252
24.6676445 9.330927849 2.060258627
23.84471321 9.061745644 3.030527115
25.32997131 9.486380577 4.192657948
24.69108772 9.231199265 2.058843851
23.82562256 8.957982063 3.026168346
25.3539505 9.384774208 4.190804958
28.00747681 10.12398434 1.023416758
22.55980682 8.507791519 1.98443985
23.75580406 8.834619522 3.018132448
25.40285873 9.295868874 4.191894054
25.05581665 9.171609879 5.206820488
27.81655884 9.949696541 1.022643447
22.56886673 8.412111282 1.982763648
23.70710754 8.723182678 3.011796713
25.21387863 9.133172989 4.167402267
24.98204041 9.048892021 5.191195965
27.79405403 9.825122833 1.021485925
22.62819099 8.335766792 1.982914567
23.75721741 8.635227203 3.01229763
23.99801445 8.681516647 4.033483028
24.97398186 8.940150261 5.184839249
28.15995789 9.810263634 1.019363999
22.70396805 8.258883476 1.983545423
23.69559097 8.515802383 3.005008459
24.0632515 8.596903801 4.036462784
24.99795341 8.840593338 5.183153629
28.0158577 9.657183647 1.018614173
22.73522377 8.169291496 1.982699871
23.71809769 8.42028141 3.003663778
24.06168938 8.498747826 4.032574654
25.02539635 8.7420187 5.182034492
27.5759964 9.424212456 1.01866889
22.81505203 8.097845078 1.983605742
23.7505188 8.332573891 3.00319767
24.05594254 8.3996315 4.028296947
25.19264412 8.686681747 5.201213837
27.69046021 9.33881855 1.017249584
22.93715096 8.037413597 1.985946894
23.91176224 8.279488564 3.011751652
24.02807045 8.289666176 4.021538734
25.37705803 8.634943962 5.222859859
27.60760307 9.200147629 1.016375303
23.01716995 7.95518446 1.986712694
24.15136909 8.241122246 3.02563405
25.96540451 8.700356483 4.223150253
24.90320778 8.397580147 5.150165558
27.60346222 9.083013535 1.015314937
23.26200676 7.920726776 1.993092179
24.26875687 8.164004326 3.030878067
24.78340912 8.282662392 4.094092369
25.11893272 8.348731041 5.176167011
27.60715675 8.973941803 1.01430738
23.37798309 7.856287956 1.995268106
24.86455536 8.219985008 3.069644213
24.74407387 8.173156738 4.086406231
25.17024612 8.261590004 5.179018497
27.68161011 8.877357483 1.013071775
24.56683731 8.065080643 2.033128738
24.41288757 8.005297661 3.035702944
24.7557106 8.07183075 4.083987713
25.63807678 8.279745102 5.241118908
25.96772957 8.329549789 1.016896963
24.49204826 7.937171936 2.02876091
23.77163124 7.741328239 2.988627911
26.45585823 8.392954826 4.259731293
25.68981552 8.180145264 5.243616581
26.07042694 8.240431786 1.015626073
24.27578354 7.780157566 2.019842386
23.65115929 7.605975151 2.977610826
26.36711693 8.255381584 4.246459961
25.73419571 8.083904266 5.245364666
28.40187263 8.701234818 1.00798893
24.4665947 7.724244118 2.024439335
23.74607849 7.529133797 2.981666565
25.26333618 7.877915859 4.126655102
24.80962753 7.752969265 5.109930038
25.47338867 7.878165722 1.015561223
24.35220146 7.593741417 2.018976212
24.01350212 7.493092537 2.997648239
25.19648552 7.756492138 4.116168022
24.88531876 7.667447567 5.116382599
25.59873009 7.801119804 1.014338613
24.14385986 7.442032337 2.010466099
24.30430984 7.460768223 3.015238762
25.1969223 7.651556492 4.112822533
25.29252625 7.659367085 5.169746399
25.5345459 7.689764977 1.01377511
24.2140274 7.361984253 2.011249304
24.35889626 7.37671566 3.016693592
25.33615303 7.589456558 4.124425411
25.42472458 7.590199947 5.18444252
26.81710243 7.878324032 1.00911355
24.23636818 7.265533924 2.010406017
24.06893349 7.213520527 2.994504213
25.46981239 7.514756203 4.135138512
25.5007515 7.507480145 5.191247463
25.5800209 7.492251396 1.012063861
24.3138237 7.186611652 2.011475801
24.12967682 7.126545906 2.996360302
25.68757248 7.463450432 4.154846668
24.82560539 7.250673771 5.092031002
24.29262352 7.080267906 2.009263754
24.22414398 7.051808357 3.000676394
25.3605442 7.284919262 4.117445946
24.81546402 7.150764465 5.086900234
24.25629044 6.975984573 2.006665945
24.31167793 6.969977379 3.004432678
25.4409008 7.197572231 4.122725964
24.83314896 7.051976204 5.085562229
24.25774193 6.875180721 2.005261183
25.33421898 7.069785595 4.10853529
24.84161758 6.897779942 2.022853374
25.02689362 6.918841362 3.04894352
25.15974617 6.933848858 4.087508202
24.90625763 6.862398148 5.088391304
25.34078407 6.903893471 2.037736416
24.88837051 6.79186821 3.037434101
25.08211327 6.819299698 4.076653957
24.99952316 6.784273148 5.098035812
25.50736618 6.83861208 2.041804314
24.93507004 6.703789234 3.038613558
25.19509697 6.744244576 4.085702419
25.25180817 6.737931252 5.130012989
25.44556618 6.721108913 2.038414001
24.92279625 6.603700161 3.035812378
25.30890083 6.663516521 4.09472847
25.05524826 6.600392342 5.099135399
25.67450142 6.666888714 2.044541836
24.82891846 6.482595921 3.027401209
25.35414886 6.568644524 4.096673965
25.32448959 6.488377571 2.031831503
24.93242455 6.400501728 3.032464504
25.34770584 6.38880682 2.031301737
25.43463898 6.38830471 3.06453371
25.40005493 6.294649124 2.031741858
25.92245674 6.375054836 3.095703125
25.26135826 6.165284634 2.026059151
25.99433708 6.282540798 3.098669052
25.24910927 6.06489563 2.024544716
26.07089996 6.195777893 3.102082253
54.76385498 11.19083405 0.905816257
25.25619888 5.968115807 2.023681641
26.06072617 6.093382835 3.09966135
54.76389694 10.98153591 0.9048033953
25.3130703 5.874845028 2.024389029
26.08845329 5.992408276 3.099757195
54.78512955 10.78654003 0.9038062692
25.98854446 5.885882378 2.044947624
26.09025192 5.886991024 3.098145247
54.76398849 10.57411766 0.9029405117
54.83499908 10.55458641 2.967183828
26.18336105 5.802041531 3.102824211
54.78551102 10.36903095 0.9019691944
26.25259209 5.723150253 2.051315546
26.21796608 5.701811314 3.103509426
54.79841232 10.16267681 0.9010648727
54.88737106 10.15673828 2.964879513
54.78827286 10.11063862 5.026501656
54.81650543 9.957244873 0.9001813531
54.8678894 9.945579529 2.962311745
54.79629898 9.904541969 5.02398777
54.82398987 9.750306129 0.8993723392
54.8595047 9.736486435 2.960164547
54.81543732 9.700275421 5.022310257
59.45615005 10.31629276 12.10077667
54.86729431 9.569634438 0.8985503912
54.86317825 9.550196648 2.95864439
54.85059738 9.519181252 5.022082329
59.59925842 10.18915176 7.583132744
59.24579239 10.11693096 9.791952133
59.18883514 10.07730865 12.04820728
48.25266266 8.402835846 0.9207495451
48.26921082 8.38891983 2.747092247
48.24561691 8.360031128 4.575644016
59.24513626 9.914977074 7.542630672
59.21268082 9.890603065 9.78213501
59.20467377 9.858667374 12.04463482
58.62402725 9.745181084 14.21286011
48.2586937 8.219594955 0.920132041
48.2890358 8.207921028 2.746219873
48.22777557 8.174214363 4.57204771
59.28396225 9.698599815 7.542623043
59.21211243 9.669296265 9.776979446
59.23535919 9.642202377 12.04382801
58.64653397 9.530097961 14.21043015
48.25615692 8.035288811 0.9195779562
48.28371811 8.014345169 2.744534016
48.25276184 7.994550705 4.571405411
59.27866364 9.476150513 7.538210392
59.22402573 9.438830376 9.773457527
59.20817947 9.406853676 12.03281307
48.27674866 7.854295254 0.9189767241
48.30025101 7.833084583 2.743672132
48.2743721 7.805312157 4.570504189
59.3080864 9.258538246 7.537479401
59.25917053 9.222651482 9.773547173
59.21580124 9.187538147 12.02834988
59.24827576 9.173463821 14.32349968
48.29670715 7.673259258 0.9184113741
48.30425644 7.650229454 2.742468357
48.30086136 7.635005951 4.570226192
59.29333115 9.035214424 7.532344818
59.2744751 9.014878273 9.771269798
59.23492432 8.980854034 12.0263443
59.23576736 8.952062607 14.31423759
48.30496597 7.499921799 0.9179423451
48.30646515 7.476468563 2.741326809
48.29229736 7.451093674 4.567568779
59.31983948 8.828457832 7.531731129
59.26292801 8.792802811 9.765200615
59.26118851 8.775114059 12.02573967
59.26190567 8.746757507 14.31363869
48.31660843 7.327093601 0.9174922109
48.32793427 7.305204868 2.74084568
48.30176926 7.278753281 4.566297531
59.34960175 8.622104645 7.531560421
59.28269958 8.585833549 9.763816833
59.27894974 8.568350792 12.02381325
59.26209259 8.53827858 14.30776119
48.30693054 7.142599583 0.9171280265
48.33295822 7.131966114 2.73989439
48.29085541 7.104047298 4.563732147
59.32862854 8.398591042 7.526146412
59.30572128 8.379285812 9.763014793
59.28752136 8.349527359 12.02019405
59.27453613 8.32045269 14.3043499
48.34029388 6.96336174 0.9166452885
48.35433578 6.951610565 2.739456415
48.32004547 6.925104618 4.563829422
59.33452606 8.17855072 7.523605347
59.30569077 8.159078598 9.758969307
59.30512238 8.131891251 12.01832199
59.2959404 8.103736877 14.30302715
48.33226776 6.788493156 0.9163581133
48.36317444 6.769804478 2.738677263
48.3327446 6.744253159 4.562900543
59.33841324 7.96942997 7.521131039
59.32260895 7.940944672 9.757411003
59.3141098 7.913331509 12.01513004
59.29397202 7.895417213 14.29726982
48.36042786 6.608662605 0.915958643
48.36342621 6.587156296 2.737682343
48.36366653 6.574534416 4.563350677
59.37049103 7.752495766 7.521502018
59.32970047 7.732784271 9.754829407
59.33488083 7.707121849 12.01438332
59.31778336 7.67909193 14.29684734
48.35614395 6.425302029 0.9157075882
48.37598419 6.415075779 2.737178564
48.3513298 6.391068459 4.560902119
59.42556 7.537920952 7.52434063
59.3490715 7.515052319 9.753894806
59.34043121 7.488360405 12.01093578
59.33110046 7.461667538 14.29442024
48.36315536 6.243273258 0.9154498577
48.38982773 6.224933624 2.736678123
48.36613083 6.210574627 4.560343266
59.39675522 7.31458807 7.518737316
59.36484146 7.285964966 9.752445221
59.35022736 7.259197235 12.00819397
59.36119461 7.246000767 14.29571819
48.37350082 6.061647892 0.9152136445
48.40009308 6.043583393 2.736166477
48.38516617 6.021455288 4.560072899
59.44636154 7.099318027 7.52125597
59.39250565 7.069107056 9.75295639
52.03585815 6.325547218 10.73514271
52.0368042 6.313416958 12.75393867
48.39515686 5.881182194 0.9149700999
48.40971756 5.862211704 2.735690117
48.4017868 5.850276947 4.559862137
52.11059189 6.182320118 6.770784378
52.08399582 6.16789341 8.744779587
52.0632019 6.144345284 10.73662853
52.05516815 6.122093678 12.75371552
48.40340424 5.70855999 0.9148134589
36.60388184 4.599947453 2.363152742
48.41469955 5.66966629 4.559409142
52.10391998 5.997044563 6.768172264
52.07427979 5.97310257 8.740787506
52.06835175 5.961059093 10.73440647
52.06224823 5.939391613 12.7514925
48.40310669 5.535225868 0.9147171974
48.45931625 5.52057457 2.735923529
48.39836121 5.495573521 4.557144642
52.14419556 5.816064835 6.770442486
52.07882309 5.789440632 8.739008904
52.09056091 5.779355526 10.73527813
52.07846832 5.757553101 12.75134945
48.41098022 5.353582859 0.9146194458
36.60157776 4.332551479 2.362131834
48.41722107 5.324696541 4.557295799
52.14901352 5.622195721 6.769104958
52.10645294 5.607807636 8.740521431
52.08156586 5.585303307 10.73073578
52.09879684 5.566414356 12.75205135
48.41622543 5.171775818 0.9145640731
36.94599533 4.220336437 2.372531176
48.43227386 5.144396782 4.557210445
52.15711975 5.428675652 6.768209457
52.11056137 5.414504051 8.738807678
52.09741592 5.393435001 10.73065472
52.12431717 5.375668049 12.75401878
48.45201492 5.001556873 0.9144322872
36.5029335 4.04389143 2.358197927
48.45863724 4.964993477 4.557955265
52.15189743 5.243870735 6.766141415
52.12189484 5.221855164 8.738217354
52.1086731 5.201207638 10.72992992
52.12305832 5.19243288 12.75070953
36.82116318 3.941928387 0.9559982419
36.34817886 3.892262936 2.352981329
48.47176743 4.793576241 4.557940006
52.16661835 5.050985336 6.76612711
52.12394333 5.038198948 8.736579895
52.12641144 5.019135952 10.73060322
52.10627365 4.998497963 12.74416256
48.4687233 4.647613525 0.9144578576
36.3478775 3.759827375 2.352679729
48.46905136 4.611958504 4.556899548
52.19189072 4.868549347 6.767361641
52.14582443 4.846356392 8.737690926
52.12849045 4.826295376 10.72859097
52.1408577 4.818045616 12.74869156
48.46750259 4.465473652 0.9145550728
36.33764267 3.619822502 2.352091789
48.46507645 4.439422131 4.555891037
52.20529556 4.675542831 6.767421722
52.16243744 4.663772583 8.73829174
52.13319016 4.643340111 10.72729301
52.1559639 4.626483917 12.7491684
48.46764374 4.28351593 0.914680481
37.05656433 3.534265518 2.374469995
48.47704697 4.258963108 4.555978775
52.21406555 4.482221603 6.767115116
52.1592865 4.470226288 8.73622036
52.1457634 4.451295376 10.72739506
52.13132858 4.432410717 12.74150658
48.57493973 4.108256817 0.9144570231
48.50027466 4.095928192 2.733843327
48.5162735 4.080180645 4.557955742
52.20229721 4.287676811 6.764826298
52.11590195 4.274346352 8.728760719
52.08880997 4.25505352 10.71562576
52.1529007 4.241355896 12.74369431
48.50593948 3.922056675 0.9148952365
48.50708389 3.914763212 2.73387289
48.51902771 3.899074078 4.557583809
52.15011978 4.090993881 6.758535385
52.17469406 4.084693432 8.73544693
52.1925087 4.06843996 10.73179626
52.18358994 4.05074358 12.74796391
48.51815796 3.740857363 0.9150767326
48.51924133 3.733927727 2.734125853
48.51715851 3.717782497 4.556983471
52.25222015 3.903032303 6.768037796
52.18930435 3.892330647 8.736201286
52.19914246 3.87597084 10.73133183
52.19797897 3.859139442 12.74900055
48.52528 3.5684762 0.9152966142
48.53876877 3.553440571 2.734665394
48.52262497 3.53695941 4.556946754
52.26177979 3.719481707 6.768272877
52.20324326 3.699923277 8.736992836
52.19132233 3.682818174 10.72852135
52.20927048 3.676959276 12.74965191
