# .PCD v0.7 - Point Cloud Data file format
VERSION 0.7
FIELDS x y z
SIZE 4 4 4
TYPE F F F
COUNT 1 1 1
WIDTH 1284
HEIGHT 1
VIEWPOINT 0 0 0 1 0 0 0
POINTS 1284
DATA ascii
6.260467052 8.75352478 1.17894268
6.263995171 8.73576355 1.615899801
6.297461987 8.739157677 2.056251287
6.312627316 8.727772713 2.498308182
6.317349911 8.710713387 2.942501307
9.466268539 11.15313435 4.719837189
6.285029411 8.727437973 0.3015138209
6.26946497 8.728096008 0.7407715321
6.284651279 8.716978073 1.177536011
6.300614834 8.70925808 1.615014195
6.301288128 8.686543465 2.052596331
6.364760399 8.713543892 2.500471354
11.1689043 12.48793793 3.843397856
10.44653893 11.88390827 4.341285229
9.544898987 11.14237022 4.730009556
6.295068741 8.679475784 0.3015388548
6.295128822 8.692685127 0.7394523025
6.31966877 8.689061165 1.176222324
6.37007761 8.708629608 1.615852952
14.09013462 14.73357391 3.587924957
11.06435966 12.32369614 3.814375401
13.376791 14.09745979 5.009271145
9.489553452 11.02667427 4.702995777
6.334784031 8.668344498 0.7376202941
16.68946648 16.71184921 3.045887232
11.57190704 12.66879177 3.223865509
10.20632076 11.57426357 3.645638466
12.90977669 13.64112091 4.888552189
9.506175041 10.96769142 4.696093082
16.66927147 16.5889492 3.036299944
11.66054916 12.66204166 3.229286432
10.2180748 11.51113319 3.639513969
11.06769562 12.13842392 4.453343391
9.509766579 10.90603352 4.686819077
16.65321732 16.47001457 3.027197123
11.6741848 12.59275913 3.223801613
10.29860592 11.50108624 3.646144629
10.53626823 11.65513611 4.321012497
9.628176689 10.9288044 4.708628178
16.61444664 16.33435631 3.016014814
14.06721783 14.33993912 3.549803257
10.29583549 11.427001 3.637436152
10.57518959 11.60796738 4.319488049
9.74394989 10.94509315 4.729056358
16.72426414 16.26186752 3.910158873
12.13697529 12.7464819 3.966386795
10.43652058 11.42664623 4.27752018
9.755414963 10.88194752 4.72090435
14.65797424 14.59828377 3.614451408
10.43997955 11.38510323 3.646764755
10.1818409 11.16022491 4.209490776
10.46590328 11.34543991 4.903789997
14.6546545 14.49727058 3.605032444
10.50787926 11.36423302 3.651088476
9.991599083 10.94853592 4.157011509
10.42843342 11.24268913 4.881944656
16.51955032 15.82974339 2.976798773
15.94938564 15.36200523 3.774181843
10.56171417 11.32881355 3.652436018
10.07870865 10.94065762 4.167051792
10.2221117 11.01624012 4.814569473
16.55540657 15.74837875 2.972696781
16.55302238 15.70315838 3.847478628
10.58200264 11.26850414 3.647734165
10.19130421 10.95092964 4.182803154
10.2020359 10.92868423 4.797911167
15.59502888 14.89904213 3.707535028
14.37280464 13.9645052 4.323036194
10.17849541 10.86898422 4.170342922
10.22563362 10.87705231 4.793699741
16.35939598 15.39608574 2.940196037
16.03586006 15.11835861 3.758467436
13.63912487 13.34194756 4.181224823
10.18587875 10.80574417 4.162985802
10.26660824 10.83444691 4.793664455
15.82338715 14.86659336 3.720932007
14.54298306 13.90297413 4.333286762
10.31456661 10.826334 4.182301521
10.26919365 10.76786423 4.783948421
16.62252808 15.38030529 2.950473547
16.21757507 15.04769325 3.765227556
14.4748373 13.76427937 4.311298847
10.20634365 10.68051624 4.149300575
10.52161598 10.87574863 4.840433598
16.58033943 15.24436283 2.939483166
15.61178017 14.5178957 3.674980402
14.48563385 13.67810726 4.303030491
10.26911831 10.65726376 4.154455185
10.48428535 10.78033829 4.820105076
15.42140579 14.28851414 3.641130924
11.64257622 11.58347893 3.788638592
10.76161671 10.93611622 4.254667759
10.35848045 10.62353706 4.776458263
16.96670532 15.31736469 2.961307287
15.3914547 14.16926765 3.62857461
11.58866882 11.4713192 3.771095514
10.64157772 10.77876282 4.21876955
10.30241585 10.51334095 4.75101614
17.05439758 15.27259541 2.962214231
15.37557411 14.06063461 3.618008614
11.52950859 11.3525095 3.752345085
10.59015846 10.67058754 4.198211193
10.43064022 10.53146648 4.77437067
15.42555046 14.00305843 3.616713285
11.60490227 11.32756901 3.757414103
10.69217396 10.66888905 4.211449146
10.60420132 10.58332539 4.810088634
13.14105511 12.33625221 3.305624723
14.26946354 13.08096218 4.217076302
10.71139717 10.61353874 4.20700264
10.74118423 10.60527992 4.835530758
13.13971996 12.25060463 3.298224211
14.24794197 12.97613716 4.203810215
10.76955223 10.58113003 4.210651398
10.64696789 10.46979427 4.800400257
28.97450447 23.06855774 1.255408764
16.46640205 14.45748997 2.88249445
13.20054913 12.20746136 3.299082756
14.26691151 12.89930058 4.197721958
10.58281136 10.35577202 4.773352146
16.53335571 14.40154362 2.881920576
13.34181881 12.22239399 3.310875893
14.36941814 12.87869263 4.206228733
16.99277878 14.59745598 5.541614532
10.56520081 10.27724266 4.759110928
16.92106628 14.56508732 2.910125494
13.59118557 12.30421543 3.336409569
14.7055521 13.01745796 4.255681992
16.99203873 14.49987411 5.529447079
10.56677151 10.2083807 4.749461174
16.97352219 14.49749851 2.908212662
14.12276363 12.5752182 3.398981333
14.28680992 12.65013313 4.173957825
13.62015152 12.17706871 4.790142059
10.79514313 10.29231453 4.799093246
17.13045502 14.46516228 3.7828269
14.38847542 12.63300037 4.182878017
11.16652012 10.49199486 4.252851009
10.49206161 10.0242548 4.710852623
15.85759258 13.56349087 2.797431707
17.13995361 14.36405182 3.77519989
10.82575035 10.22194767 3.561303616
11.06441879 10.34997559 4.221745014
10.60901165 10.0278883 4.730750561
15.81291866 13.43871117 2.787509918
15.62444496 13.28114414 3.571031094
17.10923576 14.20940018 4.630589485
11.16838741 10.34559155 4.235335827
11.05029869 10.24236679 4.834311485
30.56061745 22.96989059 1.233642101
15.47963524 13.09887791 3.545095205
13.81704044 11.99857712 4.058050632
11.36372757 10.39890385 4.268367767
30.81059265 22.96249962 1.23051703
15.35268593 12.92513466 3.5212605
13.01520157 11.40823936 3.913412094
13.68225288 11.80134678 4.753101826
10.59953117 9.819627762 4.700008392
31.14811897 23.01775169 1.227903128
15.09165573 12.67268562 3.480798006
17.71018982 14.29266548 4.702949524
13.24365234 11.442132 4.650217056
10.65211582 9.788118362 4.704462528
31.36184311 22.98357391 1.224607468
15.08371735 12.57759666 3.472552061
16.1776123 13.23466206 4.433651447
13.70075798 11.65127563 4.737827301
11.00318336 9.939026833 4.784293652
31.59391594 22.9681263 1.221571684
15.02270699 12.45435429 3.45798564
13.1625948 11.2645998 3.914958954
13.36485577 11.36451435 4.657744884
11.07953453 9.920441628 4.794625759
31.86359406 22.97468185 1.218651056
15.00165844 12.35675716 3.448601961
16.13792419 13.02598476 4.408839226
15.69909286 12.72581482 5.13997221
11.12426949 9.882008553 4.796956062
32.10184097 22.95136642 1.215408683
15.47274113 12.59048843 2.719239473
15.05160809 12.29890919 3.447936296
13.30843258 11.20266628 3.924659014
13.61521912 11.36086273 4.691998482
11.01852322 9.748270988 4.760906219
32.34375381 22.92875481 1.212168097
15.48611546 12.50796127 2.714932442
15.02667236 12.19530392 3.437854528
13.7670784 11.40176678 3.993776083
13.67004204 11.31307888 4.694095612
11.0257988 9.684164047 4.753509998
32.60771942 22.92662811 1.209183335
15.29190445 12.27229023 3.464716196
13.93914032 11.42391872 4.01465559
13.10564804 10.89250278 4.56694746
13.04970551 10.83419514 5.252667904
32.87247086 22.91459465 1.205986738
15.13022232 12.08639812 3.437543869
14.12671471 11.45822525 4.038440704
13.32452011 10.94915962 4.604058266
12.98169231 10.71623039 5.225332737
15.14514351 12.00761032 3.432653904
13.99996662 11.30019951 4.009485245
13.52876377 10.99151611 4.637540817
13.10833073 10.71424103 5.246786594
33.5748558 22.98813629 1.200017214
15.26930428 11.99360561 3.441449642
13.70178986 11.04260635 3.952295065
13.5943327 10.95075607 4.642161846
13.08670902 10.62447357 5.231260777
13.60539627 10.90617371 3.928817034
13.0968914 10.58130169 4.530437946
12.99537945 10.49847317 5.199039936
13.6161356 10.83708382 3.92353797
13.53264332 10.76072311 4.612154961
13.04900074 10.45345211 5.202456951
16.09699249 12.21402073 3.524366856
13.66091824 10.78384781 3.923554182
13.6829586 10.76866531 4.634371758
13.15001011 10.43538952 5.21763134
16.11211014 12.13228607 3.519478083
14.13017368 10.97303772 3.993267298
13.6436367 10.66749382 4.617615223
14.31327534 10.99605656 4.015820503
13.68269062 10.61520481 4.617456436
14.40869617 10.97250557 4.024352074
13.58764172 10.48761177 4.589951515
13.64813423 10.49428654 5.311932564
14.4540081 10.92045498 4.024716377
13.61058331 10.42293453 4.586238384
14.40908432 10.81022263 4.009721756
13.54182243 10.30388641 4.563538551
14.22128487 10.62636185 3.972051382
13.62453556 10.2725296 4.572120667
13.56520653 10.15979671 4.551571846
13.9629364 10.33571815 3.916980505
13.53184891 10.07707882 4.538009167
13.94855118 10.25009441 3.907822609
13.64530945 10.06195164 4.55291748
14.03345108 10.21765041 3.914685249
13.74146461 10.03692913 4.56432724
13.79946327 9.995095253 4.568474293
45.74697495 18.92254066 4.691390514
45.80059433 18.56457901 4.681107998
50.27761841 20.01060486 3.002684116
45.87045288 18.21330643 4.672332764
47.19485474 18.15392113 2.87493062
45.91876984 17.3463726 2.821402788
45.32632446 17.10443115 4.600427151
45.97576523 17.17437172 2.818941593
45.47595596 16.77736855 4.598326206
46.46857834 16.95205116 2.827279329
45.20789337 16.50378227 4.572936058
45.39509583 16.37675476 4.580106258
45.73929596 16.30719185 4.598777771
46.59900665 15.85730171 2.807125568
46.74409866 15.71993542 2.808330536
45.64138412 15.21830559 2.767237425
48.77409744 16.08833504 4.777911663
49.81023407 15.88338852 0.9640215039
49.48277664 15.7593174 2.886086464
49.6925354 15.65044212 0.962341845
46.50566864 14.73689556 2.782111883
49.67935181 15.45731735 0.9605320692
46.74640274 14.61550999 2.786640167
46.79388046 14.44062138 2.784722567
45.69602203 13.76003361 4.520560741
45.97459793 13.64033222 4.534806252
48.71501923 14.19109344 2.835301161
46.00872803 13.4751215 4.532616615
46.50517654 13.41653442 4.562272549
47.50437927 13.11286449 4.617621422
46.84498596 12.80510139 2.757993221
47.97097397 12.85668755 4.640983582
47.46041489 12.59548378 2.77270174
47.28270721 12.52038097 4.589511871
47.57883072 12.43573952 2.773743629
48.13050461 12.1497221 4.63503933
46.18296432 11.54481888 4.497775078
65.43135834 15.00492859 0.881119132
47.71311569 11.29346275 6.427675247
65.86981964 14.85550308 0.8782363534
47.55205154 11.08589363 6.406199455
47.62165833 10.73185635 6.403796673
60.61724472 13.07638741 3.169641256
47.99955368 10.49466133 2.760133743
36.42174149 8.252074242 8.122264862
36.48699951 8.221712112 0.9680483937
36.53682327 8.215056419 2.388940573
36.47223282 8.180353165 3.808443069
36.51161575 8.164631844 5.240448475
36.48865891 8.078028679 0.9672995806
36.56205368 8.075735092 2.388115644
49.79566193 10.08290005 2.809642553
48.83241272 9.346158028 2.772922277
61.78737259 10.99468327 3.182874441
84.53801727 14.24353218 0.7971020937
44.30015945 7.280773163 2.616620064
40.02804565 2.068837166 0.9477421045
40.07575989 1.62179327 0.9489428401
1.024853706 0.7339442372 0.7687485814
1.034217477 0.7177087069 0.7681190968
1.02957356 0.7020178437 0.7685139775
1.022883654 0.6864504218 0.7690575123
57.77594757 -3.136381865 3.059558153
41.91061401 -2.39560318 4.148715496
42.28482437 -2.582619667 4.175968647
12.41499805 -3.936706543 1.684733748
-5.005963802 -51.72509384 4.168797016
-5.186215878 -51.61914825 4.173173904
-5.459768772 -51.79270935 2.352053642
-5.365113258 -51.49463272 4.17645359
-5.172791481 -36.65256882 0.6935703158
-5.639369965 -51.68542099 2.359881878
-5.54540205 -51.42736435 4.183091164
-5.818954468 -51.59350967 2.368053675
-5.725328922 -51.36146545 4.189818382
-5.439846992 -36.7440033 0.7070431113
-5.833104134 -48.04393005 2.291992903
-5.753508568 -48.01021194 4.001650333
-5.581803799 -36.93278122 0.7123321891
-6.001837254 -47.9993248 2.300595999
-5.920947075 -47.93967819 4.007451534
-5.825015545 -51.29375076 9.745515823
-6.173693657 -48.01603317 2.310713768
-6.088851452 -47.88651657 4.014295578
-6.002307892 -51.18510437 9.739290237
-6.367150307 -48.40138626 2.330049038
-6.277950764 -48.21348953 4.04393816
-5.062857628 -27.62680817 3.811838627
-5.004584789 -27.39672089 4.790501595
-6.180683613 -51.11133575 9.738911629
-6.561626434 -48.75803757 2.348831654
-6.471422195 -48.57360077 4.075746059
-5.161968231 -27.6146965 3.81679678
-6.322978497 -48.91344452 7.607808113
-6.359471321 -51.05271149 9.741125107
-6.762242317 -49.16979218 2.369166613
-6.669692516 -48.96879959 4.109855652
-6.568464756 -48.76380539 5.842519283
-6.538555622 -51.00529861 9.745283127
-6.966609478 -49.59270477 2.389967442
-6.873186588 -49.39906311 4.146291256
-6.736944199 -48.6803627 5.845289707
-6.712952137 -50.88637924 9.737598419
-7.171064854 -49.97491074 2.409903526
-7.074077606 -49.74884033 4.178050518
-6.903494835 -48.57649231 5.846121311
-7.378831387 -50.36426544 2.430194139
-7.283937454 -50.18540955 4.215286732
-7.071373463 -48.49986649 5.849584579
-7.066382885 -49.55649567 7.737442493
-7.358248234 -45.56232452 0.695009768
-7.593798161 -50.80858612 2.452095985
-7.500617027 -50.66888809 4.255616665
-6.584203243 -39.78732681 5.020868301
-7.515161037 -45.4908905 0.7044836283
-7.811721802 -51.25002289 2.47411561
-7.709396839 -51.01216888 4.287579536
-6.734849453 -39.88670349 5.039470673
-7.678956985 -45.50059509 0.7132481933
-8.030222893 -51.66068268 2.495514393
-7.940835476 -51.59329605 4.334383965
-6.862915516 -39.70379639 5.030839443
-7.836531162 -45.4420166 0.7225682139
-8.154279709 -51.92287445 4.365920544
-6.995037079 -39.58197784 5.028102875
-7.995317936 -45.39882278 0.7317406535
-8.475547791 -52.47529602 2.538678169
-8.383946419 -52.40265656 4.406959534
-7.272433758 -41.08555222 5.183442116
-8.148447037 -45.30135727 0.7413138151
-7.491645813 -41.05368042 3.711840153
-7.198033333 -38.70679855 4.961046696
-8.308390617 -45.27500534 0.7503066659
-8.284722328 -46.82498169 2.405704021
-7.56103611 -40.26029968 3.671295166
-7.33323431 -38.66319656 4.965792179
-8.467562675 -45.24212646 0.7593339682
-8.445874214 -46.75805283 2.413545609
-7.51518631 -38.39265823 3.563101292
-7.468558788 -38.62309647 4.970909119
-8.625260353 -45.1967659 0.7684364915
-8.603844643 -46.66473007 2.420644522
-7.679410458 -38.63600159 3.586916447
-7.560847759 -38.17071533 4.935582638
-8.793621063 -45.24624252 0.7768535614
-8.790981293 -46.83914566 2.435212612
-7.88160038 -39.21003723 3.631743908
-7.715135098 -38.32380295 4.959676266
-8.953957558 -45.22360611 0.7857789993
-9.004132271 -47.22932053 2.455947161
-8.911175728 -47.08430862 4.139235497
-7.871640682 -38.48616791 4.984805584
-9.109341621 -45.16070175 0.7949585319
-9.231326103 -47.71388626 2.479538918
-8.398634911 -41.21968079 3.77700448
-7.964992523 -38.0862999 4.954472542
-9.2660923 -45.11116409 0.80402565
-9.45181942 -48.11408615 2.500935078
-9.354848862 -47.9558754 4.215877533
-8.058415413 -37.71000671 4.926337242
-9.68112278 -48.56093597 2.523857355
-8.314380646 -38.17723083 3.600417137
-8.263411522 -38.27204514 4.991287708
-9.91308403 -49.07136154 2.548313141
-8.611690521 -39.43096161 3.689569235
-8.256854057 -37.11098099 4.88497448
-8.388246536 -35.1494751 0.8879550695
-10.10734272 -49.20103836 2.562392235
-8.530467987 -37.76264191 3.590614557
-8.369784355 -36.99364471 4.881883144
-5.251045227 -13.48104286 4.616804123
-10.26357555 -49.10729599 2.569462299
-8.655163765 -37.66921616 3.593200207
-8.528985977 -37.1809082 4.909711361
-10.43233395 -49.04352951 2.577916622
-8.661520004 -36.71721649 3.540085077
-8.618225098 -36.89118195 4.889386654
-10.61395931 -49.00960541 2.587773323
-8.751278877 -36.35765076 3.525557995
-8.740093231 -36.75315094 4.885136604
-10.80900574 -49.06799316 2.600409269
-9.001357079 -37.12384033 3.584451675
-8.873674393 -36.70340347 4.889766216
-5.025893211 -9.899610519 2.573807478
-10.97366619 -48.97865677 2.608108282
-9.174275398 -37.37639618 3.609629631
-9.069649696 -37.12674332 4.94176054
-5.055306435 -9.837057114 2.568108082
-5.275318146 -11.96492958 4.749923229
-11.14322281 -48.92435074 2.616856337
-9.119552612 -36.116745 3.535461903
-9.160266876 -36.82689667 4.920772076
-5.085753441 -9.784235001 2.563727379
-5.07651186 -10.23657131 4.263426781
-11.31034946 -48.85563278 2.625163794
-9.369306564 -36.87346268 3.593878984
-9.29570961 -36.83176422 4.930623055
-5.059275627 -9.359062195 2.508226633
-5.125317574 -10.29898071 4.285077095
-11.4605875 -48.68372345 2.630278349
-9.502200127 -36.8601799 3.601660967
-9.39972496 -36.63563538 4.920070171
-5.119409084 -9.509950638 2.531745195
-5.146259785 -10.17076302 4.252528191
-11.63692093 -48.67708588 2.640478611
-9.686300278 -37.16160202 3.630393505
-9.475915909 -36.27420807 4.892606258
-5.170336246 -9.595947266 2.546422005
-5.045113087 -8.909578323 2.806041241
-5.085770607 -9.513500214 4.069088936
-11.79878235 -48.58306122 2.647966623
-9.728697777 -36.63643265 3.603722334
-9.623895645 -36.36433792 4.911195755
-5.207248688 -9.591736794 2.548708916
-5.069776058 -8.855442047 2.799357176
-5.004669189 -8.547941208 3.091071844
-5.669611454 -12.86859989 4.511884689
-5.138044357 -9.621761322 4.1035676
-9.74118042 -34.75564194 0.9650110006
-11.95482922 -48.50971222 2.655566216
-9.881859779 -36.74584579 3.619754791
-5.390171528 -10.35620499 2.254076719
-5.190033436 -9.272985458 2.507353783
-5.109867573 -8.886534691 2.807679176
-5.102297306 -8.950310707 3.178854704
-5.317574978 -10.39049339 3.90147233
-5.576485157 -12.1378088 4.826561928
-12.1180687 -48.42843628 2.66342926
-10.0321312 -36.83299637 3.63437891
-5.422743797 -10.32221413 2.253308535
-5.251031876 -9.417188644 2.53015995
-5.13582468 -8.831940651 2.801065683
-5.647639751 -12.2874403 4.874192238
-12.25485992 -48.20100021 2.666616678
-10.18724155 -36.94314194 3.650627851
-9.999597549 -36.21764755 4.92457056
-5.257224083 -9.238931656 2.508276463
-5.169754505 -8.825848579 2.80293417
-5.015826702 -8.015189171 2.987411976
-5.092912674 -8.562194824 3.454549074
-5.699958801 -12.31711102 4.887605667
-12.41158009 -48.04244995 2.672463655
-10.37499809 -37.19086838 3.676718712
-10.14261627 -36.27041245 4.939584255
-5.30331707 -9.282874107 2.517380714
-5.202638149 -8.803796768 2.802170515
-5.031512737 -7.920755863 2.970310211
-5.429043293 -10.31910229 3.895679951
-5.750954628 -12.32337379 4.894626617
-12.57009029 -47.94592667 2.679754257
-10.58036137 -37.56065369 3.710803509
-10.39851665 -36.93921661 5.018473148
-5.349383831 -9.334746361 2.527493
-5.239248753 -8.812991142 2.806759834
-5.267930984 -9.075427055 3.218437672
-5.275080204 -9.211824417 3.623348951
-5.134979248 -8.505764961 3.802688122
-12.91159725 -47.80481339 0.9622799754
-12.73027039 -47.86067963 2.687395096
-10.73390102 -37.63918304 3.725259542
-10.53951168 -36.96308899 5.030808449
-5.475924969 -9.820944786 2.59835577
-5.163337231 -8.205573082 2.702836752
-5.102068901 -7.95922327 2.984347582
-5.437409878 -9.91431427 3.802527905
-5.152327538 -8.412327766 3.779416323
-12.83288288 -46.50996017 0.9749414325
-12.89562321 -47.80435181 2.69596982
-10.83597469 -37.44467163 3.721127033
-10.71519375 -37.16822433 5.062075615
-6.007656097 -12.44442081 2.968833447
-5.203743935 -8.245904922 2.712781906
-5.134735584 -7.962843418 2.988097191
-5.265287399 -8.758838654 3.51726532
-5.209832668 -8.54420948 3.821025848
-12.96033096 -46.28891373 0.9844861627
-13.05645752 -47.7258873 2.70381546
-10.96045303 -37.37134933 3.725252628
-11.12784576 -38.59156418 5.220614433
-5.715386391 -10.66641426 2.723165512
-5.207325935 -8.090528488 2.688202381
-5.294706345 -8.729247093 3.513376474
-5.224256039 -8.437383652 3.793905735
-13.09592628 -46.11458588 0.9938423634
-13.21649075 -47.64493179 2.71157074
-11.19175339 -37.8378334 3.766536951
-11.27933121 -38.63420868 5.235534191
-5.729139805 -10.52218914 2.706240654
-5.241290569 -8.097756386 2.692322016
-5.198736668 -7.962031841 2.993959665
-5.203960896 -8.068120956 3.35098362
-5.257896423 -8.43646431 3.797334909
-12.24234962 -41.18344498 1.01297307
-13.38485718 -47.60653687 2.720738649
-11.09066296 -36.64263153 3.693300724
-11.09266567 -36.98694611 5.073309422
-5.798312187 -10.66171932 2.729239702
-5.249791622 -7.975331306 2.673482418
-5.242394447 -8.021002769 3.009639263
-5.230807781 -8.038814545 3.3469522
-5.268348694 -8.31450367 3.765782356
-12.37737274 -41.09794617 1.021131158
-12.11226177 -40.62125397 2.49630022
-11.22070217 -36.61152649 3.70021987
-11.19050789 -36.79184341 5.062939644
-5.828400135 -10.60283566 2.724325657
-5.290047169 -8.015235901 2.68341732
-5.270449638 -7.999146938 3.008056164
-5.252214909 -7.982761383 3.336196899
-5.310087204 -8.356854439 3.781769276
-12.53319073 -41.14654922 1.028634548
-12.25940895 -40.60245514 2.504645348
-11.29133892 -36.329422 3.689247847
-11.24056244 -36.37251282 5.028886318
-6.249518871 -12.44344044 2.988189459
-5.332586288 -8.072672844 2.696373463
-5.303033829 -8.000225067 3.011408329
-5.278607368 -7.953321934 3.332139254
-5.336630821 -8.329561234 3.777433872
-13.68032551 -45.69478607 1.029775739
-13.98078442 -47.95678711 2.763617516
-11.43065166 -36.34642792 3.699506998
-11.34292698 -36.21413803 5.022239685
-6.290056705 -12.41646385 2.98814249
-5.422819138 -8.349479675 2.748633623
-5.341999054 -8.03985405 3.022922516
-5.309494019 -7.954581261 3.335671425
-5.366916656 -8.313156128 3.77646327
-13.84221077 -45.65708542 1.038689733
-12.50337982 -40.36761475 2.514169455
-11.54312515 -36.23809814 3.701033831
-11.50717068 -36.3798027 5.049386024
-5.6719594 -9.288962364 2.547749519
-5.473413467 -8.429140091 2.765892744
-5.376784801 -8.050243378 3.028347969
-5.370024681 -8.090338707 3.373414278
-5.427418709 -8.443589211 3.818233728
-14.0088253 -45.64027023 1.047570586
-12.63720798 -40.29083633 2.520514488
-11.66612148 -36.18010712 3.706084251
-11.63115311 -36.32369232 5.053627968
-5.712516785 -9.304278374 2.553007126
-5.454963684 -8.184981346 2.725296974
-5.429228783 -8.142792702 3.051538467
-5.389723778 -8.02824688 3.361186504
-5.434722424 -8.315817833 3.784925699
-14.18117523 -45.68516159 1.055946231
-14.45108032 -47.66611862 2.785471916
-11.79845715 -36.19522095 3.715841293
-11.76262856 -36.30212402 5.061575413
-5.740409374 -9.261404991 2.549990416
-5.482107639 -8.164687157 2.724533558
-5.456608772 -8.116509438 3.049134493
-5.426579952 -8.047735214 3.369633913
-5.473688126 -8.348363876 3.798124552
-14.28174782 -45.38275528 1.065048337
-14.58372593 -47.50653458 2.790005684
-11.98036385 -36.39709091 3.739316463
-11.77927685 -35.771698 5.015240192
-5.782283783 -9.290389061 2.55708766
-5.516278744 -8.168945312 2.728339195
-5.52312994 -8.275865555 3.08676815
-5.481536388 -8.15655899 3.400644302
-5.564288139 -8.60965538 3.878414631
-14.42273235 -45.25926208 1.073939443
-14.74832726 -47.44975662 2.798641443
-12.10405827 -36.33957672 3.744513035
-11.91135979 -35.7898941 5.026879311
-5.814291477 -9.266637802 2.556822062
-5.549631596 -8.169232368 2.731455803
-5.556298733 -8.266084671 3.088196516
-5.505110264 -8.11315155 3.393217325
-5.531133652 -8.301407814 3.792320967
-14.57568836 -45.15287018 1.08322084
-14.91461849 -47.36318588 2.806757689
-12.29095459 -36.52289963 3.767350674
-12.03297615 -35.7038269 5.028419495
-6.607786179 -12.52474022 3.028059006
-5.569832325 -8.17034626 3.070969105
-5.989698887 -10.10056782 3.90353179
-5.510470867 -8.051334381 3.723240376
-14.72514153 -45.03432465 1.09246552
-15.08092022 -47.27798462 2.81491518
-12.490448 -36.75191498 3.793599129
-12.19079018 -35.77219772 5.046594143
-6.709108353 -12.73459911 3.062668085
-5.694005966 -8.487066269 2.795370579
-5.627978325 -8.277048111 3.097594738
-6.011256695 -10.00948238 3.884977579
-5.590364456 -8.249578476 3.785559654
-14.92177391 -45.14245224 1.101238012
-15.23550415 -47.18262863 2.822166204
-12.58591938 -36.57247162 3.790209293
-12.43960762 -36.24372101 5.107850552
-6.636904716 -12.22210693 2.993019581
-5.729005814 -8.488615036 2.798897743
-5.650111675 -8.227293015 3.090213299
-6.104988575 -10.23823071 3.947944403
-5.628364086 -8.267936707 3.795016527
-15.02942562 -44.89290619 1.109977722
-15.39824009 -47.12169266 2.830645561
-12.69314289 -36.44512177 3.790524483
-12.58748817 -36.28691101 5.123095512
-6.132740498 -9.945410728 2.668010235
-5.762197495 -8.482374191 2.801037788
-5.668733597 -8.164180756 3.079904318
-5.670152187 -8.23468399 3.439438581
-5.73934269 -8.59489727 3.89538312
-15.19636917 -44.88150787 1.118724823
-15.55579758 -47.0408287 2.838402987
-12.83342934 -36.45298004 3.800590038
-12.5456543 -35.56311417 5.05522728
-6.153481483 -9.866638184 2.660049915
-5.794909477 -8.474101067 2.802829266
-5.694794655 -8.133370399 3.076643229
-5.700185776 -8.219063759 3.439246893
-5.746935368 -8.479922295 3.865773678
-15.34940147 -44.84833145 1.127023697
-15.70657349 -46.96934891 2.845961094
-12.99679375 -36.57802582 3.818725109
-12.69840813 -35.65953827 5.075680733
-6.165124893 -9.76143837 2.648053169
-5.807442188 -8.391589165 2.790962219
-5.759365082 -8.266239166 3.109088182
-6.216709614 -10.19791508 3.951308489
-5.778469086 -8.473788261 3.868026733
-15.51945686 -44.84737015 1.135778427
-15.86135578 -46.87972641 2.853386879
-13.19343948 -36.80115509 3.844580173
-12.87157726 -35.80570602 5.102196217
-6.810037613 -12.14742851 2.998709679
-5.834062099 -8.360245705 2.788556814
-5.767589569 -8.163036346 3.090004206
-6.2535429 -10.18029118 3.951488256
-6.065859795 -9.497333527 4.175058842
-15.61751175 -44.57522964 1.144272447
-16.02428818 -46.82247543 2.861997843
-13.01263905 -35.56973648 3.764331341
-13.06933689 -36.04158783 5.138665199
-6.850090504 -12.1143465 2.998121738
-5.886352062 -8.429953575 2.804615259
-5.891131878 -8.516803741 3.171385527
-6.316857815 -10.26790524 3.978821278
-6.022255898 -9.168880463 4.082594395
-15.76707172 -44.49988174 1.152899981
-16.17407608 -46.71639633 2.868796349
-13.16881847 -35.64577484 3.779343843
-13.19540787 -35.9708786 5.142264366
-6.986023903 -12.44902515 3.051297426
-5.920365334 -8.426965714 2.807441473
-5.874329567 -8.308697701 3.129443645
-6.91524601 -12.43343639 4.543097496
-15.90985394 -44.36981201 1.161863923
-16.34204865 -46.64617157 2.877459288
-13.2016468 -35.23389053 3.759008169
-13.2865057 -35.79579163 5.133871555
-7.029295921 -12.4147253 3.050884008
-5.953500271 -8.413887978 2.808609724
-5.87129879 -8.165622711 3.101537704
-6.957349777 -12.40388489 4.541268826
-5.787713528 -7.9620924 3.733676672
-16.06007004 -44.2992897 1.170443296
-16.49711227 -46.56222916 2.885064363
-13.34695816 -35.2705574 3.771152258
-13.42371655 -35.79523849 5.144670963
-6.343193531 -9.676934242 2.653245211
-5.989023209 -8.416363716 2.812483311
-5.904415607 -8.162583351 3.104520321
-5.824464321 -7.975864887 3.742007494
-16.2191391 -44.26100159 1.179057717
-16.65821075 -46.50088882 2.893520832
-13.48625851 -35.28357315 3.781603813
-13.54793262 -35.74621201 5.150177956
-7.065315723 -12.18080139 3.025305748
-6.039525986 -8.473818779 2.826510668
-7.07474947 -12.38602448 4.044085979
-5.866274834 -8.008057594 3.755882025
-16.39897346 -44.29523468 1.187806606
-16.81360245 -46.41976166 2.901226282
-13.58064461 -35.1346817 3.780063629
-13.818367 -36.22369003 5.214062691
-6.376285553 -9.509295464 2.635593176
-6.081590652 -8.498753548 2.834603786
-6.600470066 -10.5357933 4.073279858
-5.952831268 -8.205205917 3.819087267
-16.53362274 -44.17121506 1.196236849
-16.97299957 -46.35350037 2.909497023
-13.71599674 -35.133358 3.789500952
-13.9542284 -36.20967484 5.223683357
-6.378388882 -9.376882553 2.619532347
-6.198330402 -8.790958405 2.892168522
-5.987127781 -8.092428207 3.100052834
-6.044334412 -8.414809227 3.886250257
-16.65690231 -44.0103302 1.204542398
-17.12655067 -46.26749802 2.917009115
-13.89995098 -35.30023575 3.811581135
-14.12341785 -36.31179428 5.24630022
-6.434758186 -9.438871384 2.632215261
-6.221951485 -8.74514389 2.887341261
-6.023762703 -8.102143288 3.105960608
-6.476606846 -9.782167435 3.887021542
-5.942471504 -7.920167923 3.742658377
-16.82359886 -43.99869537 1.213169813
-17.27178383 -46.15415192 2.923453093
-13.98594379 -35.12533569 3.8081007
-14.63989925 -37.61092758 5.402781963
-6.422629833 -9.260838509 2.609309912
-6.244750977 -8.697390556 2.882146835
-6.051407337 -8.07973671 3.104734421
-6.522821903 -9.802915573 3.897348642
-5.946230888 -7.814893723 3.715468168
-16.96903038 -43.91557693 1.221604347
-17.43061829 -46.08826447 2.931729078
-14.0934124 -35.02682114 3.810332775
-14.42683601 -36.3859787 5.277340889
-6.453612328 -9.235091209 2.60897851
-6.19930315 -8.415113449 2.833303928
-6.078386784 -8.055368423 3.10308075
-6.786430836 -10.58237267 4.106386185
-5.993978024 -7.866789341 3.735460043
-17.13039589 -43.88555908 1.2301718
-17.59141731 -46.0295105 2.940284491
-14.26199341 -35.13441467 3.828161478
-14.56241322 -36.36593246 5.286571026
-6.542755604 -9.406726837 2.638109207
-6.234547615 -8.414757729 2.836836576
-6.130419731 -8.117263794 3.120768785
-6.828630447 -10.57771587 4.110524178
-17.27166748 -43.78997803 1.23853159
-17.74562645 -45.94915771 2.947996855
-14.36329079 -35.01596832 3.828917027
-14.6951561 -36.33585358 5.294727802
-6.605335712 -9.484909058 2.653403759
-6.261971474 -8.387848854 2.835434437
-6.150776386 -8.070149422 3.114063501
-6.365710258 -8.853639603 3.662903786
-17.40168953 -43.68682861 1.246406555
-17.90179825 -45.8759346 2.955988407
-14.92821312 -36.43652344 3.946496964
-14.80871582 -36.24252701 5.295787811
-6.630059242 -9.435825348 2.649695873
-6.350036621 -8.568724632 2.872757435
-6.144491673 -7.934971333 3.087538004
-6.394150734 -8.830613136 3.661240816
-6.058481693 -7.752588272 3.71421504
-17.5540638 -43.65578461 1.254502773
-18.04115486 -45.77804565 2.962448835
-15.13089561 -36.65327072 3.972767115
-14.9633131 -36.30671692 5.314114094
-6.677623749 -9.468652725 2.658103228
-6.384839535 -8.570206642 2.876586437
-6.196427822 -8.000642776 3.1060009
-6.439805984 -8.865067482 3.674748182
-6.108631134 -7.815356731 3.737496853
-17.70745659 -43.6007843 1.262940049
-18.18422508 -45.69308472 2.969415188
-15.29577255 -36.72043228 3.988227844
-15.03913021 -36.11592102 5.303580284
-7.172822475 -10.94395256 2.883804321
-6.438154221 -8.625588417 2.890762091
-6.151288986 -7.846138 3.751413107
-17.85235977 -43.49327469 1.271592498
-18.34130096 -45.59676361 2.977010965
-15.41407871 -36.61559296 3.991038322
-8.123734474 -13.74304104 2.767756462
-7.337188721 -11.31534004 2.944335938
-6.491808891 -8.674527168 2.903989792
-6.250144482 -7.94861412 3.102283955
-6.764228344 -9.667193413 3.896738052
-6.138762474 -7.6907897 3.70910573
-18.03399849 -43.49934769 1.280673623
-18.50768661 -45.53035355 2.985811234
-15.59956646 -36.7211647 4.010117054
-8.201535225 -13.80143261 2.779327393
-7.952048779 -13.09286118 3.218018293
-6.50963068 -8.608724594 2.895621777
-6.324996948 -8.078436852 3.135672331
-6.787865639 -9.60649395 3.886087418
-6.147966862 -7.609022141 3.689057589
-18.18740845 -43.44458389 1.289077997
-18.66696548 -45.46979141 2.994308949
-15.7646122 -36.78250504 4.025352955
-8.251547813 -13.7808466 2.781683683
-7.446866989 -11.35659027 2.95966363
-6.692302227 -9.064565659 2.98575449
-6.338506699 -8.012264252 3.124682903
-6.173025131 -7.58458519 3.686206579
-18.34188271 -43.39308548 1.297485352
-18.8203392 -45.39162827 3.002089024
-15.92711639 -36.83368301 4.039880276
-8.433896065 -14.16442966 2.830481529
-8.088181496 -13.17922688 3.241358995
-6.734324932 -9.0754776 2.991906404
-6.395368576 -8.081917763 3.144583941
-7.447721481 -11.41173458 4.377034187
-6.204947948 -7.582032204 3.690051556
-18.48588562 -43.31074905 1.305738449
-18.97210121 -45.30914688 3.009690762
-16.15442276 -37.07719421 4.069524288
-8.343804359 -13.71651936 2.783771038
-8.103157043 -13.0593462 3.228266239
-6.640861988 -8.672933578 2.91951108
-6.361213684 -7.870689869 3.100513458
-7.485862732 -11.38251209 4.375436306
-6.240430832 -7.590323925 3.697251558
-18.64183617 -43.26388168 1.314142823
-19.12858582 -45.24132538 3.017897367
-16.29249001 -37.04928589 4.078058243
-8.370720863 -13.62759113 2.778266907
-8.166848183 -13.08786488 3.237799883
-6.637644768 -8.551370621 2.90033412
-6.395471096 -7.871411324 3.104722023
-6.709766865 -8.874176979 3.711485386
-18.77008438 -43.13711548 1.322134376
-19.27703476 -45.15027618 3.025138617
-16.4356308 -37.03599167 4.08777523
-8.404748917 -13.56124973 2.775349379
-8.120646477 -12.78980446 3.197354317
-6.624851704 -8.40383625 2.876126766
-6.458240986 -7.95727396 3.128460884
-7.624649525 -11.51319504 4.422933578
-6.893767834 -9.367554665 4.252357006
-18.96054649 -43.18927002 1.33102715
-19.43223763 -45.07952499 3.03322649
-16.57107353 -36.99952316 4.095707417
-8.492564201 -13.65280628 2.790760756
-8.370446205 -13.36508942 3.290850401
-6.668045044 -8.424221039 2.883950472
-6.567949295 -8.179804802 3.183676243
-7.727226734 -11.67447948 4.472593784
-6.934451103 -9.369617462 4.258783817
-19.08070755 -43.04082108 1.338861108
-19.58511543 -45.00260925 3.041053772
-19.54724884 -45.10718155 4.749742985
-8.323003769 -13.00017834 2.719552517
-8.283855438 -12.95287323 3.232780695
-6.622519493 -8.185725212 2.842180252
-6.513648033 -7.917154789 3.127563715
-7.732385159 -11.5452404 4.444403172
-6.949339867 -9.295140266 4.241675854
-19.2351017 -42.98997879 1.347196937
-19.73769569 -44.92516708 3.048862219
-17.56077385 -38.96393967 4.273873329
-8.398432732 -13.05987644 2.731171131
-8.344532967 -12.9712019 3.240882874
-6.659361362 -8.18931675 2.846758842
-6.601851463 -8.07242775 3.167537212
-8.371569633 -13.2617178 4.913096428
-6.534833431 -7.967408657 3.837619305
-19.40025139 -42.96865845 1.355697513
-19.89058304 -44.84910583 3.056728601
-19.84955978 -44.94206238 4.763096809
-8.416497231 -12.95622253 2.723714352
-8.437698364 -13.08071041 3.263142586
-6.84373951 -8.612317085 2.932148933
-6.637004852 -8.072227478 3.17179203
-6.836457729 -8.689745903 3.687143803
-6.575180054 -7.983454227 3.847715378
-20.02160645 -44.19176865 1.371698737
-20.04043961 -44.76501083 3.064252377
-20.00383949 -44.86909103 4.770564556
-8.535941124 -13.13702297 2.749645233
-8.489748955 -13.07231426 3.267233372
-6.90194273 -8.670701981 2.947550058
-6.765337944 -8.335335732 3.237007856
-6.864753246 -8.662929535 3.685006142
-7.052071571 -9.245810509 4.244093418
-20.17656898 -44.12823486 1.380187869
-20.06898117 -44.35016251 3.057465792
-20.12984848 -44.71876526 4.771831989
-8.590281487 -13.13401318 2.754062653
-8.553228378 -13.09536743 3.276244402
-6.925985336 -8.632504463 2.944345236
-6.813978672 -8.369482994 3.249421597
-6.835084438 -8.473542213 3.638847828
-6.67169714 -8.058443069 3.88141346
-20.32220078 -44.03981781 1.388506413
-20.16140175 -44.11560059 3.058356285
-20.08262253 -44.10029984 4.735259533
-8.652184486 -13.15132618 2.760908127
-8.562653542 -12.96942902 3.262084007
-6.971982956 -8.655282021 2.95296216
-7.938925743 -11.38018799 3.953573704
-8.337154388 -12.54579639 4.749112606
-6.653123856 -7.90764904 3.839824438
-20.47305489 -43.96589279 1.396897435
-20.31400681 -44.04565048 3.066372395
-20.2414875 -44.0471344 4.74421978
-8.71634388 -13.17396736 2.768425226
-8.359582901 -12.26994705 3.158226013
-7.020896435 -8.685239792 2.963025331
-7.065001965 -8.855484009 3.371726036
-8.257535934 -12.18033218 4.65707159
-20.63647652 -43.92508698 1.405499578
-20.46138 -43.96210098 3.073794603
-20.39669418 -43.98406601 4.752409935
-8.766080856 -13.15723896 2.771306038
-7.498932362 -9.821888924 2.779887199
-7.571358204 -10.06508827 3.236119032
-7.099014759 -8.842556 3.373570681
-6.791921139 -8.052950859 3.539598942
-6.685497284 -7.80508852 3.818390369
-20.78105927 -43.83518219 1.41375339
-20.61767197 -43.90232468 3.082268953
-20.5431366 -43.89810181 4.758757114
-7.536995888 -9.809412003 2.782203674
-7.608886242 -10.0485754 3.237831354
-6.908821583 -8.229196548 3.235017776
-6.867017746 -8.158998489 3.573524714
-6.898951054 -8.288371086 3.974903345
-20.92233849 -43.73735428 1.421929359
-20.76439476 -43.8177681 3.089650631
-20.69350243 -43.82282257 4.765996456
-7.578548431 -9.806041718 2.785974026
-8.381012917 -11.96888924 3.618630171
-6.949617863 -8.240604401 3.242311478
-6.968778133 -8.333539963 3.626348495
-21.08662224 -43.69861984 1.430518389
-20.90999222 -43.73087692 3.09692502
-20.84642029 -43.75448227 4.773827076
-7.810490131 -10.24917889 2.437271595
-7.626521587 -9.819133759 2.792368412
-7.150046825 -8.62275219 2.968092918
-7.064329624 -8.445313454 3.295056105
-8.19753933 -11.47241974 4.492143631
-21.34924507 -43.9064064 1.440979838
-21.05888176 -43.65280914 3.104594707
-20.9954319 -43.6763382 4.780874729
-8.693906784 -12.45232677 3.213538408
-7.191058159 -8.629788399 2.973858833
-7.136946678 -8.536306381 3.321277142
-6.960260391 -8.118236542 3.577657461
-6.78751564 -7.707526207 3.809159994
-21.2096138 -43.57982254 3.112493515
-21.18529129 -43.70149231 4.796505928
-7.89761734 -10.24237633 2.44437623
-9.543047905 -14.47586727 3.54014492
-7.228574753 -8.627492905 2.977823496
-8.192752838 -11.14967823 3.942698002
-8.201824188 -11.22672939 4.438632965
-6.843789101 -7.76350832 3.832237005
-22.80430603 -46.5932312 1.480390429
-21.36083603 -43.50815964 3.120460033
-21.34734726 -43.65553284 4.806303501
-9.588244438 -14.36947155 2.947805166
-9.615614891 -14.50204849 3.550652504
-7.250937462 -8.58663559 2.974200487
-8.219022751 -11.09270954 3.935517311
-6.91852951 -7.825994968 3.507414341
-6.755486965 -7.447404861 3.737847328
-21.51554108 -43.44524384 3.128832579
-21.49061966 -43.56275558 4.812234879
-9.588734627 -14.21690655 2.934798002
-7.478812695 -9.019249916 2.68239212
-7.276700974 -8.554875374 2.972372055
-8.270215988 -11.09923363 3.943371058
-6.754355907 -7.358743191 3.7151196
-23.20232391 -46.61993408 1.499644279
-21.66014099 -43.3577652 3.136083841
-21.64704704 -43.5027504 4.820925713
-9.663874626 -14.25046444 2.944370508
-7.515613079 -9.010514259 2.685142279
-8.516002655 -11.53091049 3.567613363
-7.121229649 -8.116843224 3.241435528
-7.315903664 -8.642704964 3.743901253
-6.766835213 -7.305848598 3.703670502
-21.80820084 -43.27903366 3.143739223
-21.79714394 -43.42745972 4.828360081
-7.521669865 -8.926577568 2.675852299
-8.59868145 -11.60940742 3.589165449
-7.15192318 -8.10194397 3.242704153
-7.360060215 -8.655769348 3.753180027
-6.770401478 -7.231615067 3.685412645
-23.49880028 -46.40024948 1.516812325
-21.96130943 -43.21271896 3.151973486
-21.94161606 -43.33876801 4.834690094
-9.688632965 -14.0118475 2.92624712
-7.549116135 -8.895738602 2.675058126
-8.599602699 -11.48740864 3.570844173
-8.924991608 -12.33915043 4.258399487
-6.805258751 -7.235657692 3.692041397
-8.098361015 -9.788832664 0.3838100433
-8.085057259 -9.798792839 0.7904074788
-8.092113495 -9.856370926 1.196953654
-22.11184692 -43.14035034 3.159934044
-22.10346413 -43.29187775 4.844577312
-8.022199631 -9.889813423 2.425412178
-7.584776402 -8.884912491 2.677491665
-8.623906136 -11.42367649 3.564100266
-7.194477081 -8.026713371 3.234444618
-7.37425375 -8.500468254 3.721328974
-6.827074051 -7.207614422 3.688475847
-8.106404305 -9.700675964 0.3906986117
-8.096110344 -9.72225666 0.7941635251
-8.090786934 -9.750289917 1.19814837
-22.26369858 -43.07114029 3.168051004
-8.090489388 -9.898925781 2.018442869
-8.0396595 -9.826146126 2.42158103
-7.642701149 -8.92681694 2.688468456
-7.493541241 -8.61092186 3.006333113
-8.218941689 -10.38990498 3.805673361
-7.291677475 -8.209277153 3.645655632
-6.834783554 -7.145855904 3.674131155
-8.130483627 -9.655444145 0.3946466744
-8.124540329 -9.681611061 0.7969431877
-8.115911484 -9.706697464 1.19989264
-8.11238575 -9.846035957 2.017346859
-8.06484127 -9.77630043 2.419635534
-7.645183086 -8.837386131 2.67822361
-8.244309425 -10.33423138 3.798829794
-7.334036827 -8.216239929 3.653456688
-6.836179733 -7.069994926 3.655227184
-8.158555031 -9.614847183 0.3983132541
-8.146051407 -9.630735397 0.7999227643
-8.141818047 -9.660420418 1.201704264
-8.128621101 -9.735416412 1.605867624
-8.136620522 -9.794140816 2.016490459
-8.096521378 -9.747302055 2.420060396
-7.715975761 -8.9036026 2.693438053
-7.710894585 -8.930271149 3.080282211
-8.206878662 -10.13748455 3.757694721
-7.060005665 -7.482266903 3.453040361
-6.88702774 -7.108433247 3.673261642
-8.200865746 -9.611440659 0.399438858
-8.18374157 -9.611895561 0.8020526767
-8.177787781 -9.64233017 1.203671455
-8.158435822 -9.702656746 1.607080102
-8.158683777 -9.743035316 2.015516281
-8.140247345 -9.741065979 2.423522711
-7.717838287 -8.814149857 2.683158398
-7.766238213 -8.963882446 3.091973066
-7.752075195 -8.970157623 3.482416868
-6.930016994 -7.131351948 3.686126471
-8.239735603 -9.605047226 0.400708884
-8.219333649 -9.598210335 0.8038773537
-8.212865829 -9.622293472 1.20561564
-8.193750381 -9.682603836 1.608897567
-8.189317703 -9.711965561 2.016257524
-8.176269531 -9.727218628 2.42565012
-7.761222839 -8.820819855 2.688537598
-7.835236549 -9.027861595 3.109880447
-7.760633469 -8.900074005 3.470752478
-7.104560375 -7.424352646 3.447174072
-6.971693516 -7.150538921 3.697865009
-8.287068367 -9.612218857 0.4011115432
-8.269104958 -9.610887527 0.8050314188
-8.24951458 -9.605782509 1.207592249
-8.225709915 -9.655139923 1.610356808
-8.225478172 -9.693556786 2.018094063
-8.218135834 -9.721494675 2.42901063
-8.238539696 -9.807631493 2.854558468
-7.859530449 -8.988909721 3.106999874
-7.783813 -8.8596735 3.466526031
-7.15375042 -7.45740509 3.461773872
-7.05028677 -7.253917217 3.736902952
-8.322834969 -9.593791008 0.4032054842
-8.315695763 -9.616071701 0.8063959479
-8.296719551 -9.617274284 1.209751129
-8.261655807 -9.636684418 1.612251163
-8.267083168 -9.692229271 2.021249771
-8.254333496 -9.702913284 2.43077898
-8.27987957 -9.799742699 2.858053923
-7.885085583 -8.95788002 3.105476379
-7.824156284 -8.858507156 3.471831322
-7.354879856 -7.833825111 3.573711634
-7.083469868 -7.255675793 3.742910624
-8.370286942 -9.600599289 0.4036132991
-8.373120308 -9.649131775 0.8069094419
-8.360103607 -9.658606529 1.212343812
-8.316412926 -9.664400101 1.616262913
-8.32212162 -9.715306282 2.026725054
-8.194597244 -9.472418785 2.405877829
-8.081246376 -9.264230728 2.77441597
-7.903337479 -8.906270027 3.100011826
-7.862055302 -8.856172562 3.476612568
-7.20974493 -7.429712772 3.464333057
-7.094030857 -7.202311039 3.731352091
-8.438159943 -9.650597572 0.4011520147
-8.381603241 -9.709162712 1.621278167
-8.380707741 -9.745373726 2.032847166
-8.219025612 -9.434887886 2.404989481
-8.150248528 -9.321684837 2.788517475
-7.938321114 -8.892269135 3.102219343
-8.215693474 -9.548647881 3.651375532
-7.242750168 -7.425104141 3.4684093
-7.447454453 -7.915380955 3.969223976
-22.54576492 -40.26088715 4.720495224
-7.975423336 -8.846776009 2.714518309
-8.002717018 -8.942502975 3.117618561
-7.968147278 -8.903744698 3.499933481
-7.258023262 -7.377377033 3.46050024
-25.31875229 -45.22515106 1.61921823
-23.6472187 -42.0736084 3.235126257
-22.69842529 -40.2134285 4.729971409
-8.122554779 -9.070425987 2.756380558
-8.023832321 -8.897799492 3.113596439
-8.003956795 -8.891192436 3.502644539
-7.432033539 -7.68052578 3.552593231
-25.48714638 -45.16496277 1.628051639
-24.70589447 -43.94432068 3.339571238
-24.76053047 -44.21765518 5.098574638
-8.332895279 -9.392355919 2.412040472
-8.196613312 -9.142539978 2.772778749
-8.097842216 -8.96711731 3.133059502
-8.042954445 -8.889947891 3.507874012
-7.357303143 -7.443868637 3.490203142
-7.513864994 -7.816233158 3.955925465
-25.64669037 -45.08615494 1.636662602
-24.86035919 -43.86610413 3.34779644
-25.40309525 -45.16333389 5.197847366
-8.383971214 -9.411969185 2.418465614
-8.20797348 -9.075708389 2.76629734
-7.68716526 -8.004178047 2.939394236
-8.074595451 -8.868285179 3.508402824
-7.439589977 -7.543920994 3.524505138
-7.364103317 -7.414006233 3.830266714
-25.80422211 -45.00318146 1.645213842
-25.0188694 -43.79635239 3.356457472
-25.55494881 -45.06793976 5.204875946
-8.404556274 -9.357907295 2.415896654
-8.281849861 -9.141041756 2.781924486
-7.704712391 -7.960756779 2.93517828
-8.15790081 -8.951568604 3.535188198
-7.830927372 -8.294107437 3.746407986
-7.51599884 -7.661989689 3.918070316
-25.96494675 -44.92686081 1.653831363
-25.18146324 -43.71504211 3.365158558
-25.70812225 -44.97564697 5.212201118
-8.486045837 -9.435333252 2.430022955
-8.304020882 -9.09283638 2.778810263
-7.736445904 -7.947463989 2.937207222
-8.156105042 -8.859051704 3.518265247
-7.518162727 -7.553047657 3.538842916
-7.235074997 -6.990834713 3.703085423
-10.1601305 -12.52217865 0.7423648834
-26.1156826 -44.83024979 1.662190676
-25.33525848 -43.65514374 3.373737574
-25.86269569 -44.88641739 5.219827175
-8.50031662 -9.37297821 2.426193714
-8.366436958 -9.137060165 2.790779829
-7.785233498 -7.969460011 2.946603298
-8.169807434 -8.804442406 3.510392666
-10.17106342 -12.42743874 0.7467718124
-26.27494431 -44.75103378 1.670749187
-25.49131775 -43.5801239 3.382169962
-26.02749062 -44.81811905 5.22936964
-8.544827461 -9.377520561 2.43079257
-8.44746685 -9.213849068 2.808563232
-7.793753624 -7.908170223 2.938674927
-8.207048416 -8.794660568 3.513959408
-7.554515362 -7.481066227 3.529305458
-7.309196472 -7.00330019 3.719199419
-10.17290974 -12.31020355 0.7518352866
-26.42759323 -44.65878296 1.679128885
-25.63733482 -43.48488617 3.38957262
-26.19559288 -44.75639343 5.239543438
-8.571838379 -9.337357521 2.430037022
-8.456450462 -9.14302063 2.801444292
-7.842671394 -7.929833889 2.948076963
-8.251116753 -8.794403076 3.520240307
-7.590287685 -7.476110935 3.533985376
-7.35184288 -7.020486355 3.730984211
-26.65487099 -44.69390488 1.689620972
-25.80592346 -43.41560364 3.398937941
-26.35094833 -44.64902878 5.24640274
-8.604844093 -9.314027786 2.431257963
-8.471153259 -9.080223083 2.795899153
-7.866240978 -7.895900249 2.946116924
-7.561803818 -7.314873219 3.156032085
-7.6451478 -7.513402939 3.550721884
-7.415459633 -7.076326847 3.756025553
-25.83184814 -43.08418274 3.394032717
-26.53033066 -44.60920715 5.25866127
-8.639538765 -9.294138908 2.432936907
-7.8784132 -7.843365669 2.939996004
-7.59828043 -7.315981865 3.16151309
-8.018978119 -8.191511154 3.754673004
-7.43732214 -7.050094604 3.753507137
-26.96419525 -44.53527069 1.706223726
-26.03964615 -43.11234283 3.40784812
-26.72262573 -44.6136055 5.274236202
-8.671445847 -9.268827438 2.433913708
-8.566574097 -9.095809937 2.80837059
-7.900273323 -7.814444542 2.938588142
-7.64446497 -7.336109161 3.171819925
-8.05674839 -8.187296867 3.759917974
-7.496188641 -7.101662636 3.776710272
-27.11780548 -44.44422531 1.714592218
-26.24119568 -43.14532471 3.421369791
-26.89121437 -44.55107117 5.284538269
-8.704155922 -9.245177269 2.435116768
-8.001346588 -7.907912254 2.609502554
-7.925294876 -7.788189888 2.937994957
-7.69204855 -7.361979485 3.183375359
-8.07549572 -8.149223328 3.754947424
-7.451674938 -6.94343853 3.730012894
-27.26825333 -44.34735489 1.722864509
-26.39645576 -43.0688858 3.429786682
-27.05042267 -44.47023773 5.293192387
-8.73591423 -9.224113464 2.43645215
-8.26303196 -8.339995384 2.688171148
-7.948391438 -7.758369923 2.936652184
-7.683508396 -7.273963451 3.166476965
-7.539186954 -7.019341946 3.429184914
-7.482498646 -6.935936928 3.733776093
-10.0309763 -11.35097599 0.3020038009
-27.37057114 -44.15986252 1.729853392
-26.56258583 -43.013134 3.439316273
-27.18813705 -44.3482132 5.298062325
-8.773939133 -9.210828781 2.439043045
-8.127421379 -8.000277519 2.634259939
-7.992128372 -7.768630505 2.943837166
-7.668142319 -7.173979282 3.146471739
-7.580954552 -7.032288074 3.438780308
-7.541286945 -6.982867718 3.755918264
-10.05377102 -11.2913599 0.3066928685
-23.77229118 -37.04708099 1.63850975
-26.69964218 -42.90201569 3.445907354
-27.29921341 -44.17643738 5.298301697
-8.81564045 -9.204429626 2.442566156
-8.393465996 -8.432014465 2.713414192
-8.005045891 -7.719471455 2.9383986
-7.755754948 -7.273220539 3.177004337
-7.613066673 -7.026147366 3.442800283
-7.597809792 -7.024372578 3.776356459
-10.05243492 -11.18785095 0.3142156601
-23.89969826 -36.96728516 1.645462513
-24.85105896 -39.19958115 4.849245548
-8.858288765 -9.19961834 2.446323395
-8.403804779 -8.372645378 2.707883835
-8.030501366 -7.694667816 2.938148975
-7.782431602 -7.254478455 3.17765069
-7.655050278 -7.038731575 3.452406406
-10.05620956 -11.0950079 0.3210208118
-24.03729439 -36.90639114 1.652678728
-23.88674545 -36.95002747 3.148902893
-23.8205986 -36.94491577 4.652177334
-8.891598701 -9.177120209 2.447739363
-8.446350098 -8.374371529 2.712951422
-8.028172493 -7.617738247 2.926729202
-7.819988728 -7.256338596 3.183577299
-7.659250259 -6.979266167 3.440676212
-7.623588085 -6.938634396 3.760327339
