# .PCD v0.7 - Point Cloud Data file format
VERSION 0.7
FIELDS x y z
SIZE 4 4 4
TYPE F F F
COUNT 1 1 1
WIDTH 1297
HEIGHT 1
VIEWPOINT 0 0 0 1 0 0 0
POINTS 1297
DATA ascii
-19.91816139 14.29470158 6.121962547
-25.32899666 18.53810501 2.736063719
-20.66155052 14.81480789 3.162872791
-20.60396194 14.81642056 3.937178135
-18.84578705 13.42521667 4.35441494
-20.40793419 14.74908257 5.478221416
-19.84054565 14.33223915 6.110210419
-25.28600883 18.63585281 2.733743906
-22.43649101 16.36958885 3.379567862
-20.49249077 14.82494831 3.923762083
-18.9889183 13.63739586 4.391787052
-20.33603096 14.79428291 5.469631195
-19.79520226 14.39132404 6.107814312
-23.00535774 16.89281273 2.563496113
-22.77309418 16.75730896 3.423362494
-20.82178879 15.19652748 3.983710289
-18.85632133 13.61892414 4.370303631
-20.96323204 15.41533375 5.642426491
-19.64352226 14.36175632 6.072715282
-22.92026901 16.9368248 2.557897806
-22.71621132 16.82356262 3.419804573
-19.19451332 13.94616127 3.717588425
-18.77557182 13.64265919 4.359837532
-20.94418144 15.50342846 5.647574902
-19.60700989 14.42766666 6.073076248
-32.44948196 24.92048073 0.6434633136
-22.88116837 17.0187397 2.555756569
-25.01672173 18.85721397 3.701259136
-19.14746857 14.00001621 3.714561939
-18.22638512 13.27240372 4.249195576
-19.6502285 14.51697826 5.319700241
-19.32206726 14.28356361 5.996619701
-32.21016693 24.88277626 0.6411650181
-19.88906097 14.67047977 3.084081888
-19.27544975 14.19670868 3.740610361
-18.14770699 13.28980732 4.238627434
-19.62006569 14.583848 5.320869923
-19.26736259 14.32794762 5.990704536
-32.00285339 24.88714218 0.6377511621
-22.28886223 16.74388504 2.512796402
-19.92765045 14.80122757 3.091664076
-19.74237823 14.69277382 3.824131012
-18.76408577 13.90330315 4.377634525
-18.97005272 14.12585545 5.15990591
-19.54023552 14.66287804 6.087857246
-31.79702759 24.88280487 0.6346664429
-22.37913132 16.95666122 1.653305769
-22.21403694 16.79860306 2.508005857
-19.86609077 14.85261345 3.087278605
-18.5227623 13.74793625 3.624354601
-18.1173172 13.44553089 4.245799541
-18.93201447 14.19216919 5.159698486
-19.52317238 14.74639606 6.094581127
-22.25535011 16.914114 0.7870615721
-22.27902603 16.98474693 1.648613811
-22.19039536 16.89126205 2.507032156
-22.51907921 17.22959518 3.412865639
-18.44562149 13.77744007 3.616433144
-18.07504272 13.49830055 4.243462563
-21.38818932 16.41754913 5.816750526
-19.45485115 14.79061985 6.085995197
-22.14027977 16.92847061 0.7846665978
-22.01719475 16.87843132 1.639127612
-24.79972076 19.25950432 2.704440594
-17.89075661 13.34787178 2.852792501
-23.12233543 17.92710876 4.410233498
-20.21715355 15.45780182 4.713690281
-21.61197662 16.72912216 5.887475967
-19.52204895 14.94850349 6.119280338
-22.04952812 16.96316528 0.7818664908
-21.77726936 16.78296471 1.630399346
-22.26117897 17.18595123 2.514049053
-17.81427383 13.3695116 2.846125841
-18.10907364 13.66686916 3.569302797
-20.24947548 15.58956718 4.728613377
-19.79409981 15.28873158 6.21712923
-21.99795151 17.03159904 0.7783861756
-21.7125473 16.83295631 1.626856685
-22.20282173 17.25019836 2.510487318
-17.83732033 13.47362614 2.851484299
-18.11069489 13.75882149 3.574420214
-20.28404427 15.72435474 4.744137764
-19.66596794 15.22486115 5.392819881
-19.682827 15.29208851 6.194850445
-21.97449112 17.1190834 0.77461344
-21.81445122 17.03522682 1.628027201
-22.21455765 17.37033844 2.512177706
-17.8412056 13.56604767 2.854668856
-18.0138588 13.76408577 3.562882185
-20.3072052 15.84479237 4.756887913
-19.67601776 15.33550453 5.405765533
-19.35521126 15.09588528 6.103616714
-21.84935188 17.18000984 1.627236366
-24.29549026 19.33102226 2.670155048
-17.82676315 13.642766 2.855637789
-18.03635788 13.87064648 3.571373463
-19.76975632 15.46939659 4.647898674
-19.92040253 15.65751553 5.481357098
-20.55646133 16.27983284 6.496330738
-19.42678642 15.31447792 6.944400311
-21.886446 17.32789612 1.626485348
-21.27402687 16.76429558 2.442845583
-17.71404839 13.63183594 2.844569206
-18.2139492 14.12196255 3.60659647
-19.03575134 14.91059017 4.495505333
-19.81220436 15.66416359 5.463068485
-22.02784157 17.72509193 6.976798058
-19.34943581 15.34633446 6.931387424
-21.17260742 16.78502464 2.43601346
-17.61193466 13.62960815 2.834789753
-20.7350502 16.49687386 4.042033195
-20.36209106 16.21429253 4.793801308
-19.64182091 15.61340141 5.42807436
-20.5739994 16.51477051 6.529578209
-21.12603951 16.85482025 2.43333149
-17.62205505 13.72860146 2.838819027
-20.80528831 16.67102242 4.060064316
-20.35237122 16.31365776 4.80016613
-19.75382423 15.82033253 5.468869686
-20.48661041 16.54489708 6.51578331
-21.08805656 16.93255615 2.431304932
-17.82858658 14.00797367 2.867104769
-18.03699684 14.24165821 3.591678143
-20.04883194 16.14295769 4.741948128
-20.95228958 17.03376579 5.80268383
-20.54351997 16.71401596 6.548829079
-23.52086449 19.28508949 2.616478205
-17.83767128 14.11332512 2.871259212
-17.85990143 14.17673397 3.566700697
-18.91623116 15.20500946 4.50102663
-20.45384979 16.68931007 5.680414677
-20.40879631 16.70558548 6.520703793
-23.35526085 19.26768684 2.604964495
-17.79301834 14.16491413 2.868655443
-17.83013153 14.24727917 3.567013025
-20.27732468 16.58335114 4.810471535
-20.1998558 16.56262207 5.623209953
-19.13141632 15.61487389 6.124495983
-23.22859573 19.27236176 2.596301079
-17.75982285 14.22723103 2.867484808
-17.7111969 14.22974396 3.551717997
-18.94708633 15.43657494 4.523993969
-20.01114655 16.49496269 5.583503246
-19.1547699 15.73579693 6.144786358
-23.7966423 19.9341526 2.640411377
-17.79018974 14.34954548 2.874223948
-17.64104652 14.25265312 3.544563532
-19.97697639 16.51506042 4.761034966
-20.01789284 16.61143494 5.596866608
-18.97201729 15.66619968 6.099329948
-22.98394775 19.30032349 2.579730272
-17.70132828 14.35987759 2.866180182
-17.40664864 14.12837982 3.509478092
-19.60254288 16.26773834 4.686485767
-23.0409317 19.49017525 2.585122585
-17.64047813 14.40111065 2.861771822
-17.32036591 14.13879585 3.499729395
-20.5696907 17.31125832 4.911626339
-19.38570786 16.22939873 5.447860718
-22.96739197 19.55016708 2.580556393
-18.27972221 15.11058331 2.944595814
-17.49841499 14.40366173 3.535969019
-19.94356728 16.82060432 4.780837059
-19.20699692 16.16379738 5.410270214
-22.93678665 19.65146446 2.579262495
-18.25265312 15.17917538 2.944265366
-17.46553612 14.46666908 3.535615683
-19.89086342 16.88129044 4.778129101
-18.97126579 16.03536987 5.356285572
-17.87480736 14.86034107 2.194749117
-18.322649 15.3476572 2.956273317
-17.36997032 14.46854877 3.524337053
-18.84159279 16.0142765 5.331900597
-18.88445854 16.10822105 6.139985561
-27.97181702 24.76781464 0.5740463734
-21.70100403 18.70014954 2.487134218
-17.64913177 14.78313255 2.8749125
-17.31510353 14.50509548 3.51989913
-19.25389671 16.47173691 4.652498245
-18.85283279 16.12657547 5.345845222
-18.8576622 16.18883896 6.145414352
-21.65764427 18.77598381 2.48478055
-17.59785271 14.82990551 2.871644497
-17.32541466 14.61092949 3.527189493
-19.11270905 16.4353199 4.629145622
-19.14550018 16.52615547 5.438535213
-18.80977821 16.24329376 6.143277168
-21.62757683 18.87774849 2.483549833
-17.559515 14.89441299 2.870177507
-17.3365612 14.71840572 3.534693956
-19.50213051 16.94046593 4.726886749
-19.11318016 16.60924721 5.442023754
-18.72207069 16.26841164 6.12948513
-23.71977806 21.0932045 2.644375563
-18.91625214 16.35255241 3.044537783
-17.3097229 14.79337406 3.53584981
-19.41143227 16.9617672 4.715631962
-19.05977249 16.66580582 5.439118862
-18.57292938 16.23057938 6.095327854
-23.55566406 21.07672501 2.63304615
-17.90499687 15.44532681 2.920493364
-17.13019371 14.70911407 3.509769917
-18.90255928 16.56297302 4.609556198
-19.01440239 16.73614502 5.43911171
-18.05675507 15.81003475 5.93832159
-23.50488472 21.16669846 2.630323887
-17.03847122 14.66629791 2.814160585
-17.01848412 14.6970129 3.495903015
-19.1197567 16.89561081 4.668379307
-18.6334362 16.45612335 5.344438553
-17.96284866 15.82362175 5.921938419
-16.75422859 14.47661114 2.781475544
-16.95789337 14.73170662 3.490804195
-19.08453941 16.97750092 4.670220375
-19.26095963 17.22108078 5.533570766
-18.52686119 16.51502991 6.124817371
-23.83177376 21.79494667 2.657791615
-17.42406845 15.31142712 3.579519033
-18.94079971 16.9413414 4.646724224
-18.85760117 16.9154892 5.432427883
-18.4764595 16.57251167 6.122909546
-22.63890839 20.70695114 2.56754756
-20.16193199 18.20768166 3.221833467
-17.50434303 15.49641705 3.599811077
-18.87392807 16.9843235 4.640858173
-18.79633713 16.96407318 5.427550793
-18.34805489 16.54785156 6.094822884
-22.47851753 20.67870712 2.556405067
-16.45605659 14.45269775 2.75308466
-17.28090096 15.36454487 3.565892458
-18.37182426 16.56859589 4.534499645
-18.74975967 17.0281105 5.426876068
-22.29789543 20.62789726 2.543703318
-16.35252953 14.43885136 2.743065357
-17.23726273 15.4201746 3.564096451
-18.19118118 16.48732185 4.502052784
-18.50942993 16.88593674 5.371125698
-22.26062012 20.72693825 2.542011738
-16.46245193 14.65059757 2.760370493
-17.35786057 15.65073013 3.591860294
-17.71298981 16.08624268 4.400384903
-18.35461998 16.83272552 5.33951807
-21.62659264 20.19135666 2.494423866
-16.70584869 15.00727844 2.79489851
-17.64389038 16.11896515 4.393461227
-18.34173965 16.93132401 5.348413467
-17.28494072 15.67375374 2.16131568
-16.67561722 15.07397747 2.794399023
-17.04297638 15.51930237 3.547423601
-17.57875061 16.15574074 4.38747406
-18.27786636 16.97510719 5.342784405
-17.95498276 16.67972946 6.037929058
-17.20487595 15.69114876 2.156039476
-16.570755 15.06011581 2.784305334
-16.95166016 15.5230608 3.537072659
-18.03937149 16.76606941 4.504616737
-18.28137589 17.09259224 5.356589317
-17.33176804 15.93304157 2.166724443
-16.64655304 15.24250603 2.797522306
-18.82057571 17.6721611 3.882752895
-17.88565254 16.70918846 4.478209019
-18.30534935 17.23357391 5.376451969
-20.84403419 19.88293457 2.438746691
-16.85401535 15.57147503 2.827854156
-18.73939323 17.70099831 3.875132322
-17.75237083 16.67340469 4.456515789
-18.20373344 17.23628616 5.360114098
-17.32733154 16.1404438 2.168229818
-17.60310555 16.50369453 2.928562164
-18.69407082 17.76929855 3.8740623
-18.52194405 17.64266968 4.647990704
-18.15462112 17.29704666 5.358998299
-17.22066879 16.12939262 2.160923719
-16.87125397 15.79833126 2.837301493
-18.75169182 17.95290947 3.891872883
-18.13762665 17.3297863 4.567305565
-17.90064049 17.12708473 5.298215389
-17.10892868 16.11182785 2.153221369
-17.28591728 16.36878777 2.894961834
-18.90934181 18.25711632 3.928555012
-18.35130119 17.6876812 4.628267765
-17.32866287 16.59310722 5.144118786
-17.20172691 16.32901001 2.161407471
-17.13290977 16.30517769 2.878824234
-18.92756653 18.40062141 3.939446211
-18.30285835 17.75748444 4.62771225
-17.2558403 16.62130547 5.135548592
-19.17220688 18.66622734 2.315103292
-17.48032761 16.80946541 2.928080797
-18.92667389 18.52355576 3.946912289
-18.20545197 17.75940704 4.614454746
-17.1907196 16.65807724 5.129252434
-19.27603912 18.91028976 2.324281931
-17.72351837 17.20076942 2.963919878
-18.89824104 18.60952377 3.948980331
-18.20745087 17.8814373 4.625528812
-17.06906891 16.62915611 5.106287956
-19.22760963 18.98197746 2.321662664
-18.88667488 18.65871239 3.120765209
-19.49559784 19.42708015 4.06759119
-18.16111183 17.94825935 4.625103474
-17.37194824 17.09475327 5.208986282
-20.40091133 20.4684639 2.414040089
-16.48286438 15.99057961 2.80883956
-19.50204468 19.56619835 4.0769701
-17.43187904 17.21556664 4.460033894
-17.27222061 17.09293556 5.192772388
-17.97774887 17.78162384 2.226715088
-16.43409729 16.04061127 2.8062222
-18.3262558 18.31762505 3.865898132
-17.36092186 17.24809456 4.453251362
-17.99913216 17.92648315 2.229469538
-16.35549545 16.05553627 2.799675226
-18.15655136 18.24082947 3.841906786
-17.7556839 17.83359528 4.55949831
-19.80981827 20.18880272 2.371762037
-16.49903107 16.33377647 2.822562218
-17.94544601 18.11286354 3.810057402
-17.61805344 17.78984642 4.53686285
-17.73114014 17.85011864 2.210774183
-17.91845703 18.20329285 3.812711239
-17.55410576 17.83353615 4.532134056
-17.67071724 17.89829445 2.207164288
-17.72664452 18.03295326 2.993946552
-17.81078911 18.20293999 3.800591946
-17.57548332 17.98068428 4.548334599
-17.79562759 18.17649078 2.218111038
-17.12174988 17.42162895 2.917660952
-18.07934761 18.65376472 3.859261751
-17.48540878 17.99912834 4.537858486
-17.10419655 17.45233727 2.165066957
-17.0918808 17.50327873 2.917958021
-19.31871033 20.30097771 4.102591038
-17.45991707 18.08432198 4.542181492
-17.05022812 17.50449944 2.161940575
-17.14834595 17.69163322 2.929861069
-17.58850288 18.29669189 3.781680107
-19.35539436 20.55789757 5.022365093
-17.1092453 17.6961689 2.167683601
-17.07975578 17.72704697 2.925045252
-17.54275703 18.36478043 3.78093648
-16.94796181 17.61607933 2.156149149
-17.35876656 18.19610405 2.967066288
-19.00082588 20.31686974 4.068193913
-22.41786003 24.50391197 0.4712226689
-17.07415199 17.8940506 2.16720295
-17.35798645 18.31952477 2.971537828
-18.08934593 19.3068161 3.902127266
-17.23828316 18.22319221 2.181279421
-17.22062874 18.27111435 2.957572937
-17.95268631 19.26601601 3.884368896
-17.26310921 18.37947083 2.18442297
-17.20676422 18.37878418 2.960331917
-17.25871849 18.49993896 2.185281277
-17.88532066 19.37667084 3.057351828
-17.91446877 19.48352051 3.894243956
-18.76509666 20.56797409 2.305457354
-17.6075573 19.15111542 3.024444818
-18.39494514 20.2422924 3.996450186
-18.7379303 20.6750927 2.304680824
-17.53539658 19.18947792 3.01952219
-18.31783485 20.28202629 3.990582705
-19.33410263 21.59779549 2.353253841
-16.50891304 17.97507095 2.883753538
-17.8299675 19.7803936 3.904345274
-18.85832405 21.12174225 2.317012072
-16.42650604 17.990448 2.87709713
-17.75694656 19.8212471 3.899050474
-18.74688339 21.12115097 2.309604883
-17.41170311 19.4271946 3.017597198
-18.76132774 21.28794861 2.312194824
-19.32573891 22.13032913 3.287253857
-18.72951889 21.39416504 2.311127901
-17.1577816 19.35622215 2.992712259
-18.61769485 21.39269447 2.30370307
-19.17507172 22.23776054 3.27818346
-18.53321457 21.42776299 2.298455954
-16.80217934 19.14087486 2.953530312
-18.53325653 21.57883453 2.299957991
-16.67426491 19.0986805 2.940800428
-18.48917198 21.67021751 2.297953367
-18.42252731 21.73068428 2.294154644
-18.30007172 21.71278763 2.285890341
-18.48207474 22.12518692 2.30204916
-18.52496338 22.34440231 2.307090998
-18.47296524 22.42967606 2.304530144
-19.65872383 24.39302063 0.408557564
-19.51570892 24.46273994 1.397313118
-19.39323425 24.45878792 1.391751289
-29.28601646 40.59835052 1.545674682
-18.68046379 24.45009422 1.358990908
-29.25224495 41.15803909 1.533544421
-18.37125587 24.32749176 1.346963167
-18.25221252 24.31999969 1.341572881
-18.14309883 24.3365612 1.336181521
-18.00021362 24.28891182 1.330432534
-17.89754486 24.29595757 1.325510859
-17.79298973 24.30848503 1.32039094
-17.69778633 24.3266449 1.315594792
-17.59235573 24.33660316 1.310471654
-17.47373199 24.3424015 1.304804325
-17.39398766 24.39444351 1.300064921
-17.28368568 24.39446068 1.294886231
-17.1554451 24.36288071 1.28946805
-16.97559547 24.24063301 1.283366442
-16.93443489 24.24346542 0.3398226798
-16.92796135 24.34649658 1.279075384
-16.79282379 24.29928398 1.273617268
-16.68173981 24.29323196 1.268490314
-16.58274269 24.29837608 1.263711691
-16.4797802 24.30538368 1.258703709
-16.35861397 24.27865982 1.253485203
-16.29525566 24.35671997 1.248957157
-15.96566963 24.36972046 4.031406879
-15.77105999 24.16144371 1.227854609
-15.69918823 24.22181702 1.223240137
-15.57179165 24.17544556 1.218070626
-15.47230911 24.18182564 1.21318984
-15.36384296 24.1699791 1.208233356
-15.24838829 24.14337921 1.203228235
-15.15655994 24.16274643 1.198440552
-15.06523609 24.172575 1.193860769
-14.99819946 24.24146271 1.189270735
-14.74404621 24.143013 1.178991556
-14.4963398 24.13113785 5.707753181
-14.6629715 24.18207359 1.17430222
-14.45851517 24.12828255 4.781413555
-14.38276958 24.10070419 5.689319611
-14.5560112 24.16666031 1.16944468
-14.43336391 24.15311241 3.868912458
-14.34652233 24.10068893 4.766244888
-14.43736458 24.12545013 1.164532304
-14.37158108 24.11096001 2.956695795
-14.31702137 24.11590958 3.85524106
-14.3267498 24.10000992 1.159687757
-14.34337521 24.13003159 2.056431055
-14.26881027 24.10202599 2.948270559
-14.22400475 24.09041405 1.154901385
-14.24054813 24.12070084 2.049821138
-14.15061569 24.1440239 1.150265455
-11.50571632 24.07612419 1.021223545
-11.41454983 24.07358932 1.016704321
-8.764845848 23.91245079 0.8848481178
-8.684606552 23.93061829 0.8802928925
-8.535392761 23.97999191 0.8714769483
-8.382444382 24.012743 0.8628017902
-8.191571236 23.96234894 0.8538960218
-8.112830162 23.96594429 0.8496952057
-7.692288399 23.94418907 0.8280585408
-6.861824512 23.87723923 0.7854762673
-6.781718731 23.88875389 0.7809563875
-6.603919506 23.78213692 0.7737500668
-6.525979996 23.80662918 0.7690519691
-6.440089703 23.80161476 0.7645580769
-6.356784344 23.7838726 0.7604715228
-6.208933353 23.83393669 0.7514490485
-6.117370129 23.74184608 0.7485063672
-6.041051865 23.78057289 0.7435594797
-5.960649014 23.78325653 0.7391648293
-5.881495476 23.79758835 0.7345814109
-5.001695633 23.74298668 0.6879348159
1.584498286 23.50932503 1.126546383
1.738035917 23.47425461 1.118122458
2.698262215 23.34174728 1.066962957
2.781828642 23.33926392 1.062658072
2.886641026 23.42608643 1.058401227
3.028410435 23.34373665 1.050133109
14.66479492 59.99946594 16.34585762
14.90629768 60.09016418 16.37347221
15.46870995 60.98539352 3.093874931
3.630578041 23.36957932 1.019906163
34.05933762 116.5237045 0.6440973878
34.46269608 116.3939133 0.6221596599
5.154319763 23.25689316 0.9423108697
5.247229099 23.27651596 0.9379512668
7.768818855 23.33086777 0.8158051372
29.46104813 56.78647232 2.427661419
2.929631233 11.56827927 3.556847811
2.92714262 11.5155344 4.000311375
29.66631508 56.71165466 2.418612957
2.930649281 11.53465652 3.102145433
2.947381973 11.51441956 3.547520876
2.955116749 11.48309326 3.995256662
29.92430878 56.70233917 2.410749912
2.948037386 11.52755547 2.658420086
2.954496384 11.49512768 3.09677577
2.975287437 11.48174858 3.542945623
2.988860846 11.45611668 3.991930723
2.970471859 11.51990891 2.218363285
2.980648756 11.49404907 2.654859781
2.985733032 11.45559025 3.091757536
3.013707638 11.45402908 3.540015697
3.044845104 11.46103764 3.997598171
2.961863041 11.51548576 1.346373796
2.978175879 11.49599361 1.779730678
2.977447748 11.45279598 2.211663723
3.011259556 11.46156502 2.651407003
3.014383554 11.42435169 3.087995768
2.983007908 11.51314259 0.9110616446
2.981289625 11.46850872 1.343913555
3.001693964 11.45590782 1.776665211
3.015220404 11.43206787 2.209886312
3.049313068 11.44529247 2.650290966
3.002685785 11.4585247 0.4757506847
2.997151375 11.45752239 0.9098058343
3.007568598 11.42889309 1.341564178
3.034220695 11.42652988 1.77427423
3.061629772 11.42923927 2.209992647
3.029973745 11.42040253 0.4747017324
3.046334505 11.40959072 1.339690685
3.082793474 11.4269743 1.773830652
3.074024439 11.4093132 0.4720444381
3.053628206 11.38477135 0.9063985348
3.095677614 11.40708256 1.338204741
3.110922098 11.39075089 0.4699925184
3.114648104 11.40074635 0.9037294388
13.35523319 24.50011444 0.5672656298
15.94473743 25.69675636 0.4616098404
16.70274353 26.30563354 0.4333165288
49.33442688 65.28501892 2.24717164
49.4005127 64.90957642 2.232055426
50.18877792 64.97206116 2.216725588
49.55640793 63.99295807 5.078389645
50.36707687 64.75440216 2.204957962
49.20642853 62.93878937 2.165388346
49.95016861 63.59291077 5.053544998
49.37030411 62.69414902 2.15307188
49.11016846 61.95824814 2.132515192
49.46943283 61.94389343 2.124262094
49.57395172 61.23151779 2.096879482
49.70532608 61.17208862 4.903291702
51.51074219 62.59046173 7.893705845
49.72064972 60.13832855 2.055528641
50.40441132 60.48062134 2.053247213
46.02254486 55.09020233 4.523652554
50.53770065 59.8184967 2.027612686
55.18222809 63.14113998 2.04775691
44.95074081 52.11788559 4.341737747
45.07103348 51.88858795 4.328650475
46.48011017 53.2114296 6.950734615
44.75556183 51.22335815 4.287943363
44.85249329 50.99202347 4.274771214
20.56346893 25.43212128 8.781767845
56.33723068 62.66310501 2.008976936
20.61622047 25.39963913 7.530910015
56.18062973 62.07356644 1.992301464
45.48236847 50.79608536 6.718720913
20.67407417 25.36245346 6.295189381
45.7044487 50.82141113 4.269129276
20.69888496 25.37112808 3.860907555
20.73489952 25.33549309 5.072798729
41.03695679 45.91925049 1.74489522
20.73654556 25.31921196 2.651117325
20.79098892 25.30268478 3.858005762
20.78822136 25.28926659 1.44634366
20.8807888 25.30271912 2.650990725
41.62792587 45.90102768 1.733158946
47.06067276 49.63613129 6.672092438
47.1811676 49.41382599 6.657996655
47.53811646 49.5719223 4.209363937
47.37033844 49.27426147 6.652904034
47.55389786 49.26582718 4.192306995
47.34140015 48.91158676 6.62283802
47.28551865 48.67747116 4.15737772
47.79920578 49.00795746 6.645702839
47.60171509 48.49023819 6.597865105
47.98675537 48.51599121 6.612880707
48.07888794 48.26988983 6.596563339
49.92434692 49.82720184 9.336279869
49.89448929 49.46047211 9.296865463
52.52927399 51.28723526 1.711258411
50.58399582 49.10279083 9.302491188
52.65083313 51.04383087 1.701718211
46.07078552 45.04637909 3.947618008
47.08945847 45.63899994 3.989180326
50.61989975 48.46543121 9.240484238
53.50329208 51.09553528 1.689139962
46.56940079 44.86965179 3.942871332
46.61702347 44.77591705 6.273404121
50.78523254 48.27809525 9.232039452
53.66916656 50.90663528 1.680671453
47.17409897 45.08942795 3.960570097
53.54111862 50.44491196 1.668786645
47.02565384 44.65149307 3.935773849
53.62257004 50.16753769 1.659111261
47.73675537 44.97182846 3.960031271
47.86753464 44.94926453 6.33225441
47.92951965 44.8272934 3.95441556
47.47268295 44.13133621 3.912998199
47.6230011 43.95397949 3.90534997
47.60451126 43.66565323 3.890131712
47.97145081 43.06729889 3.86342454
48.54900742 43.23874664 3.879000187
48.20466995 42.72123718 8.522589684
48.17602539 42.52747345 6.164058685
48.03227615 42.36420059 1.516793132
48.56689835 42.26407242 6.160430431
48.66683578 42.04874802 6.148918629
48.12020874 41.44773865 3.783341408
49.05075073 42.07107544 6.165964603
52.83256531 44.96332169 1.519740582
49.07745743 41.50582886 6.126805305
52.76452255 44.28156281 1.501653314
53.08371353 44.21413803 1.495230079
48.37792969 40.50977707 3.740410566
67.78186035 55.09213257 1.58758831
49.9189682 41.27428055 6.145247936
49.5814209 40.86161041 3.774061203
67.81911469 54.37914276 1.567527533
49.81262589 40.76034164 3.77240324
50.01216507 40.62007141 3.7684865
51.43917847 41.57520294 6.230009556
50.70635986 40.85819244 3.789842129
51.08716583 40.84658051 3.794821024
51.25115204 40.11024475 3.76256299
53.58993149 41.66714478 6.328783512
52.98056412 40.46363831 3.805606604
52.68793869 39.9825058 3.778913975
54.27743912 40.69126892 6.294492245
54.45160675 40.52998734 6.291793346
54.70087433 40.2219162 3.822320461
55.00352478 40.1306572 3.823266983
57.10282898 40.94515228 3.894709349
65.88851166 40.61818314 1.251111627
14.39101028 10.68518353 2.555690527
14.45128918 10.63732147 2.556187868
14.49563599 10.58064938 2.5554142
14.52220631 10.51440144 2.553231955
48.9409256 28.80662346 1.169558883
14.56097221 10.45867634 2.552277803
48.91630173 28.57124519 1.165000439
14.62959385 10.41857433 2.553741932
14.60186577 10.37569046 1.120821118
14.61676598 10.35760403 1.834187865
14.63444996 10.34494114 2.550117493
14.64396191 10.34305859 0.4053454101
14.65253258 10.32176113 1.119266868
14.68169403 10.31516647 1.834058166
14.71687031 10.30759525 2.552508116
14.69808769 10.29062748 0.4029630721
48.85419083 27.84235573 1.150972605
14.73531914 10.23705578 2.549820662
48.85157013 27.61065102 1.146428227
14.79619312 10.18817616 2.550533533
48.83725739 27.37388802 1.141928792
22.58267975 14.05754185 2.140613079
14.87833023 10.1497488 2.55294466
48.81837463 27.13573265 1.137480617
22.71774673 14.01146126 2.141995192
14.92453289 10.0889616 2.552328825
49.0696907 27.04431534 1.133479238
22.79681015 13.94253826 2.14136219
22.8900547 13.88029099 2.141306162
23.11610794 13.88241863 2.146486044
36.67102051 20.29702759 8.982543945
23.25115204 13.83327961 2.1478827
36.83721542 20.29548073 5.818548203
36.81905746 20.26408386 1.112728
36.83286667 20.22676468 2.674066067
36.84584045 20.1803875 4.23850441
36.93686295 20.14751244 1.10957551
41.91926193 22.47010231 2.866078854
49.11211777 25.71826744 1.108359337
41.81328964 22.22690392 2.855554581
49.01284027 25.45921135 1.104502797
41.74964142 22.00498772 2.846768618
48.91241837 25.20109177 1.1007061
41.7121048 21.49049759 1.094022393
41.18894577 21.19709015 2.807428122
41.81275177 21.3459568 1.09068656
41.0371666 20.95086861 2.795982122
48.6942215 24.23239517 1.085492969
41.01182556 20.75351334 2.789144754
41.06975174 20.59375 2.785532951
44.60919189 21.61640549 1.073300242
36.63936234 18.13768959 2.602659464
43.59936523 20.98726845 1.070663095
36.87759781 18.07386208 2.606562614
43.49245071 20.75803185 1.067737103
43.38610077 20.52077675 1.064708233
43.28606033 20.28756714 1.061729431
43.14648056 20.04899979 1.058988333
40.6477623 18.97411537 2.726485968
43.0465889 19.82814598 1.056264043
40.69252396 18.82214546 2.723227501
42.94158936 19.59709167 1.053448319
40.74046707 18.67155457 2.720134497
43.03062057 19.44473267 1.050479293
41.07637405 18.61766052 2.727098227
43.26190567 19.33888245 1.047237277
41.79257584 18.72011948 2.748142481
43.48983765 19.23977661 1.044154048
41.43276215 18.38926888 2.729808569
43.69076538 19.14783478 1.041395307
41.71932602 18.34702301 2.735986233
43.89978027 19.0389843 1.038360715
41.83585739 18.21102715 2.73528862
41.78369141 18.010849 2.728563547
75.81082916 30.61856842 0.9877762794
41.91792297 17.88124275 2.728597164
43.37909317 18.24189758 2.776109219
81.89948273 29.94590378 0.9394271374
92.39680481 31.31258774 0.8928613067
92.15302277 29.8284359 0.8774613738
55.25979996 14.13435459 0.9216799736
61.71171951 12.54697609 0.8833023906
61.60220337 12.29336739 0.8825106621
59.55918121 10.37891579 0.8827565908
59.39396667 10.12998962 0.8825386167
59.22777557 9.882340431 0.8823696375
59.11852646 9.655175209 0.882081151
58.97278595 9.423993111 0.8819593191
58.91884995 9.19508934 0.8815256953
58.74763107 8.962659836 0.8815735579
58.67614746 8.733107567 0.8812837005
64.42910004 9.427090645 3.251473427
64.36899567 9.400806427 5.642996311
58.5654335 8.488503456 0.8811501861
64.43060303 9.187304497 3.249949932
64.41542816 9.155252457 5.643385887
58.53192139 8.265027046 0.8808118701
64.54637909 8.961268425 3.252114773
64.62605286 8.940904617 5.654985428
58.39702606 8.041223526 0.8808925748
64.62963867 8.730887413 3.253320694
64.65359497 8.704296112 5.654438496
58.30228806 7.812076092 0.8808506131
64.65648651 8.493813515 3.252815008
64.67900848 8.479438782 5.653962135
58.206707 7.583674908 0.8808529973
64.61365509 8.26120472 3.250244617
64.47080231 8.217468262 5.63787508
64.40353394 8.182034492 8.034050941
57.85965347 7.329759598 0.8817903399
64.52752686 8.012541771 3.246317625
64.53156281 7.985134602 5.639851093
64.49569702 7.953661919 8.0405159
57.84081268 7.122485638 0.881613493
64.57971954 7.778654575 3.246828079
64.5557785 7.748869896 5.639489174
57.83028793 6.905504704 0.8814325929
57.83491135 6.690181255 0.8812375069
64.85968781 7.338749409 3.253643274
57.65156555 6.457874775 0.8817522526
64.6825943 7.082812786 3.247142076
64.82116699 7.069378853 5.651932716
57.62274933 6.240490437 0.8817552328
64.90284729 6.862937927 3.253226757
57.34204483 6.002322674 0.882697165
63.13032532 6.474915981 3.196672201
63.19980621 6.456278801 5.540924072
57.25494385 5.792460918 0.8829867244
57.19105148 5.585090637 0.8832286
63.16030121 5.998749256 5.535769939
64.55919647 6.069844723 10.44490147
57.01874161 5.370228291 0.883892715
63.32403183 5.789609909 5.545570374
63.09171295 5.761254787 7.877385616
64.65090942 5.851656437 10.45522022
56.99405289 5.156431675 0.8840696216
63.29954147 5.577348709 3.199714899
63.10815048 5.530473709 7.877434731
64.56796265 5.620861053 10.4417057
50.6268158 4.518842697 0.9069106579
63.41435623 5.363192081 3.202931404
63.35559464 5.337032318 5.545703888
50.49738693 4.321173191 0.9075205326
65.4970932 5.248984814 3.2680161
65.36226654 5.230104923 5.678253651
50.42912674 4.128143787 0.9079458714
65.37758636 4.979028702 5.678450108
50.34620285 3.934840918 0.9084575176
65.51369476 4.768130779 3.268056154
65.41057587 4.752913952 5.679997921
50.3000412 3.753539562 0.9088582993
63.37639618 4.397644043 7.898541451
50.28569031 3.56480217 0.9091918468
50.30420685 3.387135983 0.9094266295
63.3984375 3.945645094 7.899204254
50.37649155 3.202295303 0.9095202684
65.69559479 3.837147713 3.273672581
65.63179779 3.826842308 5.693009853
50.63399887 3.024275064 0.9089958668
65.8052597 3.600301743 3.277272701
65.74169159 3.57861805 5.70012188
65.86572266 3.373072147 3.279387712
65.72618103 3.349354267 5.699018478
63.42593765 3.261602402 7.900534153
51.84655762 2.695136309 0.9055877924
65.79358673 3.141208649 3.277402639
65.80963898 3.123414278 5.704581738
52.45222473 2.519564867 0.9039640427
65.72935486 2.885996103 3.275771856
65.59747314 2.876478195 5.690606117
53.00135422 2.338356733 0.9025845528
65.73583221 2.645127296 3.276419401
65.6720047 2.626233101 5.695794106
65.74119568 2.416297674 3.277078152
55.16489792 1.789918065 0.8969101906
63.68328094 1.903582454 3.213583946
55.06765366 1.584242225 0.8979582787
54.91769409 1.378817916 0.8992223144
67.15474701 1.463757396 3.324368715
58.29581451 1.37720561 7.380697727
54.85896683 1.185080767 0.900167346
67.15619659 1.230231285 3.325265884
54.7916069 0.9815514088 0.9012156129
57.99900436 0.9593159556 7.352012634
60.59589005 0.9476038218 12.17687988
54.68955612 0.7887207866 0.9023730159
58.0982666 0.7566191554 7.362989426
59.06666946 0.7423478961 9.676864624
54.63082123 0.5861800909 0.903460145
62.10795975 0.5071531534 12.440382
54.52538681 0.3844684064 0.9047393203
58.568573 0.3249836564 9.610863686
54.46724701 0.1829068959 0.9058936238
67.28377533 0.01163156889 5.812069416
58.46700668 0.1115942448 9.598316193
54.39456558 -0.007954173721 0.907081008
67.34777069 -0.2232394069 3.33811903
67.28018188 -0.2341462374 5.813299656
59.87727737 -0.1249193475 12.059268
54.32325363 -0.198379457 0.9082949758
67.39559174 -0.4583756328 3.340972662
67.32785034 -0.468621105 5.817966938
59.99160767 -0.3350261748 12.08080292
54.21310425 -0.3975562751 0.9097217917
65.64398956 -0.6534439325 3.286982536
65.57917023 -0.6628001928 5.703034401
59.31687546 -0.5388206244 11.966115
54.13625336 -0.5968571901 0.9110721946
65.66609955 -0.8947019577 3.289203167
65.58521271 -0.9029647708 5.705168247
59.27192688 -0.7545744181 11.96051502
54.04702377 -0.7852568626 0.9124393463
65.70735168 -1.136752725 3.292104006
65.66221619 -1.145295024 5.712137222
53.96484375 -0.9833429456 0.9138725996
67.44597626 -1.434984088 3.348885059
67.25060272 -1.425881982 5.819941998
58.52229309 -1.152643681 11.83550262
1.048538327 0.726698339 0.7670372725
53.90633392 -1.171759129 0.915202558
59.96648026 -1.398835182 3.113313198
53.82682037 -1.369009137 0.9166932106
59.96604538 -1.619925857 3.114961863
59.89113998 -1.613730192 5.332701206
60.25944519 -1.64690578 14.45079899
53.73065186 -1.565041304 0.9182698131
59.97227097 -1.854456782 14.39408016
53.68175888 -1.762675285 0.9197301865
67.47888184 -2.413030148 3.357429981
53.62468719 -1.949602365 0.9211831093
67.56731415 -2.652595282 3.362226009
67.49860382 -2.656479597 5.847869873
60.50698471 -2.308534384 14.51337433
53.52653885 -2.144033909 0.9228634834
57.78815079 -2.373492241 9.531955719
59.91059113 -2.492400646 12.09436131
60.41702652 -2.524794102 14.49856281
53.45967484 -2.33962059 0.9244799614
67.57228088 -3.142780066 5.857999802
57.64963913 -2.578233957 9.516082764
58.06059647 -2.606566429 11.77724457
53.39614105 -2.535018921 0.9261191487
67.62670898 -3.387763977 3.370718718
67.55769348 -3.389531374 5.859847546
58.11472702 -2.823060274 11.7904501
59.75032425 -2.926252127 14.36741161
53.29200745 -2.727448225 0.9279157519
58.34342957 -3.04703331 9.618444443
59.37954712 -3.117372513 12.01397133
59.81064987 -3.148834705 14.38467598
53.22315216 -2.921628475 0.9296372533
65.9715271 -3.773360729 3.322618961
65.86940002 -3.77130723 5.752583981
65.98270416 -4.016984463 3.325459242
65.89642334 -4.01526022 5.757467747
59.82661438 -3.782846689 12.10445404
60.0062294 -4.016593456 12.14046669
57.87062454 -4.073090076 9.572691917
59.98764801 -4.246705055 12.1424675
57.52091599 -4.661349297 9.537344933
4.563154221 -3.641777277 1.477417469
4.590435028 -3.70224452 1.15555346
4.557696819 -3.675701141 1.478911757
4.555570126 -3.711622953 1.480577707
4.557560921 -3.748184204 1.482365489
4.538417339 -3.784533501 1.158592224
4.546489239 -3.779177666 1.483637094
4.532384872 -3.818588257 1.159700632
4.531850815 -3.808128834 1.484750152
4.524495125 -3.851638079 1.160803676
4.527431488 -3.843131781 1.486365557
4.519430161 -3.876117229 1.487823248
4.528236389 -3.965986967 1.164323688
4.538534164 -4.010606289 1.165613055
4.478416443 -3.963293314 1.49135077
-5.215006351 -69.80414581 5.205373764
-5.454736233 -69.55345917 5.204916477
-5.696834564 -69.829216 5.234472752
-5.938302994 -69.67266083 5.239538193
-5.076337814 -32.77120209 0.7397851944
-5.215111732 -32.95672989 0.7449529767
-5.350279808 -33.26813126 0.7482441068
-5.563695431 -35.00691223 0.7368858457
-5.695144176 -35.1033783 0.7428097725
-5.829620361 -35.23527908 0.7484219074
-5.96421051 -35.35470581 0.7541979551
-6.10356617 -35.61771393 0.7583242059
-6.240968227 -35.74409485 0.7641464472
-6.386467457 -35.96168137 0.769194603
-6.528933048 -36.12288666 0.7748160958
-6.678030968 -36.27103043 0.7809628248
-6.834143162 -36.55859756 0.7856380343
-7.00411129 -37.04527664 0.7884246111
-7.151431561 -37.26048279 0.7935644388
-8.151499748 -49.6663208 2.459390879
-7.319162369 -37.59785461 0.7981877923
-7.496234894 -38.0021553 0.8024243712
-7.663474083 -38.28635788 0.8077065945
-7.832741737 -38.56986618 0.8130991459
-8.012162209 -38.92420578 0.8180964589
-9.011874199 -49.47388077 2.504795313
-8.200602531 -39.3333931 0.8228482604
-9.185643196 -49.43819427 2.514066458
-8.376633644 -39.61466217 0.8286089301
-8.556649208 -39.91106796 0.8343757987
-8.726222038 -40.05105209 0.8416313529
-9.066496849 -40.53100204 0.8535471559
-9.642889023 -41.46030807 0.87213552
-13.74804688 -65.06022644 3.115677834
-9.607536316 -29.27545357 4.269021511
-9.822348595 -29.27877426 4.285216808
-9.909974098 -29.22515678 4.286915779
-9.988207817 -29.05308914 4.277294159
-10.08284187 -28.96049881 4.276078224
-10.19518471 -28.99812889 4.287919044
-10.4170866 -30.21399879 5.544590473
-10.06304264 -27.95880699 4.184707642
-10.50660801 -30.13020515 5.541668892
-10.16317081 -27.93321991 4.190015316
-10.62052727 -30.12982559 5.551199913
-10.28593445 -28.00411034 4.205719948
-10.50382996 -29.13948059 5.418477535
-10.53294277 -28.59302902 4.277318001
-10.66376972 -29.34725761 5.457814693
-10.49202442 -27.97422409 4.218844891
-10.69462681 -29.01122856 5.41882658
-10.58790398 -27.92975807 4.222265244
-10.54515553 -27.94618225 5.274196625
-10.07744122 -26.21319199 6.019460678
-10.67152214 -27.83673286 4.220432758
-10.65809155 -27.9706192 5.286950588
-10.12205029 -26.00675774 5.991003513
-13.867342 -38.89780807 1.126553297
-10.79902935 -27.91892815 4.237671375
-10.76093674 -27.9747982 5.296370983
-10.24832344 -26.11249542 6.019804478
-14.05606174 -39.05092239 1.134303451
-10.88456345 -27.85549164 4.238688946
-10.77639294 -27.61461067 5.253248215
-10.33329391 -26.05158424 6.018338203
-14.21647167 -39.09308624 1.142001152
-10.58713341 -26.30274391 4.07713604
-10.82516575 -27.39272118 5.230141163
-10.34433746 -25.704319 5.964542389
-10.99597168 -27.46560478 4.212722778
-10.93333817 -27.40261078 5.240859032
-10.57036304 -26.19002342 6.063174248
-10.71211147 -26.91066742 7.233446598
-10.55007935 -25.38773155 3.992846966
-10.75690269 -26.32391548 5.092470169
-10.67053986 -26.16675758 6.069295883
-10.9379034 -27.35379791 7.343078613
-10.65254784 -25.38418961 4.000647068
-10.53545952 -25.10933685 4.923422813
-10.75876331 -26.11781693 6.070255756
-11.0192709 -27.26223946 7.334241867
-15.98724556 -43.23126984 1.180223465
-10.75489616 -25.41542816 4.011554241
-10.63781834 -25.14439011 4.936851025
-10.47273254 -24.71334839 5.820907593
-11.10796738 -27.21904182 7.335572243
-16.08751869 -43.00097656 1.188247442
-11.37372208 -27.29462433 4.227506638
-10.70763779 -25.06076241 4.932830334
-10.54107857 -24.6120491 5.811763763
-11.17266941 -27.0888176 7.31761694
-10.76793003 -24.77888489 3.95619297
-10.78954029 -25.00424767 4.933259964
-10.65547466 -24.67745209 5.833464622
-11.23045826 -26.91750336 7.29107666
-15.64057636 -40.35458374 1.198814631
-11.52791882 -27.09065628 4.221817017
-10.86897945 -24.93985367 4.932542324
-11.12704754 -26.00013542 6.088440895
-11.29405594 -26.77060509 7.26993227
-15.72714424 -40.12033463 1.206161857
-12.55937862 -30.27570724 4.58656168
-10.95409298 -24.89614868 4.934913158
-11.26051998 -26.11055565 6.119229794
-11.41199684 -26.81728363 7.292000294
-15.83999157 -39.9778862 1.213682532
-12.66635132 -30.2375412 4.591849327
-11.00340843 -24.7305584 4.919151783
-11.43115234 -26.34512711 6.173293591
-10.95611858 -24.87808037 6.869716644
-11.20262718 -24.9319973 4.004843712
-11.08036804 -24.66174889 4.917788982
-11.51388741 -26.2747879 6.170723915
-11.05700111 -24.88834 6.883035183
-16.12638855 -39.92169571 1.228910089
-21.21974373 -57.46403122 5.539288521
-11.27138901 -24.83399582 4.001811981
-12.08121395 -27.67004967 5.377095699
-11.55208588 -26.07361603 6.143184662
-11.14689732 -24.8607254 6.887937546
-16.27096748 -39.88505554 1.23668766
-25.36930656 -69.86646271 3.912838697
-19.81767845 -52.1787796 5.151738644
-11.34884167 -24.76626205 4.002185822
-11.21254921 -24.47181702 4.906795502
-11.56007481 -25.75987625 6.094999313
-11.25136185 -24.89785576 6.906920433
-25.57764435 -69.66719818 3.921396494
-19.9795208 -52.04651642 5.156130791
-11.41266537 -24.67121506 3.999065399
-11.30390072 -24.45349693 4.913039207
-11.40752983 -24.92879295 5.949512005
-11.59115696 -25.69062996 7.097001553
-16.55678177 -39.80070496 1.252184272
-25.79937935 -69.51306915 3.931730509
-20.09263802 -51.76158524 5.148776531
-11.33000469 -24.09456444 3.941580772
-12.19502354 -27.00141907 5.306191921
-11.49291325 -24.88508797 5.951588631
-12.00679493 -26.709198 7.338892937
-11.7881012 -26.149086 8.250308037
-16.70472145 -39.77394485 1.259981036
-26.0202713 -69.35824585 3.942014456
-11.42131042 -24.0798378 3.947838068
-11.60559845 -24.7934494 4.982569695
-11.73014069 -25.32565498 6.045015812
-12.08500385 -26.62031937 7.331037521
-11.86345959 -26.05753517 8.239260674
-16.85702133 -39.75993729 1.267829776
-26.23542404 -69.18753815 3.951631784
-21.21362305 -53.97971344 5.349696159
-11.51940727 -24.07092285 3.955197334
-12.68325996 -27.85871315 5.456167698
-11.80309486 -25.23768997 6.039005756
-12.34183693 -27.08138657 7.44859314
-11.98716259 -26.10481834 8.265739441
-16.99990463 -39.71690369 1.27555573
-26.46187973 -69.01213837 3.961860418
-21.89409637 -55.41464233 5.476512432
-13.96073055 -31.28613091 4.790532112
-12.66426754 -27.43980598 5.403552532
-11.86227512 -25.10832596 6.025159836
-13.00628757 -28.82158852 7.856842041
-17.14203072 -39.67146683 1.283264399
-26.6705761 -68.86692047 3.971643209
-21.1327095 -52.45183945 5.261201382
-12.7045517 -27.08804131 4.31821537
-12.80856705 -27.56277847 5.432140827
-11.98705006 -25.18287277 6.049984932
-12.38396454 -26.56074333 7.354738712
-17.28398705 -39.62553787 1.290961266
-26.88054848 -68.68667603 3.980791807
-20.71772575 -50.59226608 5.130652905
-12.76395512 -26.95683289 4.311728954
-13.01471996 -27.85253143 5.486850739
-12.03303242 -25.01570511 6.028976917
-12.4444294 -26.42066383 7.335359097
-17.42840958 -39.58666611 1.298685789
-27.09980774 -68.53609467 3.991142035
-20.99301338 -50.81455231 5.162676811
-12.84327412 -26.87099457 4.310909271
-12.17487526 -25.01050568 5.062860966
-12.40390778 -25.82695389 6.194402695
-12.54829407 -26.41408348 7.34648037
-12.24216366 -24.11015892 0.3033762276
-17.57535744 -39.55483627 1.30644083
-27.33262825 -68.4263916 4.003190041
-21.17381096 -50.75438309 5.172622204
-12.92212296 -26.784935 4.310061932
-13.24930096 -27.88503647 5.513264656
-12.52096558 -25.8656292 6.213006973
-12.68511486 -26.50532722 7.380108833
-12.30462074 -24.00995255 0.3103218377
-17.72154808 -39.52059174 1.314178467
-27.52165413 -68.19132996 4.009960175
-21.33618927 -50.6407814 5.178380013
-13.00501823 -26.71182823 4.310716629
-12.34959602 -24.93101883 5.070084095
-12.69173908 -26.06028175 6.261585236
-12.39285088 -25.32811165 7.122653961
-12.35637188 -23.8813858 0.318123728
-17.8650322 -39.4782753 1.321871042
-27.75036812 -68.0727005 4.021601677
-21.85704803 -51.55261993 5.265580177
-12.41163731 -24.69720078 4.08496809
-12.30938625 -24.52336311 5.017064095
-13.17065239 -27.1432991 6.480870247
-12.51282883 -25.37896729 7.146763802
-12.4284153 -23.81103516 0.3240522444
-18.00972748 -39.43921661 1.329574943
-27.95718956 -67.89303589 4.030646324
-23.14563179 -54.61226273 5.524564266
-12.510746 -24.69353104 4.093103886
-12.34824753 -24.34980011 4.99995327
-13.52179527 -27.83487892 6.625892162
-12.57626438 -25.26498985 7.133009911
-12.50624847 -23.75737953 0.3294304311
-18.15571022 -39.40338516 1.33729434
-28.17790222 -67.75416565 4.041406631
-21.5463829 -49.53273773 5.13431263
-12.24590302 -23.66695023 3.981315374
-12.43493462 -24.3143158 5.004155159
-13.66579247 -27.92304039 6.655294895
-12.7063036 -25.34265518 7.163527489
-12.57826614 -23.6884861 0.3352586627
-18.30438232 -39.37454224 1.345053315
-28.38432121 -67.57700348 4.050509453
-21.70851898 -49.43124771 5.140841961
-12.30526161 -23.56280899 3.97738409
-12.50812149 -24.2412796 5.00256443
-13.76098347 -27.87152481 6.657886028
-13.42495823 -27.07713699 7.577836514
-12.69255924 -23.73363686 0.3375297785
-18.45925903 -39.36203003 1.352912307
-28.58843231 -67.39548492 4.059395313
-21.84139824 -49.2505722 5.141002655
-12.47140408 -23.75370026 4.008233547
-12.56877899 -24.13455009 4.995738506
-12.77201366 -24.8137188 6.078469753
-14.05818653 -28.53455353 7.929648876
-12.79809189 -23.75397301 0.3405706286
-18.59458351 -39.29649353 1.360436678
-28.80963898 -67.26210785 4.070345879
-14.25037193 -28.17939949 3.45168972
-13.55650902 -26.43798256 4.334244728
-12.66556454 -24.12804413 5.00453186
-12.90612984 -24.90228271 6.107009411
-13.07234764 -25.49489975 7.237344742
-12.88680458 -23.72903633 0.3449990153
-18.73954582 -39.25667953 1.368117332
-29.02038765 -67.10181427 4.08011055
-14.35028553 -28.13756561 3.456882238
-13.65176678 -26.40213966 4.339412212
-12.86956978 -24.41066742 5.05860424
-12.61373043 -23.83083916 5.9100914
-13.16974258 -25.47485924 7.245755196
-12.97184944 -23.69445229 0.3497063816
-18.89446068 -39.24248123 1.375971437
-14.06818962 -27.08421707 3.379692316
-14.4524498 -28.24336243 4.567975998
-12.9584837 -24.37894058 5.063678741
-13.16967869 -25.05907059 6.160607815
-12.68324947 -23.87897873 6.886266232
-13.07126713 -23.69683838 0.353274256
-19.03018951 -39.19869614 1.383224964
-14.39185905 -27.51817703 2.359473467
-14.17147255 -27.07660294 3.386998415
-14.54201221 -28.17274475 4.569712162
-13.06197739 -24.3857708 5.074855328
-13.24039459 -24.98546791 6.157353401
-12.76277828 -23.82740402 6.886667252
-14.60223389 -28.87475014 9.234864235
-13.15630531 -23.67445183 0.3574034274
-14.69064903 -27.69773483 1.307669759
-14.48591423 -27.48172188 2.364571333
-14.71576023 -28.19802856 3.487391949
-16.23726463 -32.28633499 5.072295189
-13.31584549 -24.79871178 5.149589539
-13.00476074 -24.09347916 5.994438648
-12.82738686 -23.74985313 6.880393505
-13.25000381 -23.66123199 0.3614252508
-14.76397038 -27.6065464 1.312394619
-14.72815895 -27.80963898 2.386354446
-14.77157307 -28.05622482 3.484042645
-22.49198151 -48.09581375 6.981062412
-13.09050369 -23.94766426 5.025544643
-14.04544067 -26.55485725 6.488382339
-12.73819351 -23.25808525 6.777418613
-13.35133839 -23.67905807 0.3643261492
-14.87735081 -27.60236168 1.31804204
-14.82389641 -27.77392387 2.391584158
-14.87173462 -28.01444054 3.489354134
-22.67137337 -48.05039978 6.992980957
-13.46739769 -24.67087173 5.149702072
-12.64068699 -22.65102196 5.733053684
-12.92518997 -23.50329399 6.846981049
-13.46146679 -23.69302368 0.3677017987
-14.93248367 -27.7413063 2.397684097
-14.96129322 -27.93138313 3.491699219
-14.73807907 -27.50153732 4.52931118
-13.5442791 -24.59106255 5.148044586
-12.79730892 -22.79591942 5.773112774
-12.78574085 -22.88156891 6.713519096
-13.57284069 -23.72121429 0.37047261
-28.64926147 -60.81890869 1.597416878
-14.97022533 -27.54721832 2.396076202
-15.06992245 -27.91114616 3.498831511
-15.97974396 -30.32020378 4.880861282
-13.82557106 -25.03855133 5.229825497
-13.15968895 -23.46832085 5.917114258
-12.88944244 -22.90066147 6.730472565
-13.67919922 -23.73598862 0.3736411631
-15.05274391 -27.46610069 2.399573803
-23.12135696 -47.47161102 5.142310619
-15.89134026 -29.78741455 4.827429771
-13.95433521 -25.09706116 5.249952316
-13.19052124 -23.29844093 5.894935608
-12.98397923 -22.89572716 6.741844654
-13.32881069 -23.86838531 7.951406002
-13.79194069 -23.76507759 0.3763871491
-26.05917931 -53.37670517 1.559190631
-15.16600418 -27.46051979 2.406537056
-15.51492023 -28.55821419 4.688836575
-13.69649601 -24.20184898 5.11756134
-13.33534622 -23.41310692 5.929195881
-13.23689651 -23.28357887 6.846643925
-13.9282856 -23.84895706 0.3775353134
-26.20952797 -53.20545578 1.568614244
-26.18707466 -53.71092987 3.629813671
-23.46276283 -47.34313965 5.161459923
-15.62587261 -28.53568268 4.696856022
-14.19624329 -25.17018509 5.283536434
-13.41414547 -23.36317062 5.930878162
-14.04811954 -23.89171028 0.3798958957
-26.3932724 -53.11484528 1.578701496
-25.99853897 -52.72816467 3.598042727
-15.03847504 -26.71123695 3.433132648
-14.80553055 -26.27420044 4.430517673
-14.79978943 -26.36920357 5.487519264
-13.47471333 -23.26935196 5.923839092
-14.19126034 -25.12594223 7.312401295
-14.17784691 -23.95597458 0.3816408217
-23.75525093 -47.09835815 5.170890808
-14.84555817 -26.10390663 4.419643402
-14.9047575 -26.3525219 5.496482849
-14.07120609 -24.46250916 6.174278259
-15.6702528 -28.43335533 8.117825508
-14.28747654 -23.97193527 0.3847872615
-29.82007599 -60.01456451 1.664439917
-26.28071594 -52.35595703 3.608180285
-23.98889732 -47.18259811 5.193197727
-16.32818794 -29.33634949 4.828278065
-13.97172642 -23.8792057 5.108138561
-14.20919514 -24.54234695 6.202683926
-13.29415607 -22.47460365 6.705031872
-14.43664074 -24.07717705 0.3853776455
-30.02425003 -59.90402603 1.67572391
-32.94041443 -67.26598358 4.328081131
-24.42041016 -47.72365952 5.254671574
-16.48050117 -29.40032578 4.847523689
-14.82748699 -25.64478302 5.405227661
-14.4232645 -24.79889297 6.266785622
-13.31553268 -22.29716301 6.67528677
-14.58504105 -24.17802811 0.3861165941
-19.38201904 -35.16425323 1.448789001
-32.63956833 -65.92787933 4.282119751
-24.51909256 -47.4868927 5.249858379
-16.64287186 -29.4854908 4.869513988
-15.07653332 -25.96763039 5.469306469
-14.59040451 -24.94037247 6.30804491
-13.36800671 -22.19529152 6.663647652
-14.81167984 -24.4515934 0.3819870651
-25.04950714 -47.59770203 1.578397036
-32.84337997 -65.75945282 4.291532993
-24.68803406 -47.43635559 5.260231018
-16.7598877 -29.46426201 4.878401756
-14.96263599 -25.44923973 5.396573067
-13.97098255 -23.27488708 5.983841419
-13.43923092 -22.13816452 6.662797451
-15.09251022 -24.85168648 0.3741788864
-25.19875336 -47.47842026 1.587067842
-25.04419136 -47.60536575 3.434444904
-24.85643959 -47.3614006 5.269317627
-24.70518875 -47.19940567 7.103647232
-14.52036762 -24.20413017 5.20408535
-14.0158329 -23.1472187 5.970142841
-13.58646393 -22.26700783 6.706337929
-14.99277878 -24.39443016 0.3907037675
-25.34085846 -47.34410477 1.595556617
-25.19106293 -47.48030472 3.441175938
-16.13583183 -27.38711929 3.552888632
-17.80594063 -31.26015472 5.12588501
-15.09830093 -25.27144432 5.390219212
-13.29040432 -21.27642632 5.602499008
-13.69551373 -22.29496384 6.72630167
-15.50211811 -25.26096535 0.3703479767
-24.92703438 -45.99429321 1.591273785
-25.33982277 -47.36026382 3.448138237
