# .PCD v0.7 - Point Cloud Data file format
VERSION 0.7
FIELDS x y z
SIZE 4 4 4
TYPE F F F
COUNT 1 1 1
WIDTH 1332
HEIGHT 1
VIEWPOINT 0 0 0 1 0 0 0
POINTS 1332
DATA ascii
11.30637264 19.42038345 2.048873663
11.3364315 19.4670105 2.869897127
11.33686256 19.46047211 3.69235158
11.21291542 19.23898315 4.481794357
11.37607384 19.38528061 0.424403429
11.39310932 19.40840149 1.23696959
11.39270115 19.40872955 2.051058531
11.40816975 19.42915726 2.870527983
11.41527843 19.43475723 3.694783449
11.28753948 19.208498 4.48382473
11.45271969 19.35590172 0.4246765375
11.46720314 19.38273239 1.237677813
11.48202419 19.4019413 2.053579092
11.49842167 19.42399025 2.874550343
11.51260471 19.45047379 3.702893019
11.3844595 19.21726227 4.493145943
11.5534935 19.3768959 0.4240636826
11.5570879 19.38459396 1.239013672
11.56988621 19.40026283 2.056303263
11.59016418 19.4291153 2.879450083
11.59050083 19.43128014 3.706064224
11.47024918 19.21387482 4.499921799
11.63660526 19.36623192 0.4240216911
11.64467049 19.37364578 1.240151882
11.65089607 19.38609886 2.058278561
11.67314243 19.41830635 2.882757664
11.67291164 19.41148567 3.709516525
11.55372715 19.19785118 4.504831791
11.71282101 19.32691002 0.4244741797
11.72081852 19.33433533 1.240744352
11.71898842 19.33296585 2.058143139
11.76124001 19.39962769 2.885768175
11.76580906 19.40133858 3.7147367
11.63972282 19.17775917 4.509460449
11.81108856 19.32530212 0.4242545068
11.83212471 19.3551693 1.242705226
11.83015156 19.35375977 2.062685013
11.84733963 19.37714005 2.888433933
11.863801 19.3993454 3.72120738
11.72074032 19.14877892 4.512516499
11.90340614 19.31290627 0.4242332876
11.91939735 19.33410645 1.243747711
11.92540169 19.34647942 2.065502882
8.08707428 12.82531452 2.213110924
11.95286274 19.38151932 3.725461483
11.8067112 19.12798119 4.517167568
11.9796505 19.30502892 0.4241807759
11.98236465 19.30384827 1.244307518
11.99749756 19.33168221 2.067249775
12.00036812 19.3308773 2.892802715
12.00660896 19.33584404 3.724420071
8.850839615 14.01852417 3.570671558
12.05832005 19.27683067 0.4244635999
12.07325459 19.29626846 1.245616317
12.08881092 19.31679153 2.069655418
8.404171944 13.15593433 2.253714323
8.439609528 13.21148968 2.840302944
8.855446815 13.90307426 3.555557728
12.15696907 19.27361679 0.424290359
12.16217041 19.28487396 1.246858239
12.17047119 19.29335976 2.071392775
8.379343033 12.9988699 2.240910769
12.19809437 19.33679771 3.737881899
12.05712605 19.09796524 4.53514576
12.24041367 19.26055145 0.4243205786
12.25282574 19.28378868 1.248278618
12.25793266 19.28710175 2.074091911
12.28005123 19.31850052 2.906378031
12.28539848 19.33029938 3.74336338
8.585297585 13.23340511 3.44192481
12.31555653 19.23350525 0.4246067703
12.32103062 19.23752785 1.248761296
12.3361063 19.26515007 2.075822115
12.36028862 19.29986191 2.90923214
12.37526417 19.31959343 3.748635292
8.632856369 13.20665741 3.442615271
12.41095257 19.23125839 0.4244396687
12.42475414 19.24890327 1.250583172
12.43663883 19.27134132 2.079550266
12.45869255 19.30247879 2.914623737
12.46103287 19.30175209 3.752927065
12.32191849 19.07960701 4.556412697
12.50436878 19.22519875 0.4243455827
12.51920128 19.24451447 1.252065063
12.51944256 19.24824142 2.08143878
12.54043579 19.27758598 2.917170763
12.54893112 19.28692627 3.757725716
9.086975098 13.71989632 3.551860809
12.5957756 19.21533585 0.4243244231
12.60633659 19.22785378 1.253284097
12.60150814 19.21583366 2.082932234
8.444725037 12.58208179 2.214079142
9.357288361 14.03614712 2.990465879
8.909499168 13.31848049 3.482544184
12.68116665 19.18764496 0.4246201217
12.70022392 19.21368027 1.254662514
12.70131683 19.21908951 2.086586952
8.489647865 12.54437637 2.213788271
8.337217331 12.30038738 2.739394903
8.878642082 13.16051674 3.45886445
12.7801981 19.18882751 0.4244084656
12.78636932 19.19458008 1.255865097
12.79916191 19.2185173 2.090035677
9.308395386 13.72817326 2.343222857
8.33932972 12.20265007 2.729624748
8.925233841 13.12623024 3.458658457
12.86859798 19.17272377 0.424513638
12.87335682 19.18409348 1.25720489
12.88530064 19.19901085 2.092296124
9.411886215 13.77784252 2.352435589
8.351452827 12.12656212 2.722813845
8.931192398 13.02862072 3.446402311
12.93943787 19.13666725 0.4249934554
12.94981003 19.14915848 1.258074641
12.97037029 19.17747498 2.09445858
8.761119843 12.66396046 2.237187386
8.351420403 12.02740669 2.712799549
9.179499626 13.3125639 3.506795168
13.0387516 19.13665199 0.4248164296
13.0586729 19.17151642 1.260224462
13.05849361 19.1679039 2.097254992
13.10316086 19.23326111 2.944658279
8.419995308 12.03965378 2.719151974
9.253504753 13.3186264 3.514550686
13.13034439 19.13178062 0.4247402251
13.15378475 19.16431808 1.261787653
13.15457153 19.16235542 2.100532293
9.538675308 13.65039825 2.35039854
8.693367958 12.35880947 2.771722317
9.354421616 13.37055969 3.530862808
13.21452236 19.10753059 0.4250108004
13.2214489 19.11499214 1.262373447
13.227458 19.12869835 2.101819754
13.26023102 19.17540359 2.949347973
8.582948685 12.0916872 2.736643553
9.288511276 13.16328335 3.497681856
13.31531048 19.10790825 0.4248396158
13.32438469 19.11870193 1.264236808
13.33694458 19.14233208 2.106432676
8.89141655 12.45925903 2.229991674
8.501566887 11.87175465 2.708511114
9.325190544 13.11281872 3.494662523
13.41069603 19.09951973 0.4248317778
13.41733837 19.11431122 1.265840292
13.42221546 19.11895561 2.108650923
8.907865524 12.38354492 2.225614071
8.667411804 12.02820301 2.736757278
9.334148407 13.02126122 3.48370862
13.49373913 19.07980537 0.4250416458
13.50941658 19.10054207 1.267331123
13.49853706 19.08198929 2.110004425
8.934976578 12.32923985 2.223366022
8.360162735 11.47663784 2.658417225
9.502607346 13.17200375 3.519428253
13.58252525 19.06070709 0.425237149
13.59930992 19.08306885 1.268754244
13.60162544 19.09168053 2.114290476
9.031351089 12.37215328 2.231897116
8.475656509 11.5541153 2.675014019
9.552463531 13.14050579 3.520242929
13.68152714 19.05607033 0.4251747131
13.69377708 19.07180405 1.270348549
13.7016325 19.08863449 2.117967606
8.929905891 12.12539101 2.208891392
9.04959774 12.29874992 2.793079376
9.464903831 12.90849018 3.481978416
13.77497578 19.04275703 0.4252744913
13.78264141 19.05189514 1.271755338
13.78929901 19.06705666 2.120450974
9.04872036 12.20075417 2.221021414
9.067180634 12.22635365 2.787342548
9.585656166 12.98111248 3.50314045
13.86164188 19.01919174 0.425565213
13.87267685 19.03325272 1.273213863
13.88153934 19.05167007 2.123384476
8.94974041 11.96150112 2.198725939
8.693341255 11.59201145 2.695778131
9.566080093 12.8504343 3.484580517
13.95979977 19.01163101 0.4255697727
13.97078037 19.02569008 1.274964213
13.97384739 19.03587532 2.126330376
8.70857811 11.52247047 2.154350758
8.995233536 11.93055439 2.752735615
9.109444618 12.09749699 3.343608856
14.05460739 18.99872971 0.4256761074
14.07361889 19.02421379 1.276887774
14.06851482 19.02294731 2.129508018
8.773551941 11.52298069 2.158235073
8.85085392 11.63170719 2.712155342
9.255811691 12.2093029 3.372407675
14.13441849 18.96422768 0.4261801839
14.14184761 18.98073578 1.277701378
14.15746593 19.00146484 2.132148027
8.794756889 11.46151161 2.15530467
8.908244133 11.62501717 2.716101885
9.349273682 12.24461746 3.386274099
14.24448204 18.97903442 0.4257977009
14.2413826 18.98091698 1.279609799
9.986832619 13.04023552 1.732196331
9.111617088 11.81774426 2.198515654
9.206004143 11.95367336 2.771853447
9.345388412 12.14783955 3.373721123
14.3384161 18.97062111 0.4258419275
14.34453773 18.97815704 1.281570315
10.0796175 13.07187843 1.737125993
9.061511993 11.65990925 2.184802055
8.869782448 11.39367962 2.690663099
9.435664177 12.18255424 3.387260675
14.41004753 18.92369843 0.4265862703
14.42080688 18.93771744 1.282616138
10.15176296 13.06397724 1.739701152
9.024334908 11.51708698 2.172907114
9.134058952 11.6677494 2.738499641
9.552875519 12.24384975 3.406911612
14.52751732 18.9320755 0.426323384
10.34950829 13.22749615 1.141695261
10.18379879 13.0059576 1.738731265
9.055484772 11.46471882 2.17128396
9.392019272 11.92407799 2.784150839
9.596058846 12.20736122 3.406813622
14.6263504 18.92148399 0.4264160991
14.6346302 18.93226814 1.286764503
14.65715981 18.96964073 2.150886774
9.132707596 11.47959518 2.177015066
9.422353745 11.87214947 2.781692743
9.377791405 11.81633854 3.335719585
14.70977402 18.88958168 0.4269020855
14.71573639 18.90453911 1.28808701
14.72743797 18.92003822 2.15183568
9.026016235 11.24625397 2.154863596
14.76280594 18.97467041 3.898824215
9.423006058 11.78522968 3.336574554
10.4952631 13.12170982 0.5319594145
14.81838226 18.90531158 1.290151238
14.83358479 18.92553902 2.156394243
9.106653214 11.27055359 2.161478043
9.323382378 11.56483459 2.744311333
9.739073753 12.12086773 3.410987616
10.53809834 13.08205128 0.5326245427
10.49490547 13.02475071 1.142481565
14.92070198 18.90502739 2.159198761
9.163580894 11.26262951 2.164500237
9.357048988 11.51963234 2.742855549
9.787725449 12.09164429 3.412507772
14.99986935 18.85178185 0.4273381531
10.54822826 12.98941326 1.143206
10.73463631 13.24018764 1.770287275
15.05349255 18.93032837 3.039531469
15.06497669 18.94589806 3.921367884
9.844500542 12.06839752 3.415656567
15.10862827 18.84433365 0.4273941219
10.60752106 12.96683788 1.144192934
15.13909817 18.89205551 2.167783976
15.15119171 18.90837097 3.044244528
15.20127678 18.9816246 3.936231852
9.892996788 12.03878117 3.417190313
10.6717329 12.95009232 0.5348674655
10.61435032 12.88092422 1.143479347
15.22639656 18.87030792 2.170625448
15.24569798 18.89600754 3.049422026
15.24618626 18.90452194 3.932839632
10.04274273 12.14527416 3.446119308
10.71761036 12.91463661 0.5354702473
10.6721344 12.85646152 1.144438148
15.30148792 18.83241272 2.172370911
10.15810204 12.19947815 2.288780212
9.730443954 11.64848804 2.786536455
9.62242794 11.51429844 3.324557543
15.40500736 18.81492043 0.4277387857
15.4152689 18.82886887 1.301646829
10.52123165 12.57013512 1.736138225
10.30655861 12.29589176 2.304544449
9.712885857 11.53634548 2.774626017
9.735869408 11.57102489 3.343631268
15.49476719 18.78775406 0.4281781912
15.51981354 18.82055855 1.303767085
10.56929874 12.53495502 1.736882091
10.29203415 12.18320084 2.296319485
9.915472984 11.70522594 2.807699442
9.798567772 11.56191921 3.349321365
15.59321404 18.7711792 0.4284294546
10.79555607 12.7189827 1.145714164
15.60812378 18.79228783 2.183957815
10.34364319 12.15507889 2.297845125
9.792836189 11.46065521 2.774550438
9.826700211 11.50438118 3.345476151
15.70639706 18.76548004 0.4284850359
10.82786655 12.65748882 1.145826578
15.72516537 18.7986393 2.18923831
10.42725849 12.16231155 2.303745508
10.2215395 11.90556908 2.852699041
9.829007149 11.41919327 3.335541487
15.81005383 18.754179 0.4286504984
15.82009888 18.768116 1.309681654
15.8224287 18.77950668 2.19275713
10.34282112 11.96446419 2.285586834
9.72018528 11.19095135 2.743509531
9.84321022 11.34952831 3.32880044
11.26378822 13.00229549 0.5336627364
15.91535091 18.75288773 1.311601639
10.80667305 12.44496346 1.743849397
10.00216675 11.45798588 2.792620897
10.70900154 12.33280087 3.541117191
10.32784367 11.86319923 4.035062313
11.30983448 12.96487808 0.5343255401
16.02546883 18.74840355 1.313957095
10.8492794 12.40257549 1.744184852
9.540086746 10.80237675 2.158943892
9.78801918 11.1077776 2.741928816
10.55300617 12.05242443 3.490643263
16.1157093 18.71710587 0.4292372763
16.10187531 18.70911217 1.315279245
10.86914062 12.33725739 1.742710948
9.563018799 10.74752331 2.157004356
9.896790504 11.1597147 2.756278038
10.19085217 11.51957035 3.387471437
16.19852448 18.68514442 0.4298018217
11.45798397 12.95435524 1.162222266
10.88588905 12.2638979 1.740828633
9.583665848 10.69432259 2.155038118
9.995471954 11.19402313 2.768167734
10.35616302 11.6365242 3.419712067
10.73027134 12.09124565 4.122350216
16.30263329 18.67152596 0.4300354123
16.31411552 18.69444084 1.319841623
9.940123558 11.04649734 2.749975443
10.95128441 12.26371765 3.560039997
11.65333843 13.1097641 4.394860744
16.40600204 18.66334534 0.4301754236
11.6264143 12.96498585 1.166060328
16.43748093 18.70558167 2.217280149
9.796361923 10.78926182 2.175245285
9.971334457 10.99965858 2.748599052
10.71317673 11.89142132 3.489723682
11.59857655 12.95085812 4.364487171
16.49824715 18.62754822 0.4308245778
11.7145071 12.96661758 1.168052077
16.5017643 18.64359474 2.21799016
9.763156891 10.66356087 2.165203333
10.03895855 10.99194241 2.754027605
10.70745754 11.79033566 3.477327108
11.62353325 12.87842941 4.357491016
16.60778618 18.61859894 0.4309891462
11.7744379 12.93938637 1.169178963
16.63437462 18.66202545 2.224632263
11.70873833 12.87083244 2.433710098
10.72964668 11.72743225 3.47257328
11.6965456 12.86784458 4.366004944
16.72397041 18.61671448 0.4310300648
11.70943451 12.76613045 1.166275501
12.06050873 13.18292141 1.826029539
9.88994503 10.64973545 2.17298913
11.18790531 12.17456532 3.576606274
11.60128689 12.66012192 4.323225975
16.82727814 18.59911537 0.4313636124
11.75439358 12.72218323 1.166947484
12.05338383 13.07577419 1.821996093
10.80663204 11.63192844 2.295983076
10.0430479 10.74819756 2.732883453
11.20866394 12.10714912 3.571247339
11.55595016 12.51268578 4.295985222
16.90967751 18.55688286 0.4321525991
18.11021996 19.94902039 1.370948672
13.20845509 14.31032372 2.624690771
10.27517414 10.93820858 2.770904064
11.7155695 12.60042191 3.686255932
11.72699642 12.61617184 4.334450245
17.02546692 18.55941582 0.432128191
17.79312515 19.44023705 1.359602928
12.30813503 13.17179394 1.837017059
10.70781708 11.34829617 2.27191782
10.39453888 10.99201298 2.786639929
11.80540657 12.61366558 3.698187828
11.97912407 12.81526947 4.397789001
17.11312294 18.52240181 0.4328327477
17.76876068 19.27002907 1.357715607
12.543293 13.34528732 1.853822112
10.03705978 10.50061512 2.174090385
10.53275681 11.06597519 2.80590868
11.91605759 12.64514923 3.714654922
11.66893578 12.36694145 4.291213036
17.23922348 18.52838516 0.432757616
17.73944092 19.09575462 1.355698347
12.58997822 13.29331017 1.854240298
10.89971638 11.39412975 2.288058281
10.53605938 10.98617363 2.799314737
11.27790642 11.82580471 3.547282457
11.48940563 12.06727886 4.223930359
17.36229897 18.52324295 0.4328936338
17.70912933 18.92192841 1.353678346
12.55018139 13.14956188 1.847546101
10.86624527 11.26653004 2.278079271
10.48344135 10.84432316 2.782164574
11.30090618 11.76292324 3.542900801
11.77841282 12.30100536 4.29746294
17.44267273 18.48341751 0.4336643219
17.46786308 18.51516914 1.344955921
12.67913246 13.19481468 1.855125904
10.98758221 11.32085991 2.289870262
10.62360859 10.91843414 2.801719666
11.28052902 11.65647507 3.528548241
12.46663284 12.9801445 4.489715099
17.5626049 18.48022652 0.4337740541
17.59450531 18.5193367 1.348003626
13.01248455 13.46952248 1.880008101
10.69651413 10.91668606 2.808465481
11.36634827 11.66400242 3.539560556
12.25405502 12.64861679 4.413458347
17.69890404 18.49416351 0.4335770607
17.69982719 18.49921989 1.35038352
17.69192123 18.50143814 2.268353701
10.43224144 10.54192829 2.20442009
10.99941254 11.16679955 2.858501673
11.19977474 11.39379215 3.489648819
12.24801922 12.5479126 4.398702621
17.80303001 18.47204781 0.4340440333
17.79643631 18.47581291 1.352546692
17.81336021 18.49849319 2.274052858
10.98413849 11.0704155 2.848884583
11.85746002 12.02541924 3.638294935
12.214921 12.41848946 4.37615633
17.91743279 18.46723747 0.4341975451
17.91138268 18.4650116 1.355256677
17.93364525 18.49346542 2.279656887
10.49332809 10.45324993 2.203606606
10.93809986 10.93737507 2.833260298
12.03118324 12.12829113 3.670503616
12.34644127 12.47320557 4.402653694
17.99992561 18.42069817 0.4351215959
18.00193977 18.42730904 1.357206821
18.00174904 18.43836594 2.281152725
10.70503139 10.60179996 2.227496147
11.02235508 10.94571018 2.842063427
12.03726768 12.04443073 3.662011862
12.4754324 12.51928043 4.427652359
18.12610435 18.42048073 0.4352066517
18.14580536 18.44607925 1.360855341
18.12903786 18.43960381 2.287351847
10.84027386 10.66616726 2.241007805
12.70744324 12.66214561 3.148224831
12.09284115 12.01399612 3.665400982
12.60221291 12.56174564 4.451889038
18.23875618 18.40509033 0.435574472
18.24407959 18.42220688 1.363119125
18.25928307 18.44309998 2.293794632
12.74935722 12.61715984 3.148547649
12.58949947 12.45503616 4.435597897
18.3316288 18.37495232 0.4362124503
18.3374958 18.38600159 1.365199089
18.36364365 18.41841316 2.298106194
11.41628647 11.11962223 2.894732475
12.69002628 12.47313881 4.45279789
18.46796036 18.38308716 0.4361633658
18.47098923 18.39125633 1.368554115
12.73312092 12.40608692 1.83217442
13.07008648 12.76192379 2.523732185
11.49905872 11.12282372 2.903089046
18.56570244 18.35020065 0.4368681312
18.58530998 18.37565994 1.371317863
12.27726746 11.83607674 1.791844249
10.72721577 10.23477554 2.208115101
18.67795181 18.32507706 0.437443316
18.70030785 18.3533802 1.374076009
12.33265114 11.80466843 1.793606997
10.82324791 10.25264168 2.216222286
18.7966938 18.31268501 0.4377874732
18.81623268 18.33808517 1.376916885
12.34329605 11.72733593 1.791744947
10.77704048 10.12797356 2.205806494
11.9223156 11.30377388 2.959587574
18.90575981 18.289711 0.4383305609
18.90282249 18.29228401 1.37885344
12.51463127 11.81373882 1.802952766
10.9647522 10.24226952 2.226171732
11.89085293 11.18722248 2.947033882
19.03601074 18.28751755 0.4385019839
19.03577805 18.29297829 1.382253885
12.55739498 11.76862526 1.803721309
11.18562603 10.38792992 2.250780821
12.05558109 11.26979256 2.970114231
19.13294411 18.26443481 0.4390457571
19.15662193 18.29399872 1.385361671
11.10135078 10.23292446 2.235900164
11.84002495 10.97761822 2.925117493
19.23709106 18.22805214 0.4398585558
19.26502228 18.26179123 1.387984037
12.08692455 11.12938023 1.760685802
11.01770878 10.06858158 2.220575809
11.72718716 10.77884865 2.89792347
19.37824059 18.22768402 0.4400239289
19.3933506 18.24872208 1.3912431
19.40133667 18.2694397 2.345347404
11.51939774 10.48462296 2.28127265
12.21121216 11.17251015 2.978006363
19.49488068 18.20895195 0.4405221939
19.49709892 18.21736717 1.393786311
19.48788071 18.22128105 2.348334312
19.62308502 18.20079803 0.4408351481
19.61615181 18.20708466 1.396852732
19.63867188 18.2354641 2.356475115
12.28407478 11.08102226 2.978197098
19.73233414 18.18012619 0.4413734078
19.74586678 18.19972229 1.400229931
19.74962997 18.20993423 2.361436605
11.61545658 10.34624958 2.281147242
19.78502846 18.26440048 4.305372715
19.82622719 18.13747787 0.4423252344
19.85268974 18.16953468 1.402911067
19.85587883 18.18595123 2.366227865
12.23438549 10.86341572 2.356348276
12.31686974 10.94705009 2.971103668
19.96926689 18.14133644 0.4424405098
19.97980309 18.158144 1.406235576
19.98861694 18.18004417 2.372940063
11.89064217 10.45348263 2.308064938
13.09376621 11.6071167 3.102073193
19.40978241 17.47886658 0.4546335936
20.09400558 18.13373375 1.409174562
20.09980774 18.15284538 2.377951622
12.16266346 10.63262749 2.338599205
20.13736916 18.20280838 4.336840153
19.4213829 17.36170197 0.4569477141
20.19663239 18.09779549 1.411770582
20.22269058 18.13604355 2.383898258
12.37663364 10.75402546 2.361614227
20.25837898 18.18426704 4.347956181
19.3885479 17.20374107 0.4600045383
20.24482155 18.01711845 1.412728906
20.35152435 18.12407875 2.390322208
12.31814098 10.61834145 2.349978209
20.3674984 18.16053963 4.35749197
19.3634491 17.06048203 0.4627888799
20.43922997 18.07237816 1.418215156
20.47868347 18.11636353 2.396805525
12.26855564 10.49617958 2.339765072
20.50865173 18.16600418 4.37263155
19.33908081 16.91895294 0.4655452967
20.51111603 18.00639915 1.419907928
13.15960598 11.23836613 1.8194381
12.48463821 10.62029362 2.363157988
20.63149261 18.14696884 4.384056091
19.34523964 16.79398918 0.4680275321
20.63326836 17.97976303 1.423141718
12.857831 10.8732233 1.793394685
12.4370079 10.49249077 2.352857351
20.74459457 18.11162186 4.393288136
19.40109062 16.71492386 0.4696862698
20.83360863 18.03005409 1.428822756
12.9790678 10.8972702 1.800510764
12.65969563 10.61172676 2.376574039
20.87495041 18.09803391 4.406020641
19.51582718 16.70141602 0.4701456428
20.97334671 18.03059959 1.432674885
20.96808243 18.03375816 2.420578718
12.81731033 10.67790318 2.392458677
20.97568321 18.06347847 4.414115429
19.6217556 16.67933846 0.4707657993
21.08535767 17.99870491 1.435665727
21.09149742 18.01888275 2.426807165
12.93548393 10.70724201 2.403367758
21.12988853 18.06983948 4.430956841
19.74725723 16.66792297 0.4712123275
21.21232796 17.97956657 1.439131856
21.22906113 18.00264931 2.433790922
12.98018551 10.66608524 2.404895306
21.25773048 18.05160522 4.443238735
19.87747002 16.6537075 0.4717290103
21.31545639 17.93857193 1.441882014
21.33807755 17.96689796 2.438748598
21.3806591 18.01298332 3.444645405
21.37381554 18.02218819 4.453502178
20.07389069 16.70905304 0.4709771872
21.4305687 17.9076519 1.445016503
21.42760277 17.91347885 2.442216873
21.51624489 18.00653458 3.455269337
21.51081467 18.01051712 4.467351437
20.22420502 16.71640968 0.4711093605
21.59546661 17.91950989 1.449693441
21.57693863 17.91854858 2.450487614
21.62379265 17.9681263 3.462098122
21.61362076 17.96811295 4.475357533
20.296175 16.65488815 0.4724858701
21.73652649 17.90949631 1.453655005
21.73586082 17.924263 2.459327459
21.76294518 17.95657539 3.47284317
21.73436737 17.9408226 4.486440182
20.27086067 16.50968933 0.4753688574
21.86715317 17.88961792 1.457312822
21.86479378 17.90307236 2.465867519
21.88113403 17.9261055 3.481008053
21.87923622 17.93362617 4.501624584
20.29348183 16.4064045 0.4775042236
21.9690094 17.84438324 1.460106492
22.00600052 17.89157104 2.473358393
22.01906586 17.91184616 3.491608381
22.03186417 17.93208122 4.518108368
20.39955521 16.37426567 0.4783707559
18.62319756 14.87750626 1.357426763
22.13215637 17.8664093 2.479706287
22.15715218 17.89686584 3.502230167
22.15298271 17.90274429 4.529251575
20.53014374 16.36219406 0.4788854122
18.59851646 14.74552059 1.356429696
22.25534248 17.83802414 2.485841274
22.2923584 17.87857056 3.512501001
22.29235268 17.88813972 4.543479443
18.84641266 14.83435154 0.506485641
18.84933853 14.84464836 1.363873124
22.33112526 17.76929474 2.488378525
22.34369278 17.78929901 3.512547731
22.40146255 17.84732628 4.552616596
18.94125938 14.8016758 0.5073561072
18.73635101 14.63967991 1.360208988
22.5051899 17.77541542 2.498255968
22.53866386 17.81949806 3.530123234
22.38852692 17.70454597 4.54130888
19.04501152 14.77030277 0.5082246065
18.72094536 14.51703453 1.35954535
22.66863441 17.77812004 2.507488489
22.68359756 17.80025673 3.541290045
22.46206474 17.63405609 4.544584751
22.80383301 17.7370224 0.4556805789
19.02375793 14.65543461 1.368617415
22.77982903 17.73692703 2.512767792
22.80063629 17.77049255 3.549689531
22.5829525 17.60223579 4.555809021
22.92621803 17.70396233 0.4566366673
18.90245247 14.44657803 1.364750981
22.92496872 17.72938347 2.520787001
22.97347832 17.7788887 3.564545393
22.7192688 17.58232689 4.56961298
23.06576729 17.68408966 0.4573665857
23.07915115 17.70488548 1.492101312
23.06267166 17.70828247 2.528097153
23.09087563 17.74127007 3.572701216
22.87268639 17.57540321 4.586257458
23.18672752 17.6484642 0.4583848417
23.20628929 17.67425728 1.495823979
23.21295738 17.69644547 2.536368132
23.23781776 17.72671509 3.584428787
22.98765564 17.53659439 4.596517086
23.34686089 17.64332962 0.4588707983
23.33818054 17.64671135 1.499709725
23.36812592 17.68751526 2.545015574
23.38648224 17.71261024 3.596366405
23.15226936 17.53676224 4.615002632
23.46013641 17.60014153 0.4600401223
23.46702766 17.61598206 1.503521085
23.49218559 17.65296555 2.551335096
23.53846169 17.70015526 3.608702421
23.2844944 17.51015472 4.628125668
23.61905098 17.59215164 0.4605951309
23.6274147 17.60925293 1.508312702
23.63984489 17.63626862 2.559440613
23.68436241 17.68195534 3.620312929
23.42772484 17.4914341 4.643066883
23.74345779 17.55627632 0.4616523385
23.77383232 17.59057999 1.512696862
23.78137398 17.61384583 2.567098141
23.81941986 17.65439987 3.630634308
23.54764557 17.45363426 4.654177666
23.91223907 17.55395508 0.462126404
23.9109211 17.56376648 1.516815066
23.9388237 17.6028862 2.57595849
23.96088028 17.63098717 3.641727924
23.70678902 17.44557953 4.671732426
24.04001045 17.51906967 0.4631841481
24.04493713 17.53378868 1.520858407
24.05846786 17.5618763 2.5820086
24.11194038 17.61408997 3.653970957
23.84099579 17.41730309 4.685198784
24.21876526 17.52224922 0.4635814726
24.21084404 17.5273304 1.52589345
24.2225914 17.55412674 2.591389656
24.2615757 17.59516907 3.666049719
23.89590836 17.35784149 6.84594059
24.33240128 17.47500229 0.4648749828
24.34188652 17.50007439 1.529884458
24.33757973 17.50812912 2.597126961
24.40501976 17.57061768 3.677400827
24.48760414 17.4650383 0.4654993117
24.49700928 17.48347473 1.53462851
24.52279472 17.51429176 2.608097792
24.54698181 17.55075264 3.688864708
24.62695503 17.43562698 0.4664979875
24.63947678 17.45646858 1.539006233
24.65071678 17.48312187 2.614964724
24.68428993 17.51990509 3.699508667
24.79491043 17.43820381 1.5437994
24.82681465 17.47353363 2.625140429
24.8552742 17.51321411 3.71413064
23.86902618 16.60722733 0.4819822311
24.93279648 17.40604973 1.548077345
24.9581337 17.4365387 2.632153034
24.99601936 17.47641182 3.724923849
23.82188225 16.45147705 0.4851655364
25.11438179 17.40495491 1.553708553
25.12175751 17.42237854 2.641568184
25.16423035 17.47224045 3.739497662
23.79318428 16.30379295 0.4882352054
25.24933815 17.37558365 1.557931781
25.25006866 17.38826942 2.648523331
25.30845451 17.44288826 3.750991583
23.78025627 16.17467308 0.4909592569
25.41515732 17.36091232 1.563122511
25.4431839 17.39339066 2.660135269
25.45445442 17.42066193 3.762972116
23.75310326 16.02361107 0.4941181839
22.46037865 15.11331844 1.473100305
25.58302689 17.35909653 2.667838573
25.62312698 17.4003334 3.777075529
23.79244995 15.92676449 0.4963154197
22.20433235 14.81427002 1.465435028
25.74084663 17.33675766 2.676879644
25.78718567 17.38235664 3.790913105
23.91979408 15.89190388 0.4974470139
22.22787476 14.71489334 1.466319799
25.89229774 17.30893326 2.685468197
25.94981194 17.36229706 3.804588556
22.80675316 14.99192619 0.5135068893
22.48221397 14.77681351 1.474270701
26.06677055 17.29628372 2.695759535
26.09627533 17.32993317 3.816396475
22.93281555 14.96117878 0.5145579576
22.68959427 14.80413723 1.480807543
26.22177887 17.26899338 2.704639673
26.2526474 17.30356598 3.829366446
22.77206993 14.73277187 0.5190138221
22.74087334 14.72265148 1.482594371
26.39816475 17.24867439 2.714977264
26.40750694 17.27521133 3.842172146
22.47550583 14.40829754 0.5251389146
22.81498337 14.65676975 1.485096812
26.55840302 17.22294998 2.72427249
26.59687233 17.26268959 3.858721972
22.53444099 14.33931065 0.5268285871
22.61572456 14.40563488 1.47925663
26.70556068 17.18735313 2.732631922
26.73734474 17.2293148 3.870141506
22.63565445 14.29292107 0.5281653404
22.58427048 14.26981449 1.478562117
26.88608742 17.18015289 2.743554831
26.92232132 17.21831894 3.88644886
22.77510643 14.27150536 0.5290847421
22.70186615 14.23421001 1.482444882
27.02683449 17.13840675 2.751482725
27.06781006 17.17969704 3.898221493
23.40346336 14.57249737 0.5245333314
22.83615685 14.20901394 1.486857772
27.23584747 17.141119 2.764387131
27.2598114 17.1710968 3.915349483
23.55264854 14.55328083 0.5254480839
22.89533806 14.13367558 1.488989592
27.3901577 17.10638046 2.773336172
27.42878914 17.14605141 3.929842472
23.46064758 14.37606525 0.5290474892
23.26654053 14.26738548 1.500684738
27.55625153 17.0784359 2.783158779
27.59459305 17.11785889 3.943983078
23.88571358 14.54034519 0.526848793
23.53983879 14.33471394 1.50940299
27.72439766 17.05762672 2.793256044
27.76242447 17.09681129 3.958606482
23.83748245 14.39735794 0.5298506618
23.71726036 14.33248043 1.515222073
27.91116142 17.04778862 2.804714918
27.91534042 17.06516647 3.971538305
23.84615517 14.27985573 0.5324878693
23.78125 14.25090599 1.517601371
28.08419991 17.01423073 2.814985037
28.11483574 17.04863548 3.989320278
24.0775013 14.30344486 0.5327644944
23.65737152 14.05048752 1.51423049
28.25062943 16.97536278 2.824800253
28.29272079 17.01702118 4.004651546
24.21007538 14.26926136 0.5339903235
24.06839371 14.19309044 1.527289987
28.45122337 16.96383476 2.837202787
28.48450089 16.999897 4.021807194
26.40792656 15.51847935 0.5138291717
24.03085709 14.05307865 1.52658689
28.61142731 16.92577362 2.846713781
28.66128922 16.97218323 4.037271976
24.5673008 14.25536728 0.5355678797
24.02496529 13.93346977 1.526872158
28.81924438 16.91621971 2.859670401
28.8145237 16.92878914 4.050083637
24.66781616 14.19879913 0.5371991992
24.1566124 13.89869022 1.531408191
28.99160576 16.88349342 2.870096207
29.01531601 16.91369438 4.068293095
24.87763786 14.208148 0.5377495885
24.37031937 13.9130106 1.538493991
28.9543457 16.72213364 2.865499973
29.2061348 16.89121437 4.085385323
25.02615547 14.17905331 0.5389490724
24.57757187 13.92189026 1.545405626
29.34693909 16.82129288 2.891772747
29.40056038 16.86966324 4.102894783
25.17476654 14.14912033 0.5401739478
24.67880249 13.86586285 1.549071074
29.52822113 16.79071236 2.902902126
29.57639885 16.83572388 4.118323326
27.4724865 15.3994751 0.5203868747
24.77653503 13.81897163 1.552592039
29.72888184 16.77752686 2.91553092
29.73389435 16.79677582 4.131921768
25.32056046 14.00929928 0.5438901782
25.23241425 13.9710474 1.56725502
29.93800354 16.76101303 2.928692579
29.96343422 16.79952049 4.153632641
25.72818184 14.12869072 0.5427131057
25.37725258 13.9374609 1.572337508
30.09606361 16.7202816 2.938312054
30.14829063 16.7674942 4.170118332
25.41796112 13.82279873 0.5485098958
25.46940613 13.86649132 1.575844526
30.3017292 16.69219589 2.951180935
30.32774162 16.72409058 4.185804844
28.15280914 15.26964855 0.5259288549
25.56830215 13.7990427 1.579583049
30.50584412 16.66184998 2.963963985
30.54693413 16.70248413 4.205963612
25.34194756 13.53765869 0.5547454357
25.70097542 13.75633335 1.584358215
30.6585598 16.60787964 2.973190069
30.70975113 16.6542244 4.220040321
26.91392136 14.3091917 0.5431543589
25.76150894 13.67800045 1.586883545
30.91027451 16.60912704 2.989495754
30.91415787 16.62862587 4.238784313
26.97816277 14.2277298 0.5452830195
25.92370033 13.65070915 1.592618704
31.08405685 16.56482697 3.000271797
31.13652802 16.61894608 4.259749413
26.93119049 14.07808876 0.548550725
26.25290871 13.72136879 1.603533506
31.26183891 16.52887535 3.011436224
31.3222332 16.58019447 4.276437759
27.05600357 14.03030109 0.550154388
26.31767082 13.63746262 1.60629189
31.50038147 16.51833344 3.026867628
31.51546669 16.551651 4.294182301
56.93527222 30.66208076 9.426682472
27.03427887 13.89547253 0.5531930923
26.35587502 13.53886127 1.608243346
31.69246292 16.48785019 3.039093256
31.73106194 16.52701759 4.314232826
56.98155212 30.4291935 9.42224884
26.82914543 13.66176319 0.5577934384
27.05596161 13.80004883 1.63084197
31.89070892 16.44518471 3.051634073
31.92063522 16.48682404 4.331411839
55.52127838 29.37534332 9.18997097
26.86472321 13.55390644 0.5604509711
27.27595711 13.79664421 1.638521671
32.11416245 16.4220562 3.066064119
32.13083267 16.44936562 4.350708961
55.42509842 29.073349 9.164599419
27.03601265 13.53070259 0.561696291
27.31110191 13.69295597 1.640458941
32.31848907 16.38720894 3.079161644
32.37377167 16.44256592 4.374033928
55.4340744 28.82952118 9.155299187
27.04733467 13.41570663 0.5644339919
27.2487011 13.53771591 1.639365673
32.51641846 16.35495186 3.091900587
32.56728363 16.4006443 4.391709805
27.32808876 13.43638325 0.5651183128
27.2906971 13.43225384 1.641596079
32.74697876 16.32409477 3.106843233
32.75860214 16.34907722 4.408983231
55.5136261 28.36457253 9.145926476
27.3609333 13.32602787 0.5678506494
27.4929409 13.41640377 1.64882195
32.98835754 16.29731369 3.122581482
33.00643158 16.32583046 4.432528973
55.3685112 28.04245949 9.113916397
27.57148933 13.31959915 0.5688912868
27.50462723 13.30689144 1.650055885
33.20095444 16.26867294 3.136436224
33.230896 16.30341339 4.453873158
54.96697235 27.60176086 9.044093132
27.70573235 13.2727747 0.5705676675
27.72119522 13.29656124 1.657783628
33.36931992 16.21603394 3.14718771
33.42014313 16.26152611 4.4713521
27.76395607 13.18055344 0.5729994774
27.66886139 13.14819622 1.657092571
33.64207077 16.20819855 3.165287018
33.65856552 16.23618507 4.494094849
55.48237228 27.38115883 9.101910591
28.65629768 13.5076685 0.5690795779
28.08903885 13.23860645 1.671279073
33.85992432 16.17079544 3.17953372
33.88653946 16.20402145 4.515706539
54.87738037 26.83277702 9.001786232
28.61334991 13.36119652 0.57237643
28.48155022 13.31196976 1.684640884
34.07909393 16.12524414 3.193847895
34.11648178 16.17135048 4.537557125
54.45537949 26.38216972 8.929376602
34.31746292 16.04790688 0.5332056284
28.76271439 13.32100391 1.69458878
34.26501465 16.06925392 3.205902815
34.33883667 16.12600708 4.558429718
54.56999207 26.19079208 8.936947823
34.54706192 16.01160812 0.5350801349
29.00772285 13.31652451 1.703381658
26.10024452 11.90661621 2.628840685
34.5619545 16.08704376 4.579580307
54.48187256 25.91127396 8.914844513
34.66705704 15.92066479 0.5377873182
29.06898117 13.22732639 1.70634675
26.19081306 11.84369946 2.634516001
25.18756485 11.37036228 3.548673391
26.41900444 11.99188805 4.724557877
35.02722168 15.95220852 0.538629353
29.05495262 13.09550095 1.707005024
26.12525177 11.69943237 2.629175186
35.0737648 16.04404449 4.629305363
55.56598282 25.97833443 9.059207916
35.22663498 15.89705181 0.5408465266
35.22116852 15.91508198 1.903482556
26.28912354 11.67140102 2.640072107
26.57492638 11.82388878 3.695987701
26.32692909 11.72099304 4.702539444
35.48757172 15.86976528 0.5426763296
35.48188782 15.88792801 1.913128853
26.3759079 11.60020638 2.645528555
25.79351807 11.33952522 3.608170033
25.05624008 11.00475311 4.509732723
35.73968887 15.83660126 0.5446166992
35.7338028 15.85489655 1.922536492
26.70098686 11.64056492 2.667793512
25.6682663 11.17079163 3.592234612
35.98837662 15.80021572 0.5466277003
35.98953247 15.82201195 1.932106256
35.99381256 15.84537315 3.321314812
25.6034832 11.03167725 3.582972765
56.89120483 25.64930344 9.221818924
36.23833466 15.75512409 0.5488645434
36.22367477 15.77751541 1.941029429
25.21809387 10.72489643 2.562244892
25.55996704 10.89787674 3.57598567
27.45410538 11.7948246 4.853715897
36.48991776 15.72448635 0.5507660508
36.45793915 15.73156643 1.949997067
25.24196625 10.62945843 2.563421726
25.40319061 10.7237606 3.556917667
27.38786316 11.6487627 4.83998251
36.72271347 15.67607975 0.5530219674
36.71418762 15.69407082 1.959706545
25.28713226 10.54910374 2.566148758
25.44147873 10.63434792 3.559067011
27.73423767 11.690979 4.887332439
36.97935486 15.63684845 0.555172801
36.98702621 15.66235733 1.969988585
25.26117706 10.4314661 2.563879967
25.20168877 10.42003441 3.530987501
26.82313347 11.16493607 4.74894619
37.27273178 15.61224651 0.5571454763
37.26922226 15.63299656 1.980614424
25.30036354 10.34334373 2.566222429
25.08072472 10.26094246 3.515918493
26.04814339 10.70752716 4.630960464
37.53892136 15.57372284 0.5593409538
37.53336334 15.59380436 1.990707517
25.54395676 10.33989716 2.582942486
27.48291016 11.21566677 3.775198936
60.05077362 25.61240005 9.640001297
37.80265427 15.52457809 0.5617949963
37.75917816 15.53623009 1.999614239
25.3248539 10.13833046 2.567192078
25.56239128 10.25747967 3.56449008
59.95669937 25.32208824 9.618305206
26.9640274 10.70870495 0.6291540265
38.04827881 15.51241302 2.010510445
25.49670029 10.11296844 2.578960896
25.70488739 10.21862793 3.578254938
25.87766266 10.31475258 4.595833778
38.35407257 15.46277714 0.5659432411
27.27733994 10.75308323 1.665556669
28.73825073 11.40068054 2.806392193
25.45413589 10.0103693 3.549376249
25.79601288 10.17295551 4.580574512
38.59333801 15.40594101 0.5684973598
27.27355576 10.63918018 1.666685104
25.60373688 9.953424454 2.585934162
26.25928688 10.24749565 3.634983301
25.7301178 10.0388298 4.567712784
27.23526955 10.49465561 0.6357561946
27.01117516 10.41728687 1.659481049
25.63389015 9.861020088 2.587816238
26.34907532 10.17753506 3.643009663
26.3704834 10.20299149 4.658605099
26.87209129 10.23267269 0.6405185461
28.30413628 10.84328365 1.702544689
25.59543037 9.755948067 3.559723377
27.58118248 10.60005093 4.833061218
39.47531509 15.28571701 0.5757564306
27.51471329 10.39780331 1.678398967
25.60829163 9.635791779 2.585629463
25.63950157 9.66450119 3.562847614
27.65746689 10.51348114 4.840884209
39.71873474 15.2238903 0.5784911513
39.71690369 15.24744511 2.075358629
25.67611885 9.55926609 2.590247154
25.89884758 9.666077614 3.589380741
27.73337173 10.43207073 4.848860741
40.00859451 15.17918777 0.5810338855
26.71550751 9.857913971 1.655042768
25.60121155 9.424895287 2.584873915
25.8024025 9.522092819 3.577459335
40.32182693 15.15006065 0.5833096504
28.37945557 10.41326141 1.710465431
25.70916748 9.364459991 2.592367411
26.02312279 9.511301994 3.59994173
40.62880325 15.10828304 0.5858811736
28.15453911 10.21564388 1.704480529
25.67605209 9.252846718 2.589989185
25.69266129 9.275446892 3.562835455
40.94064331 15.07458401 0.5882822275
27.87652588 9.993680954 1.696826696
26.01961899 9.284041405 2.614079237
25.83525658 9.233226776 3.576949358
28.43661118 10.27177143 4.939905643
41.24147034 15.0181179 0.5912126899
41.24213791 15.04389572 2.134961605
26.30044174 9.288448334 2.633793592
26.02957726 9.199827194 3.596541643
41.53404236 14.9648056 0.5940317512
41.53074646 14.98927975 2.146522522
26.38034821 9.213859558 2.639434814
25.91573715 9.05199337 3.582987309
41.84547043 14.91667747 0.5968235731
41.8437767 14.94204807 2.158936024
26.05702591 8.985898972 2.616799355
25.79747009 8.903661728 3.569010973
42.17578888 14.87357521 0.5995926857
42.14200211 14.88719177 2.170919657
26.06874466 8.886581421 2.617712736
26.3266468 9.00004673 3.62486577
42.498806 14.82560349 0.6024582982
33.88555527 11.6592207 1.90169549
26.93688393 9.105633736 2.678782701
26.64232635 9.013047218 3.657718897
42.85017395 14.78586197 0.6052680016
33.09386063 11.23470592 1.877436757
27.70559311 9.276040077 2.732919455
26.6278801 8.902295113 3.655040741
43.20262527 14.73566437 0.6083607674
32.96883774 11.05209064 1.875191927
27.66193962 9.150775909 2.730044842
26.6483326 8.799342155 3.656112194
42.20248795 14.20731544 0.616782248
32.72796631 10.83583832 1.869033098
27.55936813 8.999533653 2.723075151
26.68356514 8.707121849 3.658872366
43.85828018 14.61910152 0.6147398949
43.88991165 14.66655636 2.240280151
27.54464149 8.886022568 2.722293377
26.79323769 8.636117935 3.669633865
42.77126312 14.07509136 0.623134613
44.18524551 14.59811115 2.25251627
27.55581856 8.781997681 2.723361254
26.70428848 8.505068779 3.659170628
44.52985764 14.51667881 0.6208766103
32.85055161 10.49344158 1.878574133
27.64221954 8.709703445 2.729728937
26.76669502 8.422428131 3.664979696
44.92209244 14.47719097 0.623950541
32.23196411 10.15310764 1.859861135
27.69235229 8.619132042 2.733594894
55.26994705 18.13628769 6.727266788
42.78174973 13.57786846 0.6360737085
32.24559021 10.03857708 1.862069607
27.79320526 8.545654297 2.741057634
26.60068321 8.157409668 3.645473957
42.64746094 13.37503242 0.6406453848
32.64733505 10.04809952 1.877344489
28.02818108 8.516735077 2.757982016
26.69436836 8.090908051 3.654810429
42.76726532 13.24943066 0.6445547938
32.39490891 9.83792305 1.870809674
45.99811172 14.38620949 4.021952629
54.73233795 17.3245182 6.664847851
43.64769745 13.36353397 0.6462429762
32.51369476 9.745366096 1.876793146
46.33404922 14.30983639 4.046388626
53.3427124 16.64541817 6.514199734
43.88809967 13.26437569 0.65012151
32.58095169 9.641753197 1.880983949
46.71557617 14.24602222 4.074098587
53.54410553 16.49503326 6.534482479
44.4454422 13.28179932 0.6526425481
32.4536705 9.47571373 1.878659725
35.43214417 10.45098972 3.280967474
53.39439774 16.25134659 6.517289639
44.38785553 13.0929842 0.6573028564
32.66683197 9.418469429 1.887803674
34.34883118 9.978662491 3.205387831
53.5936203 16.10972404 6.537563324
45.20214462 13.17651463 0.659480989
32.82463837 9.342607498 1.895123363
34.65865326 9.944074631 3.227926016
53.85703659 15.98718357 6.56480217
34.56715775 9.732009888 0.6931180358
32.86005402 9.228081703 1.898342609
34.70554352 9.82612896 3.231995344
54.04992294 15.84122944 6.584553242
35.10351181 9.763098717 0.6951996684
36.64697266 10.25574017 2.028626442
35.52879333 9.94515419 3.290803194
54.19678879 15.68013954 6.599448681
46.59413147 13.07679462 0.669663012
34.66978073 9.521821976 1.963842869
34.1676445 9.399596214 3.195731401
53.57947159 15.28748894 6.532488823
35.39377594 9.582104683 0.7015904188
34.7000618 9.399138451 1.967063904
33.75749588 9.14777565 3.167678595
53.75320053 15.13594913 6.55043745
35.06542587 9.35189724 0.7059336901
35.87509537 9.612010002 2.009290457
33.80932617 9.035095215 3.172224283
53.52191925 14.86423588 6.525051594
48.2482605 13.02429295 0.6801101565
34.6152916 9.111868858 1.96861434
33.7438736 8.88825798 3.168533325
56.00976562 15.38536835 6.791213512
35.43042755 9.19080925 0.7122492194
34.45383835 8.935107231 1.965338945
33.72768021 8.75629425 3.168350935
55.63341522 15.06604767 6.750433922
34.83390808 8.889612198 0.7170416117
57.0275383 15.16547489 2.74070406
33.74911499 8.628991127 3.170910835
55.37228394 14.78267384 6.722094536
34.90052032 8.793444633 1.985302806
33.82803345 8.524132729 3.177519798
55.75632858 14.6715107 6.762977123
34.56964493 8.571814537 1.976245165
34.65093231 8.616972923 3.236809731
55.75980377 14.46337986 6.76317358
34.36468887 8.380539894 1.971614838
34.31196213 8.39539814 3.213974476
56.02236176 14.31560421 6.791219711
33.97759628 8.148983002 1.9605726
36.37571716 8.818681717 3.361143112
56.00526428 14.10175514 6.789390087
33.70570374 7.957089901 1.953365684
34.34073257 8.146805763 3.218365908
56.07969666 13.91259861 6.797454357
33.18093872 7.695605278 1.937491179
34.59004593 8.083740234 3.237254143
57.30596924 14.03395081 6.92903614
33.17813873 7.577718258 1.939571977
34.27727509 7.881467819 3.216304064
57.14125443 13.77872276 6.911645889
33.03294754 7.418017864 1.936830878
34.46413422 7.801506519 3.230849743
33.09851074 7.311909199 1.941433907
34.36281204 7.655031681 3.22493577
56.54561615 13.21712017 6.84856081
33.10688019 7.185447693 1.944183469
34.27155685 7.499279499 3.219899178
33.20027924 7.079591751 1.949930668
53.84717178 12.08932495 4.611525536
70.80019379 15.81058693 0.7310167551
33.52734375 7.034664631 1.963788867
57.33543777 12.71973228 4.861651897
57.19604111 12.72539997 6.920167446
70.87365723 15.56708527 0.7381616235
33.60336304 6.929044724 1.968886971
57.09074402 12.4516058 4.846724033
60.21139145 13.22246552 7.244302273
33.73944855 6.836827278 1.976130486
56.65045547 12.14058781 4.81791687
59.77505112 12.90067482 7.198424816
33.76416397 6.718688488 1.979479909
56.91699219 11.99330235 4.839446545
58.37124634 12.36258411 7.048847198
36.81880188 7.273335457 2.090032578
57.93893433 12.05238152 7.003532887
36.96803284 7.171318531 2.098065853
57.19178009 11.63719845 4.864341736
56.56758881 11.24513531 2.797088146
56.96167755 11.37890148 4.850682259
58.71671295 11.79757214 7.089385033
56.47446823 11.01929379 2.798048735
56.18398285 11.0065012 4.797972202
56.87559891 10.8969965 2.816657782
56.42006683 10.85128021 4.817654133
57.2158432 10.75964355 2.83318305
55.97163391 10.55450249 4.788489342
79.37374878 14.93366528 0.805047214
56.5856781 10.42584705 2.815022469
55.8699913 10.33102036 4.78414011
57.47971725 10.39657021 2.851523399
56.93011093 10.33790207 4.863003731
79.95626068 14.93942928 9.379212379
58.57441711 10.39976406 2.895416975
58.73129654 10.48101902 4.995129108
79.91247559 14.64171982 9.376919746
58.60147095 10.19321251 2.901010036
59.31895065 10.38064003 5.040504932
25.7849884 3.630927086 2.642226458
25.77170944 3.531451941 2.642903566
25.76517487 3.437949419 2.644013405
25.71664429 3.301870823 0.8196492195
25.69506264 3.316177368 1.728843212
25.71893692 3.338043451 2.642285109
25.710989 3.2493577 2.643258572
78.48993683 11.42168427 3.675894976
25.70807266 3.152433157 2.644784689
78.71993256 11.16268349 3.691329002
25.7080555 3.060660362 2.646463871
78.74145508 10.88511562 3.698809624
31.69388008 3.189023018 3.094788551
31.62862587 3.208854198 4.21238184
31.59394455 3.227244377 5.3385005
31.59580612 3.25074482 6.480247974
31.58980751 3.273658514 7.634978294
31.57981491 3.302160978 8.805967331
31.63783836 3.019227743 0.8634405732
31.65088463 3.043251038 1.977237582
31.61072159 3.066350937 3.091056824
31.65688515 3.094844818 4.217372894
31.62601089 3.11390996 5.344537258
31.6190815 3.190028429 8.815800667
31.64138794 2.907628536 0.8667522669
31.72583199 2.940310001 1.98289156
76.00527191 7.765666485 3.664871216
31.83525085 2.7687819 8.871214867
74.69605255 7.089064121 3.628967285
73.78882599 6.731889725 3.60126543
73.75505066 6.468548298 3.606826067
73.85160828 6.218225956 3.617416859
73.90354919 5.963253021 3.626353741
72.95849609 5.349793911 3.604245186
72.5454483 4.805069447 3.602239132
75.08235168 4.809248447 6.34433651
73.31554413 4.364287853 3.646019936
72.76690674 4.069954395 3.631766796
72.30869293 4.104210854 6.151641369
73.20628357 3.843563795 3.656166077
73.00180817 3.89659071 6.209681511
72.58776093 3.549371004 3.639136553
72.22345734 3.274281502 3.632040024
72.63481903 3.351565123 6.196162701
71.8348465 2.987996101 3.624315262
72.68844604 3.100526094 6.206977367
72.3865509 2.76475358 3.653422117
72.96030426 2.860462904 6.234169483
72.75315094 2.274818897 3.682781219
76.00461578 1.872617245 3.82826066
77.27187347 1.618769526 1.186213255
73.50574493 1.618054032 6.310528278
77.43608093 1.353751183 1.195458889
73.21221161 1.285087585 3.731078863
73.36995697 1.357379794 6.307739735
72.27833557 0.7401576638 3.709192276
76.0830307 0.9543614388 9.207334518
91.709198 0.7771723866 1.301585436
72.23558044 0.4746054113 3.71555233
72.58729553 0.2280994058 3.737596512
72.25296783 -0.2684503794 3.739254713
72.8179245 -0.5174490213 3.770282745
74.93856812 -0.4364835024 6.481370449
71.56356049 -0.7860857248 3.727152586
72.48239136 -1.049969673 3.773300886
74.83893585 -0.9849616885 6.491104603
72.47709656 -1.30271697 3.781137466
75.13668823 -1.247184038 6.522192955
62.17372131 -1.509711504 1.191103816
62.18017578 -1.462613225 3.362790108
62.18459702 -1.404435873 5.540676594
62.17006683 -1.356598616 7.72873354
73.0113678 -1.81491518 3.819571733
73.68672943 -2.080386877 3.855949163
73.69780731 -2.337589741 3.864789248
73.59213257 -2.592290878 3.868793249
76.18466187 -2.580115318 6.645972252
73.72527313 -2.852583647 3.882847071
73.84100342 -3.371142149 3.904839754
74.08718872 -3.638036489 3.923901081
75.08712006 -3.937183142 3.975066185
75.17118835 -4.465877533 3.996479273
107.6475525 -8.368764877 1.693372846
83.02797699 -7.257998943 1.505841017
82.94142914 -7.542466164 1.514688849
76.16725159 -16.27820206 1.771114111
57.17908859 -14.06650257 3.634622335
57.41065979 -14.33084106 3.655338764
57.54582596 -14.57435417 3.67135334
56.93431091 -14.63905811 3.649925232
56.92453384 -14.84695339 3.658699274
56.74340057 -15.01257896 3.658854723
56.79171753 -15.24564743 3.671120644
57.28803253 -15.6337471 1.6397928
56.24369812 -15.31614113 3.65261507
55.85381699 -15.43442059 3.642528296
56.72374344 -15.87223053 3.696504354
56.8842926 -16.13768959 3.714810848
34.41520309 -10.24840355 2.564410448
34.67466736 -10.44237232 2.583426714
23.22373009 -7.47250843 0.3116639256
34.14238358 -10.41773224 2.561423302
46.5464325 -13.83350945 4.899104118
21.34773445 -7.022274971 0.3522698879
46.51896667 -14.04223633 3.212458849
46.3379097 -13.94114208 4.889858723
34.847332 -10.67648983 5.148427963
20.69453621 -6.913224697 0.3676837981
35.16734695 -10.93696117 3.908687115
34.91759109 -10.82768345 5.165826321
20.67434502 -6.989569664 0.3702890575
46.59803009 -14.46658707 1.538071394
46.6803093 -14.44899654 3.237525702
46.33826828 -14.29952621 4.909899712
34.60765076 -10.8767128 5.135997295
20.66069412 -7.063956261 0.3726539314
46.16107178 -14.47306442 3.218380451
46.37111282 -14.48445797 4.922697544
35.15158081 -11.16639996 5.213153362
19.24556541 -6.715098858 0.403021425
46.70280457 -14.80952358 3.255157232
35.20837402 -11.34829903 3.934825897
35.09983826 -11.28429985 5.215511799
20.51020241 -7.175254822 0.3798245192
34.94760895 -11.47316265 1.364995837
