# .PCD v0.7 - Point Cloud Data file format
VERSION 0.7
FIELDS x y z
SIZE 4 4 4
TYPE F F F
COUNT 1 1 1
WIDTH 1297
HEIGHT 1
VIEWPOINT 0 0 0 1 0 0 0
POINTS 1297
DATA ascii
4.173834801 -6.116315365 1.490942955
2.913298845 -4.536628723 1.443177104
2.558139801 -4.089158535 1.50901711
2.511667252 -4.025772572 1.640345335
2.235644817 -3.678518534 1.677046776
2.145587206 -3.562775135 1.768348575
43.89109802 -56.62890244 0.8146089911
12.28374767 -16.40513611 1.484503627
4.041199207 -5.995572567 1.244274378
2.79180932 -4.414868355 1.260572314
2.895596504 -4.540545464 1.442525148
2.559199333 -4.113438129 1.512902737
2.44696188 -3.9672153 1.622424364
2.185860872 -3.636249542 1.661417603
2.108549356 -3.535690546 1.755998254
43.81467056 -56.93294144 0.8217258453
12.36050797 -16.61438179 1.493951559
4.207299232 -6.243140697 1.265828133
2.788110018 -4.435497284 1.262486815
2.54149127 -4.118610382 1.365390182
2.552790642 -4.12849474 1.514702916
2.454386234 -3.998696327 1.629062891
2.265482426 -3.756292343 1.697623968
2.136321545 -3.589642763 1.773445606
4.039616108 -6.119010925 0.3301025629
24.03186035 -31.85630798 0.8102739453
17.14802361 -22.85746193 1.7746737
4.183674335 -6.251478195 1.265939236
3.030837774 -4.770850658 1.306622267
2.532637119 -4.130549431 1.366355062
2.570635796 -4.174522877 1.52346921
2.291062593 -3.813514233 1.57694304
2.156930685 -3.639171839 1.658235192
2.074427605 -3.530644655 1.749490619
4.023874283 -6.136253357 0.3304761946
4.029618263 -6.136798859 0.5614145398
4.034094334 -6.13571167 0.7920746803
17.00996971 -22.83814621 1.77387476
4.142908573 -6.237659454 1.264077425
2.903704166 -4.635374069 1.287555575
2.551714659 -4.178403378 1.373748899
2.530055523 -4.146170139 1.51551795
2.194099426 -3.71047616 1.547289252
2.178358555 -3.686378479 1.67118907
2.063952208 -3.536315203 1.749270082
4.003216743 -6.147106171 0.3314010203
4.011356831 -6.15083313 0.562063992
12.53045464 -17.17833519 1.519458652
2.954916239 -4.735210896 1.129463553
2.704628468 -4.404606819 1.255824924
2.552316666 -4.202929497 1.376955748
2.508995771 -4.142491341 1.513135076
2.296890259 -3.863370419 1.586853027
2.180435181 -3.709249973 1.676389933
2.099489927 -3.601115227 1.770598054
3.989007711 -6.152583599 0.7933609486
4.006524563 -6.144003391 1.023323774
2.947551012 -4.75340414 1.130645156
2.676609278 -4.393483639 1.253522277
2.544338465 -4.21650219 1.378206372
2.521598577 -4.182424068 1.520515561
2.395052671 -4.012361526 1.625200391
2.176453352 -3.724487543 1.679167151
2.108749628 -3.632724524 1.779779315
3.993020535 -6.164308071 1.024257421
2.948540926 -4.78271246 1.132816911
2.832338095 -4.624843597 1.2834934
2.551898956 -4.250536919 1.383098483
2.474217892 -4.144206047 1.510451078
2.379982233 -4.016417503 1.624353051
2.160101891 -3.724699974 1.677107453
2.10494709 -3.647652864 1.782883525
12.03502846 -16.98070335 0.8091732264
2.918652058 -4.772764206 1.13147819
2.890001059 -4.728316784 1.296402574
2.54790926 -4.27089262 1.385493875
2.663168192 -4.418526173 1.569892168
2.21533227 -3.822099209 1.570432067
2.163052559 -3.749177456 1.682799339
2.120363474 -3.68895483 1.795409203
11.98601151 -17.03222656 0.8111448288
11.91954327 -16.84617233 1.504784107
4.074301243 -6.344857216 1.27054286
2.852717161 -4.706531048 1.292646646
2.524184465 -4.263902664 1.38310194
2.654346943 -4.432487488 1.571371913
2.175628185 -3.790721893 1.560342789
2.172868013 -3.783002138 1.691410065
2.091983557 -3.671756268 1.78689909
12.08044815 -17.2783432 0.8134209514
11.99598026 -17.06578445 1.514737844
4.119491577 -6.445485115 1.278868198
2.852433443 -4.733990192 1.295436025
2.528943062 -4.294891834 1.387441635
2.61719346 -4.408554554 1.564460993
2.233379126 -3.88911438 1.584946632
2.134799004 -3.753257513 1.680095911
2.017632961 -3.592890501 1.756241798
11.86253262 -17.1009407 0.8150236011
11.82799244 -16.95625305 1.509889245
11.76727581 -16.85299492 2.199475527
2.727888823 -4.593549252 1.276008964
2.355660915 -4.085594177 1.349372149
2.594308615 -4.403392315 1.56173861
2.275309324 -3.967527628 1.604133844
2.177975416 -3.83227396 1.702812791
2.01271534 -3.60604167 1.758784533
11.52995682 -16.66667366 1.496941805
4.01695776 -6.387139797 1.272525907
2.533787727 -4.356075287 1.243835807
2.317517519 -4.05706501 1.343291879
2.586658239 -4.418737411 1.563561916
2.244253874 -3.949037075 1.597408772
2.173396587 -3.847624063 1.705600262
1.98717463 -3.591369867 1.751358032
11.65510464 -17.05884552 0.8187577724
11.5190115 -16.77347183 1.501837015
4.016714573 -6.429234505 1.275639176
2.51404357 -4.355667114 1.242999196
2.347867966 -4.123116493 1.353816152
2.559739351 -4.409070015 1.559803724
2.266448498 -4.002993107 1.609936357
2.177384138 -3.875874519 1.712299943
1.828339458 -3.395571947 1.679114342
11.55626202 -17.04613304 0.8206587434
2.828968287 -4.830106735 0.9643931389
3.841197491 -6.22868681 1.257353187
2.688804388 -4.624385834 1.277598619
2.315100193 -4.102792263 1.349153876
2.515601635 -4.375332832 1.550783515
2.242893457 -3.993436098 1.605700016
2.062611818 -3.740979671 1.66836834
11.58906078 -17.21189117 0.8228372335
2.814065933 -4.838318348 0.9647858739
3.830666304 -6.253392696 1.258985758
2.489176512 -4.373520851 1.243843913
2.316559792 -4.128520489 1.352632999
2.419477701 -4.26734972 1.525603414
2.267432451 -4.050404072 1.61906004
2.078694344 -3.784310102 1.679909587
1.962145448 -3.618814468 1.754579425
11.40990639 -17.07896996 0.824360311
2.774849176 -4.812247276 0.9636361599
3.809613943 -6.263450146 1.259331584
2.509287834 -4.427532196 1.250207186
2.28914094 -4.113984108 1.349068761
2.381333351 -4.238878727 1.517934084
2.230188131 -4.021671295 1.609790206
2.058365107 -3.777314663 1.675866485
1.960385084 -3.636537313 1.758784771
11.40156841 -17.18749046 0.8264167309
2.766926765 -4.830065727 0.9644631743
3.908110857 -6.442968369 1.274575472
2.649536133 -4.652264595 1.278922677
2.337730169 -4.202149868 1.508500338
2.213541269 -4.021426678 1.608061075
2.122378111 -3.888798237 1.708377242
2.05990386 -3.7967484 1.813481569
11.26478386 -17.1122036 0.8280256987
2.755477905 -4.842963696 0.9650697708
2.742571354 -4.812885284 1.299168468
2.263136625 -4.124972343 1.348977685
2.348772049 -4.242470264 1.515910625
2.116974354 -3.907595396 1.57653439
2.096191645 -3.873958111 1.701901674
2.260301113 -4.102067947 1.919274807
11.1513834 -17.06908226 0.8296887875
2.750807762 -4.865681648 0.9661197066
11.6521349 -17.67007637 2.258012533
2.450514317 -4.422533989 1.247398615
2.35054636 -4.269989491 1.520516753
2.029080391 -3.804349899 1.547917247
2.106845379 -3.911405802 1.711517572
2.296428204 -4.177538872 1.943523049
11.15026474 -17.18875504 0.8317715526
2.736944199 -4.875246048 0.9665783644
2.634451866 -4.721532822 1.122173786
2.425734043 -4.41304636 1.245459914
2.219066381 -4.109704018 1.344358802
2.333094597 -4.270048618 1.519150257
2.045612574 -3.849937677 1.558335185
1.970058918 -3.737126112 1.656236172
2.243157625 -4.125555515 1.922800183
11.1788063 -17.35327148 0.8339939117
2.703868866 -4.856716633 0.9657723308
2.628962278 -4.742208481 1.123622179
2.407795668 -4.413269997 1.24479723
2.166335106 -4.057012558 1.334265351
2.316788673 -4.271648407 1.518132567
2.159452677 -4.037386894 1.605739236
2.039344311 -3.858902454 1.691713691
2.047246933 -3.86614871 1.829283476
11.56816864 -17.94919777 1.55575645
2.635690928 -4.78104353 1.126658559
2.524148941 -4.610681534 1.269779563
2.153023958 -4.061257839 1.33406198
2.306049109 -4.28130722 1.518872023
1.996134639 -3.822108269 1.548086405
2.082597971 -3.944382668 1.715984344
2.032432795 -3.866893291 1.827402472
5.116352081 -8.545665741 0.8107887506
2.657190323 -4.84729147 0.9654074311
2.616530895 -4.781930923 1.126379132
2.137494326 -4.062167645 1.333290339
2.319556475 -4.326795578 1.527356982
1.991922021 -3.83907795 1.550961018
2.041912079 -3.908634663 1.703159571
1.921459079 -3.726201534 1.776041389
5.082272053 -8.565050125 0.4906415641
5.094951153 -8.574352264 0.8117271662
5.115514278 -8.557732582 1.132694006
2.606695414 -4.798108578 1.127420187
2.144592762 -4.097902775 1.33848536
2.486983538 -4.603229523 1.58554244
2.148620605 -4.09414959 1.615673542
2.277365446 -4.280756474 1.814446926
1.903462052 -3.722034216 1.772487164
5.072022915 -8.607792854 0.4905368686
11.65206242 -18.47264481 1.579767108
2.609603643 -4.832089901 1.130032182
2.310388088 -4.375669003 1.237208486
2.135566235 -4.108637333 1.339414239
2.522026539 -4.683920383 1.601470828
2.147156715 -4.116224289 1.619824171
2.315050602 -4.362789631 1.837321162
1.897781134 -3.735002995 1.775032759
11.57800293 -18.60379219 0.8469675779
11.58730507 -18.50815201 1.581514835
11.55779266 -18.44083023 2.314222813
5.061966419 -8.570682526 1.778757095
2.124304771 -4.116046906 1.339775324
2.506555319 -4.689379692 1.601191759
2.161765814 -4.162773132 1.630294204
2.120507717 -4.096142292 1.754563808
1.886713028 -3.739968061 1.774796605
11.20909691 -18.17099953 0.8473026752
11.5650816 -18.60866928 1.586199164
4.974113464 -8.507874489 1.448970556
2.277280807 -4.378361702 1.236271858
2.103244781 -4.108518124 1.337580204
2.274929523 -4.36568737 1.530341625
2.091179848 -4.080429554 1.607487679
2.18606019 -4.220077038 1.790151596
1.879867554 -3.751302719 1.776785851
20.65675926 -32.97071457 0.9017626643
11.36508942 -18.43588829 1.578560472
11.1752615 -18.12102318 2.283402443
2.279177427 -4.407940388 1.239452481
2.054185152 -4.057743073 1.327993631
2.476662636 -4.701765537 1.600981236
2.029752731 -4.010732174 1.588032246
2.094771385 -4.10591507 1.753812551
1.874015093 -3.764233589 1.779332161
20.52427101 -33.01057053 0.9051803946
11.22592163 -18.35437584 1.57504034
11.08363056 -18.1112175 2.281089306
2.09036684 -4.138038158 1.340853214
2.558457613 -4.857459545 1.632839203
2.034752369 -4.042374611 1.594703197
2.053924084 -4.067615509 1.740458846
1.867047668 -3.775547266 1.781322122
20.32641983 -32.94686127 0.9081934094
20.31248474 -32.72446823 2.223702908
10.99973297 -18.11274338 2.279780149
2.235262632 -4.393578529 1.236354709
2.053364038 -4.105288982 1.334382772
2.578575611 -4.919341087 1.644585133
2.00889349 -4.026399612 1.589144588
2.034363985 -4.061681271 1.736890793
1.847534776 -3.767474651 1.776625752
10.71238136 -17.92118645 0.8533599973
13.83817768 -22.74935341 1.773745894
20.39718246 -33.06354523 3.573364258
2.052741766 -4.129114628 1.337581396
2.682891607 -5.114233971 1.684627533
2.004699945 -4.04524231 1.592460036
2.10303092 -4.194905758 1.774987698
1.839487314 -3.777099848 1.778056502
20.19413376 -33.24747849 0.9159719944
19.96178246 -32.67419434 2.22205472
2.541918039 -4.935975552 1.3046242
2.373588324 -4.66396904 1.427683234
2.245737314 -4.456665516 1.543250203
1.97063458 -4.015842915 1.583515167
2.04575181 -4.130120277 1.753780007
1.847354293 -3.812968016 1.788423896
19.90841484 -33.03890228 0.9183323979
19.79039764 -32.64690781 2.221135378
20.05511856 -33.03071213 3.565189362
2.528827429 -4.946484089 1.30527842
2.429709911 -4.782941341 1.446905255
2.237422228 -4.471118927 1.545052886
2.002295017 -4.090544701 1.60117352
1.82070148 -3.793351889 1.779817939
19.79198074 -33.10133743 0.9217586517
19.593153 -32.57633972 2.218267202
19.79767036 -32.8663559 3.548447609
2.503113508 -4.936676025 1.303340077
2.394147873 -4.756055355 1.44133544
2.220714092 -4.472187996 1.544023037
2.048963308 -4.190388203 1.625184655
2.029123545 -4.154109001 1.7574265
1.773857236 -3.741009474 1.760046959
19.61808014 -33.06943512 0.9247731566
19.42697144 -32.55416107 2.217590094
19.76195908 -33.0591774 3.56258893
2.483048677 -4.937329292 1.302715063
2.372305632 -4.750877857 1.439467311
2.187486649 -4.446382046 1.537321568
1.98131156 -4.108042717 1.602726817
1.994639397 -4.125207901 1.746999025
1.726391912 -3.686746359 1.73970449
13.84420013 -23.78130913 0.887389183
13.56208611 -23.18137932 1.79438889
2.746525526 -5.406428814 1.175960422
2.355968714 -4.760975361 1.279565573
2.368440628 -4.776404381 1.442756295
2.195582628 -4.487535477 1.544791579
1.967983365 -4.111568928 1.602225065
1.985304952 -4.135414124 1.748327136
1.739705801 -3.730337381 1.752844095
13.72723293 -23.76773262 0.889537096
13.48807049 -23.22616386 1.796639085
2.717331171 -5.393781185 1.174528599
2.33934617 -4.764050007 1.279327035
2.348329544 -4.772362232 1.441148281
2.232031584 -4.575888634 1.562198281
1.967411399 -4.134741783 1.60678196
1.974476218 -4.141940117 1.748655558
1.749729156 -3.769137859 1.764315605
13.45495605 -23.49244118 0.8904759884
13.47576141 -23.38274574 1.803961039
2.534289837 -5.124458313 1.151012301
2.335704327 -4.787098408 1.28166616
2.352094412 -4.809336185 1.446420074
2.282114983 -4.688136101 1.584588885
2.076261282 -4.340679169 1.657499433
1.961051106 -4.145451546 1.74801755
1.759500265 -3.808041573 1.775793314
13.34450531 -23.48586655 0.8925970197
13.46148777 -23.53779984 1.811221838
2.504199505 -5.107551575 1.149246693
2.477904558 -5.056458473 1.315257907
2.402318716 -4.924554825 1.464858294
2.196072578 -4.574417591 1.559427023
2.041056395 -4.309298992 1.648122907
1.964576006 -4.177174091 1.755732536
1.748254299 -3.812476873 1.775542378
13.33239365 -23.64614677 0.8954933286
13.24319363 -23.34877586 1.802927136
2.497587204 -5.129986763 1.150868058
2.207181931 -4.632153988 1.260779142
2.316559076 -4.811975002 1.444953322
2.184167385 -4.583719254 1.560168386
1.908236146 -4.113049507 1.597218394
1.963937044 -4.20229435 1.761485219
1.752725363 -3.843263626 1.784233689
13.32734489 -23.82045937 0.8984739184
13.24243736 -23.52759933 1.811275363
2.481772423 -5.136940479 1.151161432
2.192092896 -4.63638258 1.2607342
2.405134201 -4.994065285 1.474583149
2.176214933 -4.599767685 1.562330365
1.985276818 -4.269509315 1.635276198
1.879375219 -4.085552216 1.725438952
1.741367221 -3.847667694 1.783983111
13.1344099 -23.68949509 0.9001793861
13.22157097 -23.6923008 1.819020271
2.455438852 -5.129170895 1.150165796
2.178687334 -4.646465302 1.261378407
2.384346962 -4.994684696 1.473617911
2.173815966 -4.628457546 1.567020655
1.993930221 -4.314192772 1.644990921
1.783812881 -3.950481892 1.683985829
1.83865726 -4.039837837 1.846965909
13.10346508 -23.82024574 0.9029487967
13.14584923 -23.74517822 1.821685076
13.01573849 -23.49065208 2.723463297
2.28879261 -4.867541313 1.288748741
2.367998838 -4.999522686 1.473467469
2.168601036 -4.649616241 1.570252299
1.940752864 -4.25007391 1.627527833
1.738034129 -3.896296024 1.666584492
2.234783173 -4.746746063 2.083400488
12.94255257 -23.71394157 0.9044087529
13.20070839 -24.02689552 1.834717751
13.04752541 -23.72058678 2.741681099
2.492204189 -5.255058765 1.337068915
2.353614569 -5.007730961 1.473889112
2.162947655 -4.668699741 1.573110461
1.869541049 -4.153436184 1.601985812
2.050537586 -4.463393688 1.831330299
1.91777432 -4.22683239 1.906364679
12.91191292 -23.84610176 0.9071843028
12.89241886 -23.66184807 1.81845367
16.46166229 -29.92642593 3.271158218
2.472032309 -5.255061626 1.336424589
2.360472918 -5.051612854 1.480319738
2.158472776 -4.691583633 1.576701522
1.850920081 -4.1460042 1.598906398
1.845329165 -4.131832123 1.732687354
1.69627142 -3.866814613 1.78354311
12.816185 -23.86305809 0.9093589187
12.94888592 -23.94882584 1.831739306
16.31994247 -29.91230583 3.268016815
2.071044207 -4.577332973 1.250467062
2.339097977 -5.047728062 1.478731036
2.195490122 -4.78815937 1.595613837
1.911696672 -4.279976368 1.631091475
1.721176505 -3.939216852 1.674883246
1.699073911 -3.896053314 1.791686416
12.79894638 -24.02136421 0.9122855663
15.87522697 -29.38971138 2.078600407
2.512100697 -5.40425396 1.172252655
2.319710732 -5.04720068 1.477713704
2.171248913 -4.77687788 1.592087388
1.898849845 -4.284887791 1.631009817
1.696227074 -3.919821739 1.667799592
1.898510575 -4.275031567 1.916909695
15.96680546 -29.98262978 0.9470435977
15.88871384 -29.64950562 2.090743542
2.505995989 -5.430424213 1.174195766
2.015094042 -4.532624245 1.391240001
2.172923088 -4.811920166 1.598184466
1.955386043 -4.414401531 1.661956429
1.704466343 -3.959546804 1.677964926
1.883800387 -4.27655983 1.915570259
15.84421349 -29.99948883 0.9497278333
15.96011925 -30.01839638 2.107846022
2.481502533 -5.423388958 1.1733073
2.04411149 -4.621753216 1.254441857
2.023346901 -4.57775259 1.397938132
2.152531624 -4.807380676 1.596079826
1.974511862 -4.479677677 1.676785588
1.669714451 -3.923321962 1.665958524
1.88490963 -4.306581974 1.923757553
16.03580475 -30.60995293 0.9558898211
15.85416317 -30.07836342 2.110971212
2.468692541 -5.43944025 1.174377918
2.017751455 -4.604406357 1.251749396
2.009798765 -4.585114002 1.398323655
2.122075796 -4.785848141 1.590421319
1.73017025 -4.06308651 1.57206583
1.652545333 -3.917196512 1.662807584
1.85474503 -4.281439781 1.913462758
15.82066631 -30.45765114 0.9576256871
15.74359226 -30.11761284 2.113144636
15.93848896 -30.44228745 3.3038342
2.005067825 -4.613502026 1.252354383
2.002520561 -4.60252285 1.400419116
1.713826418 -4.060783863 1.570268273
1.6367625 -3.914678097 1.66065526
1.879528403 -4.355292797 1.936233878
15.7066555 -30.50479126 0.960611105
15.6683321 -30.23496246 2.118889332
2.41727972 -5.421774864 1.172305226
1.987361073 -4.611694813 1.251624942
1.962687492 -4.560975075 1.392727137
1.998159766 -4.622299671 1.554407835
1.697156549 -4.056385994 1.568026423
1.628902912 -3.925454378 1.662434936
1.841211915 -4.314799786 1.920884609
15.69952297 -30.54192162 2.133231163
2.400518656 -5.428403854 1.172598958
2.212172985 -5.066264153 1.307926774
2.013760328 -4.683058262 1.565856099
1.848384261 -4.361856461 1.787187696
1.811058283 -4.287305355 1.909997463
15.59959793 -30.60353088 2.136445045
2.268914938 -5.209362984 1.325237989
2.038145781 -4.761371613 1.580890417
1.83074832 -4.357969284 1.784562826
1.782022715 -4.261338234 1.899663806
15.48742008 -30.64177513 2.138604641
2.246451139 -5.20313549 1.323899388
1.913079381 -4.560199738 1.390335798
1.851151347 -4.437218666 1.513278723
2.04865098 -4.807585716 1.749694943
1.806855798 -4.341990948 1.778475523
3.04083252 -6.68330431 2.698488235
1.923011422 -4.610749722 1.397917986
1.837819219 -4.441880226 1.513263464
2.029496431 -4.804270267 1.747515202
1.787572742 -4.334484577 1.774854541
1.768947482 -4.294024944 1.907059431
1.89280355 -4.583970547 1.392778873
1.885714769 -4.565457344 1.537601948
2.004124165 -4.788711548 1.742346048
1.561212301 -3.925679445 1.656003237
1.768439054 -4.322297096 1.914691567
1.879879236 -4.590528011 1.393131971
1.804867744 -4.438785076 1.510720015
1.543495059 -3.917273045 1.65233624
3.043889046 -6.934115887 1.536683679
1.859796166 -4.58290863 1.391166806
1.673415184 -4.209765911 1.463018298
2.761967659 -6.351927757 2.122640848
1.53199327 -3.920877695 1.652129769
1.855738044 -4.607045174 1.394414067
1.608868241 -4.110029697 1.441812277
1.996352553 -4.875703335 1.759692192
1.515261531 -3.91405201 1.648951888
2.203919172 -5.354096413 1.164300084
2.887648106 -6.72541523 1.509352922
1.932493925 -4.794261456 1.424339175
1.787658215 -4.497917175 1.519982696
2.723580122 -6.370960236 2.123675346
1.522807956 -3.95570159 1.659636021
1.759486914 -4.425445557 1.94187665
2.038542509 -5.044194221 1.464451313
1.574993968 -4.098182678 1.437750459
2.700878859 -6.373368263 2.122480154
1.690643668 -4.322269917 1.762957931
2.004050016 -5.010349751 1.458161831
1.572399259 -4.121309757 1.441641092
2.017323494 -5.076429367 1.468147993
1.542521715 -4.089830875 1.434409499
2.666491032 -6.402983665 2.126095057
2.006945372 -5.092338085 1.469987154
1.535575628 -4.104036331 1.43650198
1.688191772 -4.406543255 1.929135561
2.072845936 -5.269109249 1.497997642
1.529389977 -4.120009899 1.438954711
2.082432032 -5.334854126 1.333923459
1.756009102 -4.635272503 1.394236207
1.514729977 -4.118180275 1.437810183
1.603102565 -4.295265198 1.748687267
2.075283766 -5.360090256 1.336545587
2.016254425 -5.22781229 1.489771128
1.512316704 -4.140985012 1.441688418
1.591148138 -4.300799847 1.748996973
1.490197539 -4.12300396 1.437300205
1.578142166 -4.302504063 1.748297334
1.745592117 -4.719701767 1.256893516
2.003101349 -5.277356148 1.496362567
1.475601315 -4.121003628 1.436149478
1.425025225 -4.005173206 1.537022591
1.566165805 -4.30795002 1.748604536
1.728931069 -4.718507767 1.256346107
1.976303101 -5.259062767 1.492672563
1.463476658 -4.124315739 1.436077952
1.410062075 -4.001205921 1.535156965
1.560592651 -4.327459335 1.752885103
1.6382339 -4.492924213 1.947966695
1.713925719 -4.720871925 1.256241322
1.679596305 -4.639651299 1.391822457
1.479598403 -4.19037199 1.448626876
1.442508698 -4.1022439 1.558602452
1.548525572 -4.332845211 1.753191471
1.708614707 -4.744971752 1.258806825
1.664065123 -4.640041828 1.391278386
1.583374381 -4.454222679 1.500871897
1.389036655 -4.012692928 1.536139011
1.527742863 -4.318734646 1.748028278
1.694346905 -4.749070168 1.258922935
1.650948286 -4.645800114 1.391608357
1.577249289 -4.474093914 1.504073262
1.387574911 -4.038927555 1.541566372
1.516491413 -4.325777531 1.748827934
1.607958674 -4.527272701 1.954572797
1.684955955 -4.766161919 1.260615349
1.664736986 -4.713159561 1.401873112
1.544994593 -4.434487343 1.495359421
1.369719386 -4.029643536 1.538419843
1.503829122 -4.331269264 1.749144316
1.669835687 -4.768349171 1.260506272
1.808539748 -5.084219933 1.46099472
1.538994431 -4.456341743 1.498935223
1.36260426 -4.043333054 1.540841818
1.490977764 -4.33468008 1.748946905
1.558769941 -4.485804081 1.938279629
1.651593924 -4.763168335 1.259501934
1.510334253 -4.428469181 1.354867458
1.518754721 -4.443582058 1.495629907
1.340759039 -4.022912979 1.535097361
1.481184244 -4.345160961 1.750739098
1.553720236 -4.508794785 1.944242358
1.641938448 -4.778038025 1.260952711
1.494868755 -4.426408768 1.354001284
1.507850647 -4.452451706 1.496659279
1.330544472 -4.02933979 1.535797596
1.461465836 -4.332448483 1.746058345
1.632197142 -4.792888641 1.262403965
1.789728999 -5.163033009 1.471745372
1.328644514 -4.055531979 1.541228652
1.450888395 -4.341057777 1.747349977
1.621610999 -4.805881023 1.263631582
1.308528185 -4.038486958 1.536334991
1.441763401 -4.353209496 1.749637604
1.590541244 -4.769221783 1.258812308
1.293767571 -4.033977032 1.534449935
1.431828618 -4.363550186 1.751426935
1.589730859 -4.806019306 1.262949228
1.284228802 -4.042057991 1.535576463
1.4211061 -4.372070789 1.752717376
1.273182988 -4.046489716 1.535841107
1.260670066 -4.047256947 1.535242915
1.673054338 -5.177927494 1.469874144
1.214151859 -4.027635098 1.528274775
4.156620979 -11.79513168 1.288697839
4.117212296 -12.00692654 0.8852280974
4.048134804 -11.9386034 0.8853852153
1.614437461 -5.248695374 1.478380799
3.973439693 -11.8530159 0.8853744864
4.093011856 -12.07549 1.719523907
3.970766306 -11.72236824 2.096286774
1.601234794 -5.259843349 1.479613662
3.823733091 -11.55621433 0.8834474683
3.960652113 -11.81268692 2.106405735
1.581214547 -5.252362728 1.477895975
4.206740379 -12.65400314 1.329660535
1.561937213 -5.246655941 1.476469994
3.66663909 -11.25188732 1.650028586
1.436309099 -4.948973656 1.276173711
1.555868387 -5.280277729 1.481258988
3.74840045 -11.62070084 1.28248322
1.539080739 -5.284053802 1.481323838
3.925247431 -12.33868217 0.8935463428
3.706926107 -11.61605167 1.282489896
3.885952234 -12.35419655 0.8944450617
3.677812338 -11.64716625 1.284150839
3.553823233 -11.27200031 1.65099442
3.512875795 -11.39378548 0.4999141395
3.734669209 -12.03586102 0.8922046423
3.694042206 -11.81889534 1.292327762
3.532250881 -11.32773304 1.655407667
3.586843252 -11.74005032 0.4915886223
3.677483559 -12.00010681 0.8926280141
3.631165981 -11.76411247 1.290048838
3.495203972 -11.34434509 1.656559944
3.545997381 -11.72967529 0.8907698989
3.579399586 -11.73495579 1.288943172
3.474936008 -11.40565681 1.661449075
3.510910034 -11.50104523 2.062913418
3.441456556 -11.27205849 2.423624039
3.35442996 -11.28601265 0.5062558055
3.660776615 -12.22020435 0.8962090611
3.410698652 -11.35288525 1.27150929
3.418993235 -11.36521626 1.657869935
3.471913815 -11.507514 2.063034534
3.39832592 -11.26949215 2.422078848
3.375387907 -11.36850548 1.27247107
3.381150246 -11.37325001 1.658341289
3.435361147 -11.52140236 2.064060211
3.372319698 -11.31320763 2.427899361
3.217479229 -10.99944973 1.255606055
3.354807138 -11.41723728 1.661808848
3.446726322 -11.67145824 2.483253241
3.604019403 -12.45643997 0.9006820321
3.202581644 -11.07539177 1.259361267
3.383332491 -11.63611031 1.679818749
3.369282484 -11.57153702 2.068831682
3.324873447 -11.41744518 2.442214966
3.138767719 -11.10254192 0.5154592991
3.204478502 -11.30307198 0.8900486231
3.251269102 -11.35740948 1.272682667
3.381916761 -11.76393318 1.690262318
3.343735218 -11.62111473 2.074174643
3.293289661 -11.44590664 2.445665598
3.101445436 -11.10770321 0.5163576007
3.167581558 -11.31227016 0.8907905221
3.1707201 -11.22542095 1.266801357
3.531436205 -12.38543701 1.741728067
3.319630384 -11.67633724 2.080203056
3.076767683 -11.15485668 0.5161361694
3.478824377 -12.48010635 0.9030868411
3.140429735 -11.25552273 1.268443584
3.291709661 -11.72011852 2.084866524
3.333981991 -11.84499264 2.50634861
3.194368839 -11.68312454 0.5032246709
3.2415905 -11.82877827 0.8972660899
3.298003674 -11.91333294 1.299256206
3.375425816 -12.15764141 1.722465634
3.249805689 -11.71816444 2.084056616
3.098390579 -11.49464417 0.5092437863
3.198599815 -11.81642723 0.897779882
3.339701176 -12.17446709 1.723714709
3.217556477 -11.74843311 2.08712101
3.355722666 -12.19963264 2.559987783
3.245022535 -11.80566788 2.906810045
3.044429779 -11.43955612 0.5116727352
3.21440053 -12.01386452 0.900452733
3.181451797 -11.7935524 1.29420197
3.282339811 -12.12478161 1.71944046
3.190729618 -11.79767704 2.092467785
3.30637908 -12.17077351 2.55451107
3.202303648 -11.80174541 2.904663801
3.09265995 -11.74814701 0.5046463609
2.970983028 -11.3014164 0.89381814
3.111278057 -11.69321537 1.289797544
3.2538836 -12.16620731 1.722746134
3.123546362 -11.70125866 2.080412388
3.176347494 -11.84809685 2.912369013
3.059978962 -11.76989555 0.5050739646
3.034957647 -11.56124783 1.283904195
3.138485432 -11.91095543 1.701424837
3.043713093 -11.56492424 2.063575506
3.191193819 -12.05976677 2.53523159
3.123288393 -11.80799484 2.90324831
3.007304907 -11.74934483 0.5067992806
3.261337996 -12.64284992 0.9090067148
3.240231276 -12.45826435 1.325998068
3.15380168 -12.12824821 1.71932447
3.005308867 -11.58603382 2.065547705
3.061935425 -11.75168896 2.89089179
2.833087444 -11.25400543 0.520552218
3.184319019 -12.51472187 0.908341527
3.21571207 -12.51898575 1.329101443
3.116482258 -12.13860321 1.720072746
2.954328537 -11.54037094 2.059622288
3.053176165 -11.86018276 2.910697222
2.774581432 -11.18083191 0.5234035254
2.769926786 -11.14349174 0.8946934938
3.173978567 -12.51799393 1.329331517
2.937740088 -11.63978767 1.678573728
2.906316519 -11.50406742 2.05483079
3.043438435 -11.98989296 2.521521568
3.04178977 -11.96926022 2.930550575
3.066398859 -12.42947578 0.4924343526
3.124341488 -12.62414742 0.9109043479
9.995663643 -38.01861954 2.519578457
2.900362015 -11.65813828 1.679994226
2.866274357 -11.51075268 2.055145025
2.983500719 -11.91572189 2.918873072
2.693449497 -11.17142582 0.5255925655
2.814494133 -11.50773811 1.282779813
2.87773037 -11.73223782 1.686047196
2.819582224 -11.4923296 2.052473545
2.659634113 -11.1885128 0.5260951519
2.765282154 -11.47108459 1.281338692
2.865093708 -11.83860016 1.694787145
2.880337477 -11.87486076 2.097711086
2.574156284 -10.9902029 0.8955160379
2.747805834 -11.55609703 1.285584211
2.841274261 -11.90447044 1.70017457
2.893165827 -12.08290291 2.122104406
2.566735029 -11.10966969 0.8973841071
2.643130541 -11.30031681 1.273898125
2.810150385 -11.94325924 1.703322291
2.855955601 -12.10057735 2.123780489
2.613092184 -11.33465099 1.275776029
2.71525526 -11.72865486 1.685462952
2.765587807 -11.8925457 2.501338482
2.763570309 -12.24061489 0.5033934712
2.690767765 -11.92778492 0.9074472785
2.595296144 -11.41933346 1.280014634
2.686929941 -11.7767334 1.689396381
8.796944618 -36.43281174 5.024403572
2.614354372 -11.79331589 0.5155545473
2.512486935 -11.3474741 0.9017037153
2.607134819 -11.6282692 1.290080428
2.60785675 -11.60928345 1.675466776
8.847564697 -37.18113708 5.112359047
2.622457266 -11.98871994 0.5115835071
2.539165258 -11.6227808 0.9053174257
2.657625914 -11.99627876 1.307600498
2.541557312 -11.4980917 1.66620791
2.534822464 -11.78750134 0.5175249577
2.574845314 -11.94513988 0.9094781876
2.554640293 -11.73322392 1.295560718
2.502643108 -11.49909973 1.666259885
8.564869881 -37.09321594 5.099514961
2.667845726 -12.16023827 2.540165186
2.521424532 -11.90347958 0.5155806541
2.550159216 -12.01447487 0.9108649492
2.444483995 -11.43066692 1.281655192
2.455180883 -11.46307087 1.663248062
8.213148117 -36.1572113 4.986876488
2.635549784 -12.20021915 2.545694828
2.538478613 -12.15797424 0.5102338791
2.379205465 -11.43807125 0.9050573707
2.552764177 -12.07406521 1.312149525
2.415115118 -11.45793343 1.662804723
8.167327881 -36.52436066 5.029516697
2.472810507 -12.04770279 0.5138789415
2.340255022 -11.43654156 0.905623138
2.516785145 -12.09652615 1.313509703
2.445602417 -11.76576233 1.688316345
8.055220604 -36.60866547 5.038502693
2.520538568 -12.06003284 2.522564888
2.434365034 -12.05822754 0.5145404935
2.344459057 -11.63219929 0.9084055424
2.476797104 -12.1013155 1.31404233
2.434738398 -11.89681149 1.699177861
7.937073231 -36.6199646 6.339375973
2.390163183 -12.05143929 0.5156625509
2.406969786 -12.1056633 0.9143490791
2.309849501 -11.52223969 1.287115574
2.417896509 -12.00454235 1.708113432
7.946407318 -37.3424263 5.123785496
7.858654976 -36.86164093 6.374967575
7.821568489 -36.6431694 7.655440331
2.351278543 -12.05972195 0.5163629651
2.374159098 -12.15353584 0.915533483
2.386495829 -12.07181072 1.313290715
2.377940178 -12.01718426 1.709173083
7.644888401 -36.5110321 6.318500519
7.147504807 -34.93667603 2.390344858
2.338223219 -12.02147484 1.709547281
7.610630989 -36.96677399 6.387428284
2.184979916 -11.62699986 0.9107040763
7.199336529 -35.78900146 2.431465626
2.307385445 -12.068573 1.713478088
7.459665775 -36.87477875 6.371348858
7.282580853 -36.65042877 6.334797382
7.144822121 -36.61334991 6.327375889
6.99556303 -36.51561356 6.310606956
6.985930443 -37.12114334 7.728179932
6.693174839 -36.31949234 6.27709341
6.863524914 -37.17012405 7.735178471
6.64716959 -36.76427078 6.344587803
6.755907536 -37.29986191 7.75770998
6.505840302 -36.70143509 6.33346653
6.637274742 -37.37320709 7.769505024
6.382713795 -36.73731995 6.337696552
6.312848568 -36.29491806 7.560970783
6.211849213 -36.500103 6.299692631
6.222428799 -36.51006699 7.600092888
6.154641628 -36.03437805 8.807824135
6.123638153 -36.73571014 6.334959507
6.024215698 -36.01493073 8.800662041
5.880566597 -36.05463791 6.228385448
6.03467226 -36.9242363 7.675404072
5.899852753 -36.0296402 8.801384926
5.759840965 -36.09033585 6.23282671
5.847809792 -36.57630157 7.607038975
5.775425911 -36.04391861 8.80209446
5.618620872 -35.99872589 6.217624187
5.763000011 -36.84848022 7.657292366
5.666453362 -36.15408325 8.8247509
5.53192997 -36.25033188 6.25557375
5.543162346 -36.1771698 8.827634811
5.589057446 -37.4535141 6.440737724
5.345746517 -35.81105042 7.455791473
5.432790756 -36.28469086 8.849842072
5.187722683 -35.59210587 7.412464619
5.278346062 -36.10243225 8.806114197
5.509720802 -38.70604706 6.632658005
5.098019123 -35.82947159 7.45635128
5.231401443 -36.68878555 8.937431335
4.975670338 -35.84872818 7.45865345
5.097643375 -36.65048218 8.926657677
4.869994164 -36.04072952 6.219105721
4.916469097 -36.32304382 7.547873974
4.978829384 -36.67074203 8.929401398
4.777454853 -36.28456116 6.256144524
4.884037018 -37.01937103 7.679495811
4.867264271 -36.79197311 8.955109596
4.813658237 -37.51995468 6.446463585
4.626928806 -36.04616165 7.492617607
4.752933502 -36.94654465 8.988393784
4.542582989 -36.47032928 6.283686638
4.496644974 -36.05675125 7.493483067
4.646848679 -37.12320328 9.026865005
4.11024189 -34.00794983 5.902740955
4.371042728 -36.05440903 7.492008686
4.520423412 -37.19771957 9.042100906
4.001376629 -34.03297424 5.906223297
4.236358166 -35.92408752 7.466245174
3.908680201 -34.24680328 5.938901424
4.108374119 -35.89545059 7.459896564
3.770548344 -34.07342911 5.911812782
3.820153713 -34.45668793 7.184780121
3.783631325 -35.26121902 6.095035553
4.02529192 -37.39739227 7.744643211
3.89453721 -36.09698105 8.786426544
3.829048395 -36.89045715 6.34647131
3.748885155 -36.02170563 7.481716633
3.777314425 -36.22900391 8.815213203
3.706288338 -36.81615067 7.632518291
3.542428017 -35.11169815 8.560331345
3.452013969 -35.59926224 6.146771908
3.495457411 -35.97803879 7.472239017
3.445108652 -35.35259247 8.614096642
3.527091026 -37.66126633 6.465200901
3.25088954 -34.72621155 7.233215332
3.333312988 -35.52388 8.652080536
3.380136251 -37.54772186 6.44766283
3.16186142 -35.05797195 7.296041965
3.291617155 -36.39741516 8.849687576
3.042640924 -35.13470078 6.075010777
3.142684937 -36.19979095 7.513278961
3.174677134 -36.42531204 8.855325699
3.119963884 -37.45716858 6.433835506
3.018949032 -36.21222687 7.515380859
3.020647049 -36.09573364 8.779828072
2.934246063 -36.76427078 6.326972485
2.879433632 -36.03232574 7.480904579
2.87380147 -37.6909256 6.470337868
2.777167559 -36.31024933 7.533727646
2.760694742 -37.82618713 6.491496086
2.656988621 -36.37432098 7.545873165
2.627159119 -37.7781868 6.484414101
2.544366121 -36.54969406 7.579294205
2.536062479 -38.35093689 6.573287964
2.431475163 -36.73843384 7.615332127
2.307578087 -36.77584076 7.622608185
2.317011833 -39.08543015 6.687739849
2.187381744 -36.87754059 7.642204285
2.105752468 -37.73929977 6.480288029
2.063914776 -36.93371964 7.653198242
1.630270839 -38.87622833 6.658880711
1.375214219 -35.78858948 6.182282925
1.334897637 -38.0763588 6.536948681
1.231639981 -38.91618729 6.667810917
1.049392223 -37.32743073 5.127002239
-51.58741379 32.72367096 0.628338933
-32.90019226 20.42212486 2.042321444
-16.4017334 9.482367516 2.600302458
-16.45871735 9.540992737 0.9707348347
-16.49051285 9.577871323 2.062409401
-16.31719589 9.490996361 2.592087746
-15.87876797 9.244726181 1.495020509
-16.47179604 9.631082535 2.061386347
-16.23935509 9.503593445 2.584649324
-15.9563446 9.338308334 0.9713215828
-16.12266731 9.476571083 1.501861215
-16.16172791 9.519090652 2.577315807
-15.91034031 9.370370865 0.9696674943
-16.00196838 9.458473206 1.497122049
-15.995368 9.469996452 2.559533358
-16.05197906 9.528077126 0.9661155939
-15.99167442 9.512375832 1.495937109
-16.20895195 9.652420998 2.043023586
-16.06280708 9.596883774 0.9639158249
-15.69229031 9.368879318 1.485559106
-15.98471451 9.559236526 2.026736021
-15.92543793 9.547311783 2.554572105
-15.80127144 9.482563019 0.9644719958
-15.8873806 9.55599308 2.019882917
-15.76800919 9.52305603 0.9626553655
-15.52364826 9.379873276 1.47840631
-15.84747505 9.595707893 2.017314196
-15.9739418 9.714571953 2.563707829
-15.75909805 9.580758095 0.9605533481
-15.5249939 9.443802834 1.477549434
-15.75523567 9.594969749 2.010839701
-16.00804138 9.804462433 2.569428444
-15.97339249 9.806785583 3.108353376
-15.81342983 9.683796883 0.9577032328
-15.51953602 9.503188133 1.476471663
-15.67939568 9.605301857 2.005584002
-16.03681374 9.891218185 2.574550152
-16.03728294 9.918919563 3.121750832
-15.8883028 9.802490234 0.9545713663
-15.58030224 9.610583305 1.477456212
-15.59715176 9.610543251 1.9998523
-15.96507835 9.905994415 2.567862749
-16.02828407 9.979244232 3.123440027
-16.00461769 9.952301979 0.95089674
-15.77149391 9.81368351 1.482488871
-15.67662239 9.732535362 2.006154776
-15.91431904 9.935608864 2.56364727
-16.07347488 10.07937431 3.133923292
-15.5128479 9.68999958 1.473497987
-15.59903336 9.74093914 2.000774622
-15.85226536 9.956735611 2.558102846
-15.88807487 10.01409149 3.107261658
-15.74623203 9.89923954 0.9492756128
-15.38880062 9.663082123 1.468713641
-15.41871262 9.67643261 1.98776257
-15.91353703 10.06862259 2.567135096
-15.73357677 9.966674805 3.085392714
-15.61990929 9.868333817 0.9486435056
-15.27311134 9.641363144 1.464199424
-15.41044903 9.731468201 1.987525225
-15.96938515 10.17748356 2.575562477
-15.63041687 9.956251144 3.07182169
-15.7056303 9.997736931 0.9452336431
-15.23137283 9.674030304 1.461977363
-15.41160011 9.796992302 1.988014221
-16.16324043 10.39073563 2.60037756
-15.59722233 9.994345665 3.069459915
-15.44194889 9.866081238 0.9462668896
-15.33327198 9.814787865 1.46417439
-15.26885891 9.75460434 1.977776408
-15.76461697 10.15917587 2.554983139
-15.60500908 10.06676769 3.073955774
-15.29896832 9.823173523 0.9458035827
-15.21135044 9.787153244 1.459476829
-15.26658058 9.817443848 1.978015304
-15.7750845 10.23468876 2.558081627
-15.60455513 10.13334274 3.077143192
-15.59392738 10.1126442 0.9395652413
-15.15489483 9.808559418 1.456795096
-15.25765991 9.875529289 1.977763414
-15.87369537 10.37819386 2.571686745
-15.69342995 10.26890564 3.094979525
-15.78254986 10.29533863 0.3950079978
-15.11585999 9.843094826 1.45464623
-15.13768768 9.848471642 1.96922183
-15.67192554 10.29139805 2.549569607
-15.67798519 10.32508659 3.095802546
-15.74016285 10.33398056 0.393352896
-15.108531 9.877847672 0.9411292076
-15.08621979 9.888066292 1.452733397
-15.1427536 9.920523643 1.970041871
-15.23663616 10.02452755 2.499655247
-15.48077965 10.24314404 3.0669806
-15.71974945 10.38959408 0.3904090524
-15.06455421 9.911631584 0.9392666817
-15.06428337 9.939096451 1.451050282
-15.37249756 10.16841984 1.987666726
-15.19378185 10.06033421 2.496484041
-15.40910721 10.25791359 3.058727741
-14.95756817 9.895812988 0.9382879138
-15.1929245 10.10884666 1.453919649
-15.21768093 10.1169405 1.976548195
-15.18833637 10.12555599 2.497793913
-15.53187847 10.42618942 3.082509279
-15.00303936 9.989954948 0.9355046749
-15.09657383 10.0953989 1.450065732
-15.1636343 10.13725471 1.972921729
-15.07356358 10.09756279 2.485842943
-15.58870697 10.5368166 3.095169544
-15.07456017 10.11215305 0.9320662022
-15.30193615 10.32548523 1.455252051
-15.07987499 10.13693237 1.967093706
-15.17049122 10.241395 2.499352694
-15.40504456 10.45881462 3.068309069
-15.06890965 10.17366886 0.929710865
-15.3687315 10.44683266 1.456235051
-15.19679451 10.32977676 2.504434586
-15.5228405 10.62286854 3.091306925
-15.05674553 10.23023129 0.9274320006
-15.33850002 10.49072647 1.454293609
-15.05869293 10.25292683 1.966404319
-15.10513401 10.32306004 2.495362282
-15.3920126 10.58617592 3.073158741
-15.15604591 10.3776598 0.9234466553
-15.38246727 10.59519863 1.454562426
-15.247365 10.47369576 1.981010914
-15.23564434 10.49734879 2.513030291
-15.24471951 10.53484344 3.052232265
-14.93417549 10.26360893 0.9243289828
-15.11998081 10.44874382 1.445697188
-15.13059998 10.44634628 1.97271955
-15.27746201 10.60050201 2.520069599
-15.42213631 10.75046539 3.08532548
-14.84438515 10.25628757 0.9232263565
-15.09125805 10.49307537 1.443803191
-15.13574314 10.51879692 1.973577261
-15.2114172 10.61506653 2.514120102
-15.17580605 10.61596489 3.047870874
-14.81775856 10.30409336 0.921015501
-15.31271935 10.74599457 1.44930315
-15.00855923 10.48153114 1.964501023
-15.1836195 10.66120625 2.512794495
-15.09763622 10.62333775 3.038588047
-14.89840603 10.43841934 0.9171969295
-14.83715343 10.42019749 1.434153795
-14.95966339 10.51220894 1.961328387
-14.87969112 10.47847748 2.478142738
-15.4608345 10.99940014 3.103028536
-14.92472935 10.52831268 0.9142012596
-14.85276508 10.50103378 1.43356812
-15.08168793 10.68368626 1.970987797
-14.81435776 10.49130535 2.472240448
-15.43465996 11.04912567 3.10240674
-14.90329933 10.57838821 0.9119565487
-14.72942924 10.46411419 1.428900361
-14.93346977 10.62712193 1.960328817
-14.81420135 10.55939293 2.474252939
-14.91358089 10.6557169 0.9091663957
-14.68844414 10.49674797 1.426650643
-14.91770744 10.68266773 1.959635735
-14.91337681 10.71329308 2.488369942
-15.24049377 11.0265913 3.077346325
-14.96741581 10.77106953 0.9056079984
-14.83197308 10.68867493 1.429768562
-14.94856262 10.77865982 1.962459326
-14.95440483 10.81846523 2.495461464
-15.28903198 11.14069176 3.089354753
-15.23516083 11.07292366 0.8983227015
-14.84003353 10.76491928 1.428920388
-15.00149441 10.89463329 1.966956139
-14.90327644 10.84419918 2.491346359
-15.16498184 11.08347321 0.8967722058
-15.17256451 11.12594032 1.437440753
-15.01769257 10.97953701 1.968693376
-14.87455463 10.88940907 2.489973068
-15.15466499 11.14982224 0.8940312862
-14.86846638 10.92983532 1.427544355
-15.00497627 11.03958893 1.968256354
-15.05302906 11.11794472 2.513970375
-14.88681984 10.98482323 0.896020174
-15.02604198 11.13350487 1.97040236
-14.79664421 10.97185993 0.8950243592
-44.99139404 38.41497803 0.3266627192
-45.34790802 38.87169647 2.289058924
-44.87221527 38.56997681 0.3185217977
-44.77249146 38.61289597 2.268509626
-44.77534103 38.75881195 0.3093874753
-44.73205185 38.8406868 2.263130426
-37.8385849 32.6171875 0.4334836602
-37.50411606 32.42048264 2.055533409
-37.57587051 32.60627365 0.4293476939
-37.41452789 32.55809021 2.049466848
-37.23717117 32.50006866 0.4276591837
-37.21075821 32.58862686 2.040201426
-37.04536057 32.54048538 0.4226531684
-37.07979584 32.68685913 2.03296876
-36.80582428 32.53450012 0.4186372757
-36.99198151 32.82595444 2.02692461
-36.87600708 32.82303238 0.4082421064
-36.93245316 32.99251938 2.021645546
-37.05260086 33.21648026 0.3954847157
-36.96418762 33.24799728 2.018851042
-36.85362625 33.24954605 0.3905293047
-36.72229767 33.23907852 2.008531809
-20.00595474 17.14505005 0.7392590046
-36.50465393 33.49002457 1.994981647
-19.89099693 17.14469147 0.7371415496
-19.76067162 17.12819099 0.7353869677
-19.64053917 17.12090492 0.7334290147
-19.52628708 17.11303139 0.7315920591
-19.41924858 17.117342 0.7293729782
-19.38909721 17.2054882 0.7251191735
-19.37944984 17.30955315 0.7205802202
-19.37768936 17.41675186 0.7160491347
-19.36282921 17.51675224 0.7115508914
-41.55075073 40.90784454 2.091252089
-19.35571671 17.62555504 0.7068192959
-41.31772995 40.94154739 2.080480337
-36.52823257 36.11562729 1.952159047
-36.60834885 36.17280197 3.647240877
-36.56355286 36.25761032 5.344792366
-36.59461212 36.41228867 7.067969322
-41.15221405 41.3274765 2.066687822
-40.93072891 41.3859024 2.055967093
-40.72720337 41.4485321 2.045951605
-40.60822296 41.61720276 2.037833929
-44.01121521 45.66371918 2.118486404
-43.92180634 45.87919998 2.110844851
-52.1619873 56.59169388 2.290266752
-51.65570068 56.40169144 2.271120787
-51.48026657 56.59062576 2.260046721
-36.20450592 39.67300415 1.876502156
-35.90739441 39.59372711 1.864653587
-35.65216064 39.56205368 1.853824615
-35.49176788 39.64318848 1.845230341
-35.16636658 39.52262497 1.832814693
-35.15782928 39.78797913 1.827730656
-35.03720093 39.91688156 1.820037365
-35.00367737 40.15458679 1.814303756
-35.02620316 40.46447372 1.809788465
-34.66231155 40.28881073 1.7965734
-41.2445755 49.64808273 1.925052643
-40.72588348 49.32603836 1.907445192
-40.54233551 49.4365654 1.897155762
-40.4369278 49.66760635 1.888206363
-40.26675034 49.79619217 1.878168106
-40.08415985 49.90816116 1.867856026
-44.08778381 55.66872406 1.944652438
-14.46162701 16.87272644 0.6292504072
-14.33557796 16.81347847 0.6287522912
-34.65710068 46.84243774 1.676469803
-14.03710175 16.49157906 0.6361882091
-34.56023407 47.06245422 1.667903423
-13.95707607 16.48992729 0.634139061
-34.25033569 46.9476738 1.655769587
-13.88605213 16.50122261 0.6316996217
-34.01593399 46.92598724 1.645362377
-13.79685307 16.47872734 0.6303789616
-33.99386215 47.24267197 1.638399005
-13.70629692 16.45925713 0.6288650632
-33.91746521 47.47938156 1.630415916
-13.62747478 16.46289253 0.6265464425
-13.53411865 16.43753815 0.6252153516
-13.47395039 16.46900368 0.6220393181
-13.4652586 16.56933403 0.6169404387
-13.45005989 16.66643524 0.6118063331
-13.40777683 16.72125626 0.6079583168
-13.29622364 16.6587944 0.607863605
-36.53105927 54.28308487 1.622941136
-13.20490456 16.63998222 0.6061995029
-35.79860306 53.5083046 1.603547335
-65.85089874 102.8931656 10.43861008
-13.12011433 16.6309433 0.6042299271
-35.82742691 53.99008942 1.595692158
-65.54354095 103.2316818 10.42674351
-13.0382576 16.61983871 0.6024326086
-35.47992325 53.85476303 1.582034349
-12.95453548 16.60492897 0.6007568836
-35.35274124 54.06206512 1.572108865
-12.87103081 16.58962822 0.5990949869
-35.18677902 54.18450928 1.561981916
-62.17266846 99.99894714 10.01497459
-12.80475235 16.59639931 0.5968344212
-35.05779648 54.39117432 1.551958442
-61.93743896 99.91486359 5.958901882
-12.72464752 16.58555031 0.5950291753
-34.82471085 54.42152023 1.540428042
-61.70762253 100.7983627 10.00935936
-12.63091946 16.55692863 0.593691051
-34.81272507 54.83139801 1.531959176
-12.55326271 16.54875755 0.5918014646
-12.48200226 16.55739975 0.5892550349
-12.40858364 16.55549622 0.5871564746
-12.33211994 16.54129028 0.585568428
-12.24628353 16.51605988 0.5842372775
-12.17451477 16.52164078 0.581780076
-12.10457897 16.52366066 0.5795449615
-12.02898598 16.51485252 0.577668488
-11.94403458 16.48813057 0.5763930082
-11.86694241 16.47509956 0.5746600628
-31.62175751 53.51774979 1.40656364
-11.79004383 16.4617157 0.5729395151
-11.7189436 16.45859337 0.5708706975
-29.0046463 49.43179321 1.36211586
-11.65260315 16.46401978 0.5685075521
-28.86231422 49.55149078 1.352970004
-7.976806164 9.515844345 0.8046318889
-28.74770546 49.74623489 1.343658924
-8.085554123 9.768931389 1.493487358
-7.937591076 9.513565063 0.8035007715
-7.893309116 9.504759789 0.8025333881
-7.984700203 9.724222183 1.48654139
-7.860581875 9.514610291 0.8009796739
-8.118192673 10.06850433 1.139950156
-7.945193291 9.726374626 1.484047413
-7.832030773 9.528945923 0.7993258238
-7.809681416 9.528355598 1.473152041
-7.810832977 9.561828613 0.7969564199
-7.745891094 9.475337982 1.46848464
-11.14491653 16.40293503 0.5553097129
-7.62651968 9.310129166 1.131376982
-7.701014996 9.459654808 1.465450883
-7.909714222 9.934274673 1.836694002
-7.692109585 9.536053658 2.140735626
-11.07503033 16.39705276 0.5533201098
-7.566569328 9.261516571 1.129457593
-7.532456398 9.192864418 1.451670408
-7.753988266 9.692962646 1.814020157
-11.00361824 16.38057518 0.5518140197
-7.474007607 9.144126892 1.127334237
-7.485017776 9.164831161 1.448335528
-7.698316574 9.655714035 1.808028102
-7.605311394 9.509829521 2.130588055
-7.466804504 9.203048706 1.125811458
-7.458778858 9.184146881 1.446894884
-7.63781929 9.607373238 1.801184297
-7.636286259 9.649402618 2.143953323
-7.611960411 9.536067009 0.791728735
-7.478070259 9.301785469 1.124383688
-7.425611019 9.188929558 1.444848418
-7.564114094 9.529840469 1.792047977
-7.543356895 9.530718803 2.126343727
-7.468303204 9.357246399 1.122802138
-7.40859127 9.227956772 1.444224358
-7.520525932 9.515164375 1.787998915
-7.511592388 9.541350365 2.124176979
-10.7200098 16.34687805 0.544090867
-7.376404285 9.23682785 1.120763421
-7.398933887 9.283276558 1.444257617
-7.4519701 9.445971489 1.779639363
-7.588781834 9.792866707 2.150302887
-7.558105946 9.825919151 2.849674463
-10.6560421 16.35007286 0.5417646766
-7.508172035 9.603384972 1.119801521
-7.388302803 9.341124535 1.444260955
-7.556907654 9.757956505 1.801383495
-7.420100689 9.505049706 2.112936735
-7.489563465 9.708977699 2.478095055
-7.518165112 9.82490921 2.844628811
-7.863174915 10.40688896 0.7551383376
-7.330026627 9.293431282 1.117377996
-7.340609074 9.314691544 1.440940142
-7.442763805 9.588703156 1.78513217
-7.353285789 9.437290192 2.101634264
-7.537483692 9.898329735 2.503656626
-7.475831032 9.814022064 2.83792448
-7.801049709 10.35828495 0.7555431128
-7.175515175 9.029726982 1.115171194
-7.359850883 9.435537338 1.443570733
-7.198153496 9.125823975 1.745949268
-7.326770782 9.458124161 2.100765228
-7.435341358 9.753391266 2.477079153
-7.42407465 9.78133297 2.827024698
-7.740136623 10.31118584 0.7559044957
-7.18967247 9.137403488 1.113692641
-7.357867718 9.511019707 1.44433248
-7.404866219 9.715260506 2.127442122
-7.40288496 9.763696671 2.474735975
-7.381279469 9.768232346 2.819990396
-7.682865143 10.27108097 0.756020546
-7.280998707 9.420773506 1.112429738
-7.179459572 9.190170288 1.429319501
-7.147992134 9.168078423 1.743915677
-7.226296902 9.39209938 2.086529255
-7.397322655 9.835594177 2.481936216
-7.363687038 9.812754631 2.824148655
-7.646131992 10.27639389 0.7544718981
-7.246450424 9.422916412 1.110702038
-7.148940563 9.199347496 1.42750752
-7.106380463 9.151619911 1.739984393
-7.197484016 9.407051086 2.08503294
