# .PCD v0.7 - Point Cloud Data file format
VERSION 0.7
FIELDS x y z
SIZE 4 4 4
TYPE F F F
COUNT 1 1 1
WIDTH 1266
HEIGHT 1
VIEWPOINT 0 0 0 1 0 0 0
POINTS 1266
DATA ascii
-6.20400095 -34.20693588 1.318337083
-6.647206306 -35.25244522 1.33699131
-6.777895927 -35.28395844 1.338483691
-7.569384575 -38.60491943 1.392770886
-7.691326618 -38.53123856 1.392656684
-8.247438431 -40.54616928 1.426174045
-8.684427261 -40.52641678 1.429222822
-21.00263023 -95.15625 2.316414833
-11.07149506 -49.78356934 1.58180058
-11.14208698 -49.34900284 1.575989962
-11.30975533 -49.30396271 1.576563239
-11.39828205 -48.92562866 1.571683884
-11.52600574 -48.72029877 1.56960535
-11.76462841 -48.97306824 1.575011253
-5.016818047 -21.10054588 0.3924131691
-11.96272278 -49.05397034 1.577602267
-12.07987595 -48.81024933 1.57485497
-5.133721828 -20.98654938 0.3944239914
-23.56066895 -92.98555756 2.303157091
-5.112360954 -20.61624908 0.4015429616
-13.61136436 -53.33726501 1.651956916
-5.185642242 -20.61571503 0.4014103115
-13.86406898 -53.55435562 1.656883359
-5.273414612 -20.66900635 0.4002093673
-13.98069382 -53.25446701 1.653263092
-12.47995663 -48.01598358 3.269340992
-5.356399536 -20.70261955 0.3993801177
-14.10010147 -52.9717865 1.649903774
-14.08459187 -53.33280563 3.552505493
-5.455548763 -20.79374886 0.3974086642
-14.17111588 -52.51921082 1.643703461
-14.14278889 -52.8245697 3.528790474
-5.543615341 -20.8420372 0.3962626457
-14.39570141 -52.62931824 1.646817803
-13.23954964 -48.84708786 3.321670055
-5.631542206 -20.88803482 0.3951472342
-14.55955505 -52.55434799 1.646786451
-5.721852303 -20.95388222 0.3936387002
-26.49927139 -93.67111206 2.333003044
-14.66312599 -52.62598038 3.527477741
-5.830606461 -21.06828117 0.3911493719
-26.84404564 -93.65102386 2.334931135
-5.985757828 -21.33760452 0.3855957687
-27.17156601 -93.57019043 2.335827589
-6.084272861 -21.40863228 0.3839246333
-6.225937843 -21.62093163 0.3794542551
-16.81247139 -56.79256058 1.724054694
-6.310945511 -21.64118958 0.3787492514
-16.9451046 -56.52884293 1.720954895
-6.350829601 -21.51395798 0.3809390962
-17.12266541 -56.41584396 1.720365405
-6.372636318 -21.3313427 0.3842120767
-17.34196472 -56.43782043 1.722032189
-6.4372015 -21.28802681 0.3847238421
-29.00618935 -92.66427612 2.333698034
-6.55503273 -21.3995533 0.3821415603
-29.26182938 -92.30594635 2.329869509
-6.598134041 -21.2890625 0.3839540482
-29.49440575 -91.93689728 2.325721502
-6.688467979 -21.32484627 0.3828572333
-29.71392632 -91.58774567 2.321775436
-6.810767174 -21.46773148 0.3796405494
-29.93212509 -91.18736267 2.317033768
-6.864640713 -21.39077187 0.3807489276
-30.15297318 -90.80173492 2.312508821
-6.937031746 -21.35792923 0.3809469044
-30.52441978 -90.86636353 2.315598488
-7.05632019 -21.47358894 0.3781972826
-30.99032593 -91.15106964 2.322517395
-30.79170227 -91.14111328 5.653605938
-7.092608452 -21.34684563 0.3802572489
-31.43374062 -91.41259003 2.328938723
-31.23719215 -91.41056061 5.674130917
-7.147297859 -21.27482224 0.3812166154
-29.01937675 -83.52886963 2.196471453
-31.68099976 -91.66669464 5.69400692
-7.210928917 -21.22904778 0.3816402256
-24.62835121 -70.25110626 1.971560478
-7.346565723 -21.38447952 0.3780278265
-7.474512577 -21.5147686 0.3748956919
-29.33711815 -81.71669006 2.170733213
-7.635112286 -21.73077965 0.370023042
-29.61903191 -81.61380005 2.170662642
-29.00097656 -80.39919281 5.106425762
-33.54609299 -92.75609589 9.20822525
-7.811405182 -21.97268105 0.3645745516
-29.20259666 -80.09120941 5.095127106
-7.963400841 -22.15503883 0.360321939
-29.49995995 -80.00225067 5.096020222
-8.00826931 -22.06122017 0.361633867
-8.0834198 -22.03690529 0.3615038693
-29.85069084 -79.30659485 5.068775654
-8.24355793 -22.23241615 0.356920898
-8.163679123 -21.80865669 0.3648323119
-23.40301895 -60.76786804 1.820754886
-8.18001461 -21.63683701 0.3676516712
-8.256697655 -21.61933517 0.3673353791
-8.571602821 -22.20405579 0.3548035026
-8.675182343 -22.24628448 0.3532220125
-31.78874588 -79.06410217 2.142444134
-31.28260422 -78.19509888 5.040868282
-8.760252953 -22.25258064 0.3523909152
-32.2133522 -79.32262421 2.148418903
-8.837587357 -22.21851921 0.3522917926
-36.2523613 -88.24306488 2.3049438
-8.912471771 -22.17864227 0.3522956371
-32.0912323 -77.86296082 5.039495945
-8.988156319 -22.15111923 0.352070421
-8.80770874 -21.52383995 0.3641459048
-32.80083847 -77.61065674 2.124560118
-9.175694466 -22.17973328 0.3498538435
-32.94949722 -77.22031403 2.119141579
-33.48306274 -78.76038361 8.080116272
-38.66516876 -90.64321899 16.12067413
-9.25620842 -22.16227913 0.3493728042
-19.98503494 -46.751297 1.588366151
-33.31239319 -77.71269989 5.05446291
-7.708487511 -18.65519333 2.452800274
-7.241261005 -17.56755447 2.992106676
-38.8914299 -90.30425262 16.08520317
-9.34717083 -22.16831779 0.3483905792
-20.05957413 -46.48724365 1.584565401
-7.740159512 -18.55877495 2.446130991
-7.338683128 -17.63119507 3.003762722
-7.41763401 -17.79122543 3.681792974
-9.435044289 -22.16666985 0.3475494683
-20.19340706 -46.36030197 1.583146811
-7.697868824 -18.29653931 2.42385745
-7.437442303 -17.69617271 3.015650749
-7.497652531 -17.81209373 3.689696074
-9.515663147 -22.14824104 0.3470388651
-20.295784 -46.18542862 1.580836654
-7.607780933 -17.93972015 2.39250493
-7.492992878 -17.66278648 3.014524937
-7.53835535 -17.74423981 3.682402134
-9.587625504 -22.1202507 0.3467567563
-20.35152435 -45.88839722 1.576410174
-7.673081875 -17.92572784 2.393532515
-7.515731335 -17.55682755 3.003759146
-9.664862633 -22.09396553 0.346378684
-20.68534851 -46.20455933 1.582727909
-7.311769485 -16.97377205 2.305962801
-7.576879978 -17.54439354 3.005276918
-9.747393608 -22.06933403 0.345903188
-20.58641243 -45.5745163 1.572425008
-22.2598381 -49.43779373 3.506052494
-7.371287823 -16.95535088 2.306471109
-7.633072853 -17.50561142 3.003639221
-9.827872276 -22.04972649 0.345353812
-20.75000763 -45.49877548 1.571877241
-22.45038605 -49.38299942 3.506994724
-7.437764645 -16.94444847 2.307819128
-7.728798389 -17.55983925 3.014281273
-9.894750595 -22.00084496 0.3454015255
-21.12312698 -45.88947678 1.579492092
-22.61291885 -49.28979874 3.505604029
-7.465140343 -16.85697556 2.301803112
-7.936134815 -17.85095024 3.056689739
-9.973381042 -21.97706032 0.3449087441
-39.09745407 -83.420784 2.241486788
-22.75802994 -49.15992355 3.502159357
-7.516670704 -16.8217659 2.300748348
-8.000555038 -17.83384323 3.057922125
-10.05908298 -21.9584465 0.344240129
-39.30677032 -83.11964417 2.237510681
-22.84758949 -48.91419601 3.49219203
-7.641753674 -16.94109726 2.314413548
-8.073044777 -17.82583237 3.060579777
-10.12982655 -21.91783905 0.3440693319
-22.60155106 -47.95145035 3.441951513
-7.700420856 -16.9196701 2.314712524
-8.126260757 -17.78495026 3.05866766
-10.22385597 -21.93452263 0.3427249491
-34.52059555 -71.83169556 2.040703058
-22.33962059 -47.01334 3.392589331
-7.760773182 -16.90161133 2.315346479
-8.12377739 -17.62960243 3.041347742
-10.30416489 -21.91310692 0.3421164155
-34.30084229 -70.75941467 2.022850752
-22.57080841 -47.07858276 3.400053263
-7.999776363 -17.24844933 2.350891352
-8.308657646 -17.86640167 3.076728821
-10.39597321 -21.91468811 0.3410028219
-22.55537415 -46.6411705 3.379072428
-8.123090744 -17.35438728 2.363484859
-8.116492271 -17.32813072 3.007670879
-10.49059868 -21.92124557 0.339764297
-35.03799057 -71.01916504 2.029596329
-23.19017601 -47.51708603 3.432562113
-8.223258018 -17.41150284 2.371446848
-8.15716362 -17.26586723 3.002848625
-10.56381512 -21.88453674 0.3394303918
-30.35520172 -61.12148666 1.855185151
-23.55363655 -47.83568192 3.454553127
-8.361498833 -17.54289818 2.386584282
-8.190361023 -17.18932915 2.996095419
-10.63328266 -21.84044456 0.3392397165
-26.60079193 -53.21826553 1.71585381
-23.71030998 -47.73886108 3.452981949
-8.428687096 -17.53133774 2.388024569
-8.255460739 -17.17650414 2.997994423
-10.70621586 -21.80323792 0.3388869166
-31.19829941 -61.73376465 1.867839575
-22.90462494 -45.75764084 3.344023228
-7.877254486 -16.30947876 2.272814512
-8.273540497 -17.07151222 2.98738122
-8.234447479 -16.97509575 3.617420197
-10.80288219 -21.81196976 0.3375304043
-30.77097702 -60.38828278 1.844810247
-23.14813805 -45.84605026 3.352882147
-7.908290386 -16.2375679 2.268274069
-8.167147636 -16.72664261 2.94406414
-8.330695152 -17.02339363 3.630762815
-10.89789104 -21.8167305 0.3362392485
-31.26703262 -60.83369827 1.853585005
-24.03802109 -47.17586136 3.432742357
-7.960987568 -16.20805931 2.267831326
-8.921445847 -18.01915359 3.811559916
-10.99678612 -21.82816505 0.3347839117
-23.91409111 -46.54666138 3.400705576
-8.024682045 -16.19954491 2.26943326
-8.771821976 -17.58903694 3.740677118
-11.06592941 -21.7826252 0.3345437944
-24.07347488 -46.46284866 3.399855375
-7.960752487 -15.94946384 2.24761343
-5.020815372 -10.38448048 2.086390972
-8.607260704 -17.13749123 3.665777922
-11.18012905 -21.82150841 0.3324527442
-8.801849365 -17.35078239 1.080857396
-8.77794075 -17.37528419 1.733541131
-7.995537281 -15.88813782 2.244078159
-5.065232754 -10.3878727 2.089092255
-8.685595512 -17.14732742 3.672581911
-8.835820198 -17.29039001 0.4299938381
-8.843069077 -17.29004478 1.079996943
-8.815605164 -17.30757332 1.731093049
-8.016776085 -15.80218601 2.238145828
-5.077496052 -10.32724762 2.083129168
-8.882257462 -17.37595558 3.718362331
-8.891945839 -17.25772095 0.4296995401
-8.927939415 -17.31002235 1.080572844
-8.884320259 -17.29093552 1.731656909
-8.076470375 -15.78808212 2.239211559
-5.116177082 -10.31989384 2.084379673
-11.49632072 -21.88227463 0.3272577822
-42.36520767 -78.11878204 2.167360067
-8.953053474 -17.28765869 1.732852697
-8.184944153 -15.86290169 2.248978615
-5.136744022 -10.27929878 2.081061602
-11.57809639 -21.85781097 0.3264648318
-42.5318718 -77.78496552 2.162394524
-8.254573822 -15.86560345 2.251734734
-5.186163425 -10.29520035 2.08543539
-11.61507893 -21.7526741 0.3274348378
-26.07305717 -47.83766556 3.503646135
-9.163146019 -17.37609673 2.402297258
-5.242223263 -10.31863499 2.090994358
-11.73371887 -21.79398918 0.3251565695
-37.91950607 -68.33174896 1.995069027
-25.71961784 -46.82266998 3.449075937
-9.008255959 -16.96507072 2.364730597
-5.238256931 -10.23444176 2.081661463
-11.82884407 -21.78394318 0.3239224553
-25.15315819 -45.44547653 3.373323202
-9.028126717 -16.86930275 2.358053684
-5.309729576 -10.28079605 2.090560198
-11.93727112 -21.8050766 0.3220433891
-20.32842827 -36.46728134 1.425345778
-20.28677559 -36.52175903 2.858744383
-9.048422813 -16.77532578 2.351542711
-5.343544483 -10.26388836 2.090581894
-12.02638245 -21.80007935 0.3207961023
-20.42250252 -36.3441391 1.423563719
-20.39200974 -36.43172836 2.85663271
-9.11285305 -16.75914764 2.352701187
-5.380277634 -10.25202084 2.091318846
-12.20853615 -21.94654465 0.3160636723
-20.50189781 -36.19656754 1.421333075
-20.47805405 -36.29459 2.851943016
-9.168290138 -16.72719765 2.352316856
-5.854601383 -10.99845219 2.197869062
-12.2979784 -21.93146133 0.3149205744
-20.57950211 -36.04714966 1.4190588
-20.56539536 -36.16073608 2.847441673
-9.236679077 -16.71742249 2.354140997
-5.406966209 -10.15167809 2.081996202
-12.39558792 -21.9297924 0.3134554923
-20.66648102 -35.9148407 1.417081714
-20.64801025 -36.01982117 2.842523813
-9.69636631 -17.37193298 2.421901464
-12.49129105 -21.92425919 0.312056303
-20.74971771 -35.77719498 1.414998531
-20.7247963 -35.87016678 2.837089777
-20.75980568 -35.88342285 4.265061378
-5.475712299 -10.12045193 2.082482815
-5.007760525 -9.310400963 2.669698238
-12.60560036 -21.94918823 0.3099445403
-20.83533478 -35.64454651 1.412995219
-20.80693817 -35.73069 2.832247257
-20.84936714 -35.75592804 4.258691788
-5.425363064 -9.963253021 2.062820196
-5.032217503 -9.284384727 2.667586803
-5.064104557 -9.329583168 3.036619186
-12.69026661 -21.92393303 0.3089497685
-20.92233849 -35.51514053 1.411040425
-20.89866257 -35.60818863 2.828398228
-20.92594147 -35.60775375 4.250265121
-5.452977657 -9.937419891 2.061617851
-5.05350399 -9.253261566 2.664339304
-5.107863426 -9.335123062 3.042633533
-12.76347446 -21.87955475 0.3083733618
-20.98997498 -35.35482025 1.408518553
-20.981493 -35.47180557 2.823731184
-21.00173569 -35.45947266 4.241827011
-5.601212978 -10.10998344 2.088451385
-12.87102318 -21.89116859 0.3064976037
-21.08290291 -35.2370491 1.406753659
-21.06258392 -35.33356857 2.818950653
-9.522996902 -16.44887733 2.344486952
-5.658353806 -10.13096142 2.093944788
-5.048663139 -9.095505714 3.344789267
-12.7801218 -21.58080292 0.3120028675
-21.17211151 -35.11394882 1.404883265
-21.14087105 -35.19178772 2.813956976
-9.579442978 -16.41889 2.344385624
-5.566451073 -9.910106659 2.065174341
-12.88384819 -21.58703041 0.3102280498
-21.25542259 -34.98216248 1.402846217
-21.21947479 -35.05157471 2.809051037
-21.25496864 -35.06309128 4.221371174
-5.553897381 -9.819792747 2.054853916
-12.96863842 -21.56229782 0.3091463447
-19.01388168 -31.15249634 1.334005952
-21.30796242 -34.92816162 2.805136919
-21.33522224 -34.92612839 4.214074135
-5.588282108 -9.805357933 2.055308819
-13.02882385 -21.49835968 0.3089570105
-19.08511734 -31.03190041 1.332116485
-19.07502937 -31.12713051 2.582792759
-19.07167625 -31.0812645 3.832655191
-5.65235424 -9.837778091 2.062462807
-5.262794971 -9.191249847 3.031816959
-13.13064384 -21.50001335 0.3072256148
-19.15789413 -30.91454124 1.330276966
-19.14732742 -31.00808144 2.578763962
-19.15363121 -30.9774437 3.827995062
-13.22973442 -21.48880386 0.3056852818
-19.23225212 -30.80041122 1.328487396
-19.20824814 -30.87207603 2.573721886
-19.23939705 -30.88012886 3.824002504
-5.715330601 -9.795351028 2.061658382
-13.29381275 -21.43079376 0.3053082824
-19.30278206 -30.68109131 1.326595426
-19.291008 -30.75949287 2.570225
-19.31173515 -30.7625103 3.817960024
-5.117191315 -8.785028458 2.592348814
-13.37592983 -21.40841293 0.3041661084
-19.38146019 -30.57504082 1.324935317
-19.36062622 -30.6501236 2.566611528
-19.37369156 -30.6297245 3.81037879
-5.045941353 -8.615838051 2.557398558
-13.45722008 -21.37668228 0.303137958
-19.45193863 -30.45710754 1.323051572
-19.4338131 -30.53556061 2.56283927
-19.44698906 -30.51519394 3.80465436
-6.132649899 -10.19625568 3.331125021
-13.52078724 -21.31795692 0.3027327359
-19.52072716 -30.33738327 1.321127176
-12.19524002 -19.35690498 1.895097494
-19.51972008 -30.4005127 3.798918486
-13.62295246 -21.31725311 0.3009306192
-19.58891487 -30.21753502 1.319192171
-12.298419 -19.37239456 1.897973418
-11.79581738 -18.59323311 2.59718442
-13.69738483 -21.27460098 0.3001084328
-19.66767502 -30.11415863 1.31754756
-19.64109421 -30.17772293 2.550657511
-11.918787 -18.64287949 2.605900764
-5.532378674 -9.117136002 2.331912756
-5.702404022 -9.349089622 3.114694357
-19.73301125 -30.00245285 1.315732837
-12.45632362 -19.32907295 1.899294138
-11.97324085 -18.59661102 2.604634285
-5.078924656 -8.379343987 2.52181077
-5.706873417 -9.291973114 3.104157925
-19.79273033 -29.87231636 1.313586712
-12.46685696 -19.21334648 1.89418447
-12.12827492 -18.69132423 2.618068933
-5.376616001 -8.769200325 2.272824526
-5.104061604 -8.359889984 2.521166563
-5.708441734 -9.234319687 3.093189716
-19.85972404 -29.75365448 1.31164062
-12.2403965 -18.74636269 1.867897749
-12.22544098 -18.6997509 2.622678041
-5.136929989 -8.351671219 2.523155928
-5.734407425 -9.209448814 3.091551304
-19.84407043 -29.51655769 1.307534337
-12.34698677 -18.76759529 1.871133327
-12.38405323 -18.79620743 2.636417389
-6.342995644 -10.04493141 2.521334648
-5.192218304 -8.375577927 2.532674313
-5.162420273 -8.324872971 2.850956678
-19.90260506 -29.38811874 1.305393577
-12.33059978 -18.61125946 1.863598704
-12.42951488 -18.728302 2.633213758
-5.283668518 -8.461263657 2.224244595
-5.237599373 -8.38470459 2.538796425
-5.190750599 -8.309930801 2.851567984
-19.98810577 -29.29887009 1.303957105
-20.05524254 -29.49186134 2.527860403
-12.50672436 -18.70595551 2.634740353
-5.156561375 -8.224599838 2.182409048
-5.245752811 -8.340634346 2.532487154
-5.003120899 -7.97612381 3.085176945
-20.14064789 -29.29394341 1.304055572
-20.13466835 -29.38224792 2.52452445
-12.59049606 -18.68597031 2.636729717
-5.165065289 -8.169195175 2.496420145
-20.20707893 -29.17792702 1.30211699
-12.16757298 -17.98592949 1.831417561
-12.33443832 -18.19569016 2.589547396
-6.473639011 -9.942968369 2.918469667
-20.28696251 -29.08127213 1.300522923
-12.17714214 -17.8735466 1.82647264
-12.36117268 -18.10554886 2.583963633
-20.34763336 -28.95849991 1.298445582
-12.27500725 -17.8843441 1.829070449
-12.45519924 -18.1090641 2.588172674
-5.293367863 -8.186041832 2.512487173
-5.020861149 -7.783162594 3.366469622
-20.42523003 -28.86989403 1.296975136
-20.40625763 -28.92705917 2.509503126
-12.55108547 -18.12076759 2.593080282
-5.296779156 -8.139860153 2.505431414
-5.149321079 -7.909844398 3.420089245
-20.48362732 -28.74529266 1.294849277
-20.47204018 -28.82215691 2.506127357
-12.59476757 -18.05431557 2.590007067
-5.394454956 -8.219297409 2.528452396
-20.55203629 -28.64509201 1.293153405
-12.50761986 -17.83572578 1.831869841
-12.81287098 -18.23033714 2.612273455
-5.561706543 -8.393732071 2.574042797
-20.61526871 -28.52832985 1.291155219
-12.63054085 -17.88389778 1.836734653
-12.96035004 -18.30213165 2.623851299
-5.025884628 -7.639791012 1.795485735
-5.211054802 -7.880396366 2.141662836
-5.520949841 -8.284546852 2.552289486
-20.66785622 -28.47829056 2.494676828
-13.06967258 -18.31503105 2.629472017
-5.080485821 -7.663452625 1.801384091
-5.337743282 -7.99543047 2.167456627
-5.562346458 -8.283025742 2.556464911
-5.199304581 -7.783247471 3.07184267
-5.350574493 -7.972743034 3.470443249
-5.951330662 -8.77084446 0.5866492987
-5.965900898 -8.778632164 0.931239903
-5.98418808 -8.828596115 1.279231191
-5.976952553 -8.807479858 1.625664234
-5.113742352 -7.658314228 1.802992225
-5.591821194 -8.268198013 2.557267904
-5.014639378 -7.500435352 2.675468922
-5.248120785 -7.797283649 3.082289934
-5.965396404 -8.732544899 0.5867497325
-5.970312119 -8.727558136 0.9303393364
-5.990095139 -8.779031754 1.277102947
-5.985269547 -8.76117897 1.62261939
-5.137392998 -7.64039278 1.802692771
-5.424589634 -8.006599426 2.17634964
-5.61529398 -8.245454788 2.556188107
-5.003460884 -7.437921047 2.662294149
-5.26416254 -7.768101215 3.078397751
-5.990220547 -8.708519936 0.5864802003
-5.993936539 -8.701918602 0.9299004674
-6.003017426 -8.739037514 1.275565863
-5.996974468 -8.719660759 1.620077968
-5.164610386 -7.627113342 1.803103328
-5.136236191 -7.580268383 2.096216917
-5.62189436 -8.200849533 2.549844265
-5.024057388 -7.417263508 2.661110163
-5.276518822 -7.734302044 3.072967529
-5.290476322 -7.741897106 3.402908564
-6.028401852 -8.701824188 0.5857567787
-6.017455101 -8.676210403 0.9294582605
-6.010850906 -8.692723274 1.27363205
-6.012116909 -8.682888985 1.618039608
-5.228248596 -7.660848618 1.810642958
-5.181433678 -7.590380192 2.101436138
-5.649926186 -8.184226036 2.550261497
-5.003897667 -7.344178677 2.644827366
-5.337376118 -7.76306963 3.088518143
-5.306358337 -7.712723255 3.398540735
-6.055553913 -8.680752754 0.5853973031
-6.077754498 -8.697747231 0.9298761487
-6.042950153 -8.677994728 1.273668528
-5.989132881 -8.597352982 1.610783458
-5.343449116 -7.76001215 1.828156829
-5.219470024 -7.590908051 2.104808569
-5.658557415 -8.14273262 2.544665098
-5.365110397 -7.748880863 3.089733124
-5.306735516 -7.663946629 3.386645079
-13.98758793 -18.74130249 0.3217802942
-18.41112518 -24.34815216 1.215572596
-6.099645615 -8.694598198 1.275671005
-6.098411083 -8.681464195 1.621691108
-5.398106098 -7.780344009 1.833776236
-5.231927872 -7.55862236 2.101734161
-5.681546688 -8.119791031 2.54357338
-5.330580235 -7.645288944 3.386324406
-13.99887753 -18.62807465 0.3226238489
-18.46184349 -24.2445488 1.213744164
-14.05192757 -18.7253685 1.906147718
-13.16758347 -17.57880783 2.579768658
-5.353222847 -7.674185753 1.820148349
-5.262623787 -7.549574375 2.103257895
-5.695901871 -8.08600235 2.539850235
-5.01588726 -7.220972061 2.623505116
-5.330237865 -7.606668472 3.053785324
-5.359129906 -7.632539272 3.388315439
-14.02572727 -18.53532982 0.3229285777
-18.51330757 -24.1424408 1.211936474
-18.53273582 -24.24059868 2.25520277
-15.63363361 -20.56028748 2.905085325
-5.160467148 -7.383551121 1.778268337
-5.315499306 -7.568208218 2.110296011
-5.730930328 -8.078297615 2.542506456
-5.047846794 -7.215547562 2.6267488
-5.961742878 -8.347090721 3.310734749
-5.398435116 -7.633114815 3.395510435
-14.06460571 -18.45822334 0.3228158653
-18.57429695 -24.0527401 1.210348964
-18.56679344 -24.11646652 2.250337601
-12.92768288 -17.04152107 2.53013134
-5.277576923 -7.483211517 1.795993805
-5.300505161 -7.501801968 2.100468397
-5.754893303 -8.056660652 2.541779995
-5.046804428 -7.168967724 2.618010521
-6.131193161 -8.503736496 3.370714664
-5.414954185 -7.605201244 3.391706944
-14.10060406 -18.37794113 0.3227798343
-18.6283493 -23.96303368 1.208752751
-18.61023521 -24.00482178 2.24625206
-13.02257252 -17.04971313 2.534916878
-5.365500927 -7.545054913 1.808009267
-5.322398186 -7.481681347 2.099835634
-5.815847874 -8.083281517 2.552700281
-5.078666687 -7.163365841 2.621247768
-5.903094292 -8.171080589 3.263997316
-5.437413216 -7.587120056 3.391389132
-14.13318348 -18.30009079 0.3227820396
-18.68705177 -23.87943268 1.207262278
-18.66420555 -23.91503525 2.24339509
-13.16413593 -17.11470032 2.545898914
-5.366294861 -7.501004696 1.803661346
-5.356794357 -7.479280472 2.102586746
-5.849732876 -8.076081276 2.555359364
-5.141523838 -7.197788239 2.636026859
-5.785439014 -7.977745533 3.204342842
-14.18185616 -18.24233627 0.3222393692
-18.74560356 -23.78778267 1.205620646
-18.72789192 -23.83752441 2.241315365
-13.17413044 -17.0115242 2.538876295
-5.436048031 -7.541534424 1.812356591
-6.282252312 -8.563341141 2.323117495
-5.142737389 -7.156541824 2.628628016
-5.906230927 -8.07384491 3.243854284
-6.077828407 -8.27052784 3.672958851
-14.23204422 -18.18042564 0.3216871321
-14.61438847 -18.61764336 1.111205578
-14.50659752 -18.54165459 1.907951951
-13.2722578 -17.01616287 2.543586016
-5.441603184 -7.501039028 1.808697939
-6.257511139 -8.478837013 2.310169458
-5.306526184 -7.317416668 2.376874447
-7.207234383 -9.604846954 3.356253147
-5.985801697 -8.118582726 3.265972614
-6.080570698 -8.221183777 3.661589861
-14.27347946 -18.10203743 0.3214580715
-14.67613983 -18.56653786 1.110287428
-14.58856201 -18.51550865 1.90860939
-5.50276947 -7.527807236 1.815466166
-5.698892117 -7.753378391 2.168028593
-5.33156538 -7.301820755 2.377290249
-6.297271729 -8.449196815 3.021567822
-5.113685131 -7.023195267 2.895607471
-6.056009769 -8.139610291 3.637500048
-14.34402943 -18.05886078 0.32026124
-18.91888237 -23.50416756 1.200499654
-14.61727715 -18.41895866 1.904904604
-14.71417332 -18.50802803 2.71570611
-5.529670715 -7.510608673 1.815575004
-5.778698921 -7.797536373 2.180810928
-5.367786884 -7.29722929 2.380684376
-6.341448784 -8.445392609 3.026909828
-5.121375561 -6.986583233 2.889135599
-6.105024815 -8.14360714 3.647501945
-14.3870039 -17.98884773 0.3198953271
-18.97188568 -23.40743256 1.198739409
-18.96469498 -23.46003532 2.229614019
-14.30856133 -17.90149879 2.653842211
-5.548840523 -7.484191895 1.814258933
-6.000439167 -8.00883007 2.227546453
-5.406728268 -7.297904491 2.385214567
-6.361671448 -8.415691376 3.024290323
-5.126363754 -6.947047234 2.881640196
-14.46160698 -17.9624424 0.3184364736
-19.02832603 -23.31517601 1.197054744
-19.02143669 -23.37565804 2.227098942
-14.34736633 -17.82707977 2.650252819
-5.943341732 -7.90226984 1.882324934
-5.949866295 -7.901506424 2.209439516
-5.436826229 -7.28791523 2.387116671
-6.3336339 -8.332144737 3.005296707
-5.893654823 -7.804946423 3.185248375
-14.54305649 -17.9377594 0.3167949021
-19.07915688 -23.21672058 1.195250511
-19.07266998 -23.27717781 2.223831892
-14.54628754 -17.94055176 2.667393446
-13.23780346 -16.38921356 3.21559906
-6.015537739 -7.928696632 2.218843699
-6.326730251 -8.271439552 2.993372917
-6.240717888 -8.159589767 3.315609932
-6.121446609 -8.009336472 3.618583918
-14.64666843 -17.93848801 0.3144261837
-19.1360569 -23.12575912 1.193577051
-19.12605095 -23.18165016 2.220751762
-16.10138321 -19.62904167 2.858838081
-13.35809708 -16.41960144 3.226811171
-6.015650749 -7.879168987 2.212646246
-6.183977127 -8.063049316 2.591275454
-6.431734562 -8.340707779 3.020420313
-5.91055584 -7.726922035 3.171719551
-6.125187397 -7.963237286 3.60836482
-14.74653721 -17.93416977 0.3121697903
-19.20303726 -23.04676056 1.192115903
-19.17769051 -23.0845089 2.21756649
-16.20598602 -19.61787224 2.862807274
-13.39811325 -16.35630226 3.223344088
-5.574890137 -7.322311401 2.102525949
-6.891144276 -8.825562477 2.788949251
-6.350302696 -8.194582939 2.98281002
-6.066782951 -7.857726097 3.224431753
-6.223161221 -8.02534771 3.641472578
-14.85706425 -17.94141769 0.3095612824
-19.2565403 -22.95250702 1.190369844
-19.24068642 -23.00083923 2.2152493
-14.89209938 -17.97942352 2.68592906
-13.53058338 -16.39912796 3.236656427
-5.581786156 -7.284916878 2.09849596
-6.06979084 -7.831889153 2.542925835
-6.438961506 -8.244150162 3.004086494
-6.036403656 -7.773949146 3.20208478
-15.0271883 -18.01571083 0.305030942
-19.30169868 -22.84913635 1.188451052
-19.29280281 -22.90498734 2.212144852
-19.31410599 -22.89455986 3.238524199
-13.64909554 -16.42481422 3.247351408
-6.778556824 -8.598837852 2.372760773
-6.082426548 -7.797341824 2.539159536
-6.540959358 -8.307804108 3.029776812
-6.063171387 -7.755650043 3.20270896
-19.35432625 -22.75469971 1.186689377
-19.3484478 -22.81352997 2.209323883
-19.4609623 -22.90607262 3.246095657
-6.049894333 -7.734018803 1.873152733
-6.831772804 -8.604655266 2.378422499
-6.076626301 -7.742228508 2.530152321
-6.515150547 -8.226557732 3.01164484
-6.075731754 -7.721364975 3.197715759
-5.844427109 -7.450889111 3.434664249
-19.4118557 -22.66613579 1.185028911
-19.40501785 -22.72344971 2.206591845
-15.1700592 -17.934021 2.695485115
-13.68887615 -16.25193214 3.233268023
-6.842977047 -8.56302166 2.374306917
-6.128154755 -7.751667976 2.537606001
-6.537005424 -8.199337006 3.009886026
-6.064880848 -7.661170483 3.183537006
-7.859213352 -9.646350861 4.332667828
-19.47167206 -22.58041191 1.183414102
-19.45719528 -22.62877655 2.203560352
-15.18568134 -17.83195877 2.688980341
-13.71740055 -16.17591095 3.227873802
-6.930644512 -8.606637001 2.387892485
-6.509100437 -8.117022514 2.991314888
-6.049791336 -7.596831322 3.167829275
-5.902126789 -7.42251873 3.439080477
-19.52467728 -22.49497795 1.181801438
-19.52099037 -22.54735374 2.201392889
-15.20717716 -17.74300575 2.683689117
-7.71872139 -9.436261177 2.154886961
-6.547602654 -8.129700661 2.293142557
-6.70430851 -8.293242455 2.68675065
-6.562018871 -8.124499321 3.000166655
-6.096922398 -7.603833675 3.177135468
-5.938169956 -7.418390751 3.445053816
-19.57194328 -22.40351486 1.180073261
-19.57128334 -22.45882034 2.198604107
-15.20411873 -17.62755203 2.675398111
-7.736410141 -9.398833275 2.152508497
-16.07850838 -18.50961685 5.3244977
-6.558506489 -8.072403908 2.990462542
-6.166371822 -7.634841919 3.195104122
-15.29243851 -17.60584641 0.301775068
-19.61715317 -22.30265617 1.178164601
-19.62120247 -22.37019157 2.195807934
-15.21952152 -17.52729034 2.669052362
-7.739174366 -9.345277786 2.147533655
-6.813578606 -8.323360443 2.342014551
-6.474221706 -7.942163467 2.607008457
-6.693408966 -8.168467522 3.026711941
-6.149441242 -7.569124699 3.178881645
-6.701561451 -8.155444145 3.763371468
-19.67782211 -22.21153831 1.176423907
-19.67552185 -22.27165985 2.19267869
-14.24291134 -16.32648468 3.279372454
-6.658366203 -8.10093689 2.30006814
-6.697685242 -8.119501114 3.018722057
-6.172782421 -7.545037746 3.177933693
-6.687984467 -8.087270737 3.745008469
-19.7408123 -22.12318802 1.174726963
-19.72937775 -22.17302513 2.189540863
-15.26537895 -17.33341408 2.657578468
-7.744323254 -9.227163315 2.136534214
-6.55822134 -7.928865433 2.615049124
-6.717742443 -8.090302467 3.016498089
-6.174884319 -7.498281002 3.168827534
-6.681854725 -8.02767849 3.730107784
-19.79836082 -22.03666115 1.173061252
-19.78998566 -22.08940697 2.18723321
-15.30103111 -17.25669861 2.653880835
-7.788403988 -9.215985298 2.138596773
-6.304348946 -7.609508991 2.537293196
-6.737678528 -8.061053276 3.014271736
-6.492637634 -7.789009571 3.281533718
-6.755646229 -8.055722237 3.750989914
-19.85005951 -21.94417191 1.171280861
-19.85024643 -22.0056324 2.184916735
-7.805245399 -9.175707817 2.135944605
-7.00254488 -8.31252861 2.358680964
-6.30764389 -7.565999985 2.531259775
-14.98831654 -16.71600533 5.721478939
-6.245250702 -7.480092049 3.177149296
-6.84159708 -8.095828056 3.777051687
-19.90135002 -21.85157967 1.169492483
-19.90329742 -21.91444397 2.182109833
-15.54962063 -17.2910881 2.668035984
-7.839683056 -9.154133797 2.136348963
-7.046243191 -8.3066082 2.362157106
-6.34324646 -7.556686401 2.534184694
-6.344852924 -7.549455166 2.868050814
-7.105419159 -8.320748329 3.880362749
-19.95136261 -21.76525688 1.16781795
-19.95181465 -21.81880379 2.179006577
-15.74997044 -17.39217377 2.684592009
-7.86033392 -9.118069649 2.134396076
-6.177751541 -7.348546028 2.162590027
-6.345043182 -7.514293671 2.528169632
-6.347957611 -7.506102085 2.860988379
-7.188780308 -8.357703209 3.905260086
-20.0102005 -21.68110847 1.166172028
-19.99626923 -21.72657585 2.175965071
-15.62108898 -17.14312363 2.661129475
-7.98555851 -9.190666199 2.15031147
-6.221185684 -7.350745678 2.167051554
-6.411957741 -7.53726387 2.539667845
-6.418860912 -7.535415173 2.876460552
-7.108961582 -8.235935211 3.476819754
-7.109692574 -8.223910332 3.859223604
-20.07704163 -21.60541153 1.164673924
-20.05228806 -21.63939857 2.17342329
-15.34505558 -16.74485207 2.620295048
-8.040783882 -9.192617416 2.154484272
-6.443482399 -7.523233891 2.541458368
-6.393182755 -7.462603569 2.860124111
-7.040228844 -8.11410141 3.440683603
-7.225244045 -8.2906847 3.89733839
-20.1156559 -21.50089073 1.162645102
-20.10515404 -21.54922485 2.170681477
-15.32806683 -16.6169529 2.610615969
-8.065645218 -9.160199165 2.153217316
-6.538252354 -7.573620319 2.560398102
-6.414893627 -7.438786507 2.859234571
-7.041233063 -8.064565659 3.431026936
-7.3386693 -8.354007721 3.934284687
-20.16702843 -21.41698265 1.160992384
-20.16742325 -21.46891594 2.168601751
-15.22944069 -16.41239929 2.591728449
-8.091772079 -9.129124641 2.152181387
-6.604672909 -7.596609116 2.571891546
-6.339159489 -7.316385269 2.827020407
-7.104569912 -8.078339577 3.444780827
-7.079142094 -8.042544365 3.812231541
-20.22444916 -21.33227348 1.159312725
-20.214571 -21.38058662 2.16581893
-15.19957733 -16.27406693 2.580736637
-8.116381645 -9.096556664 2.150906563
-7.608817101 -8.573678017 2.448886633
-6.597716808 -7.542788982 2.563225508
-6.349589825 -7.284200668 2.823066473
-7.109478474 -8.03547287 3.437179565
-6.947371006 -7.860461712 3.744911432
-20.27870178 -21.24458122 1.157572865
-20.26210213 -21.28580284 2.162766218
-15.27721691 -16.24488831 2.582470894
-15.58888912 -16.53668404 3.396253586
-6.551686764 -7.461668491 2.212574005
-6.621039867 -7.51966095 2.56275773
-6.365137577 -7.255039215 2.820411205
-7.13872385 -8.014618874 3.438200951
-6.92440033 -7.788793564 3.72426033
-20.33542061 -21.15958405 1.155876279
-20.32052422 -21.20222473 2.160470247
-15.33226013 -16.19283295 2.58155179
-15.11007977 -15.9454546 3.305719376
-7.680749893 -8.538389206 2.451753616
-15.09049892 -15.87932301 4.818269253
-6.381672382 -7.224730492 2.817730904
-7.200793743 -8.023674011 3.450891495
-6.954158783 -7.769861221 3.726069212
-20.38393402 -21.05962944 1.153893828
-20.38781548 -21.12056541 2.158474445
-15.29772282 -16.04674339 2.569843054
-15.16274738 -15.89254856 3.304641724
-6.673323631 -7.488124371 2.227707624
-15.13033104 -15.80860806 4.813040733
-6.376102448 -7.174985409 2.80845952
-7.261768818 -8.033642769 3.46359849
-6.961828709 -7.726788521 3.718061686
-20.44133186 -20.97576714 1.152205825
-20.43844986 -21.02963448 2.155683279
-15.44731426 -16.08823395 2.579963684
-20.45091438 -20.97955894 4.169317245
-6.71336031 -7.481349945 2.230871916
-6.548402309 -7.308453083 2.523333549
-6.430266857 -7.183978081 2.81813693
-7.299363136 -8.020313263 3.467653036
-6.987291336 -7.703679085 3.718136549
-20.49633598 -20.8967247 1.150608182
-20.48298836 -20.93301201 2.152504206
-15.8528204 -16.38364601 2.619951248
-16.46503639 -16.95362854 3.499716282
-16.24393845 -16.71044922 4.26667881
-15.12655926 -15.60230637 4.783000946
-6.435563564 -7.145125866 2.81238699
-7.331395626 -8.001426697 3.469668388
-7.059672832 -7.72830677 3.738377094
-20.54733658 -20.80699348 1.148802042
-20.52361298 -20.83991051 2.14939189
-15.9684639 -16.38784027 2.625892162
-16.48127556 -16.8572998 3.491972208
-23.39883614 -23.52232361 5.781297684
-15.15698433 -15.52881908 4.77632618
-6.419907093 -7.088490009 2.800493002
-7.293825626 -7.917986393 3.446800947
-7.086532593 -7.706171989 3.739016533
-20.61034584 -20.73599815 1.147339463
-20.5874424 -20.76258469 2.147528887
-15.90792561 -16.2269001 2.611954451
-16.77916145 -17.03791809 3.530864477
-23.44108009 -23.40476227 5.771718502
-15.25402546 -15.52458954 4.787930965
-6.524837017 -7.145554543 2.82600832
-6.427511692 -7.041306019 3.122575998
-6.997078896 -7.575455666 3.691924572
-20.64186478 -20.6280365 1.145191669
-20.64464188 -20.68589973 2.145541668
-15.83474731 -16.04998589 2.596322298
-20.65241051 -20.62397385 4.151285172
-23.50174522 -23.31311607 5.767068386
-23.53383064 -23.30374527 6.936872005
-6.53156662 -7.110377789 2.821154356
-6.434035778 -7.006568909 3.117050171
-6.902421474 -7.438933372 3.64251852
-20.70241928 -20.54126549 1.143412471
-20.70410538 -20.5976963 2.143110991
-15.8672123 -15.96984386 2.592480421
-20.69695663 -20.52843666 4.145803928
-23.56559753 -23.20900345 5.761328697
-23.58359337 -23.18608856 6.926515579
-6.56301403 -7.094358444 2.823293686
-6.427051544 -6.955010891 3.105889082
-7.117856979 -7.593230247 3.720781088
-20.75629234 -20.45519447 1.141649723
-20.74669838 -20.50059891 2.139894724
-20.77502441 -20.49268723 3.14140749
-20.7497654 -20.44099998 4.141718388
-23.63805771 -23.12104225 5.758390903
-23.65040207 -23.09267616 6.921813011
-6.567716599 -7.055337429 2.817532063
-6.442733765 -6.927175999 3.103385687
-7.155482769 -7.58131361 3.726008177
-20.80641556 -20.37261963 1.139955282
-20.79469681 -20.40891075 2.137050152
-20.82408524 -20.40864754 3.138153315
-20.80801582 -20.35886574 4.138559341
-23.69719124 -23.02070808 5.752717495
-23.73740005 -23.02600098 6.923505306
-6.590795517 -7.033636093 2.817488432
-6.479560852 -6.919050217 3.108496189
-7.217218876 -7.593919277 3.741605043
-20.86546516 -20.29173279 1.138275027
-20.84621811 -20.32757759 2.134747028
-20.8835125 -20.32764244 3.135635853
-20.85430336 -20.26574516 4.133522987
-24.12606812 -23.27117729 5.825220108
-24.18578148 -23.28586388 7.017228603
-6.515352726 -6.911882401 3.113625288
-7.222526073 -7.551716328 3.733598471
-20.90068817 -20.18896866 1.136193514
-20.90374565 -20.24518013 2.132548094
-16.77987289 -16.40137291 2.666893482
-20.91287613 -20.19100952 4.131124496
-24.60157204 -23.55223656 5.906044483
-24.67101288 -23.57477379 7.119797707
-7.344123363 -7.638868809 3.033737898
-6.600730896 -6.947823048 3.135981321
-7.282765865 -7.559967995 3.748004675
-20.95059204 -20.09335136 1.134224176
-20.95990562 -20.15490913 2.129979849
-20.97982979 -20.13853455 3.127709627
-20.96766663 -20.09937668 4.126928806
-25.108181 -23.84852791 5.991846561
-25.18003273 -23.87205124 7.226656437
-25.33998871 -23.97524261 8.509473801
-7.43184948 -7.658788204 3.422161579
-7.311704636 -7.536985397 3.749158859
-21.01931381 -20.01511765 1.132562399
-21.00535202 -20.05506134 2.126743793
-21.04010582 -20.0520668 3.124924183
-21.01618385 -20.00226593 4.121791363
-25.64513016 -24.16664314 6.083313942
-25.73674774 -24.20678329 7.344941139
-25.86549377 -24.28811264 8.642512321
-7.574623585 -7.737689495 3.463178396
-21.06660843 -19.92423439 1.130678177
-21.0618248 -19.97222519 2.12451911
-21.09225655 -19.96508789 3.121716976
-21.06388855 -19.91139793 4.117190838
-26.17180443 -24.47775841 6.172982216
-26.29503059 -24.54496002 7.463978291
-26.40802956 -24.61062241 8.779865265
-7.605924129 -7.717572212 3.465146542
-8.030771255 -8.084528923 4.018000126
-21.11766243 -19.84361458 1.12898612
-21.1164875 -19.88789368 2.122191668
-21.13776588 -19.87900925 3.118253708
-21.12896156 -19.83634186 4.115379333
-26.73192024 -24.81315613 6.268915176
-26.8737812 -24.90385056 7.588597298
-26.9866581 -24.95947647 8.927239418
-7.638623238 -7.698606968 3.467617035
-8.063463211 -8.065385818 4.020872116
-21.16274452 -19.75119209 1.127063274
-21.1749649 -19.81375885 2.120404005
-21.18624306 -19.78914261 3.114704132
-21.18338585 -19.7518177 4.111927032
-27.32296753 -25.17857552 6.371511459
-27.45362091 -25.24913406 7.711545944
-27.60028267 -25.34173393 9.085611343
-8.080141068 -8.02947998 4.016818047
-21.21914482 -19.67563629 1.125451684
-21.22750854 -19.72779083 2.117965937
-21.23255157 -19.70419884 3.111390352
-11.342659 -10.92775631 2.561549187
-27.93886757 -25.55114937 6.477540493
-28.07021904 -25.62932968 7.84415102
-28.23726273 -25.72940063 9.248616219
-7.491854668 -7.476553917 3.399074078
-8.086765289 -7.987390041 4.009347439
-21.27853966 -19.59620094 1.123751521
-21.27043724 -19.64011574 2.115225792
-10.61770248 -10.23831749 1.945264935
-11.39269161 -10.90115833 2.563017368
-10.76529884 -10.33616829 2.972827673
-28.58312988 -25.9036293 7.948762894
-29.85312843 -26.9740715 9.704428673
-7.531376839 -7.466845036 3.404614925
-8.114681244 -7.961522102 4.00988102
-21.33160973 -19.51132393 1.121947646
-21.31627655 -19.54864311 2.112398624
-10.6563406 -10.20641708 1.945111752
-11.4678793 -10.899827 2.568706989
-10.78198051 -10.28419209 2.968690872
-29.9292717 -26.89634323 8.260781288
-29.91687775 -26.84512138 9.693819046
-7.544281483 -7.431562901 3.400494337
-8.142516136 -7.935546875 4.010409832
-21.38132286 -19.42368126 1.120088339
-21.37530899 -19.46887016 2.110404253
-21.39881516 -19.45455933 3.103283405
-21.3822403 -19.41193771 4.096803188
-10.81338978 -10.24514103 2.967567444
-29.99529839 -26.76965904 8.252202034
-7.748244286 -7.57354784 3.086635113
-7.564367771 -7.402578354 3.398905039
-8.161540985 -7.901980877 4.007492542
-21.42310333 -19.32940483 1.118104577
-21.43253708 -19.38761139 2.1083076
-21.44100571 -19.36019325 3.099206448
-21.44252777 -19.33321571 4.094472408
-29.97099686 -26.61509323 6.809179306
-30.06677437 -26.64794159 8.245092392
-7.782108307 -7.555261135 3.089112043
-7.590232372 -7.378557682 3.399338007
-8.22127533 -7.903150558 4.020633221
-21.45840454 -19.22986221 1.116021037
-21.48186874 -19.2996769 2.105736256
-21.50097656 -19.2813015 3.097076178
-10.26397896 -9.662252426 2.364979506
-30.03559685 -26.48834229 6.801757336
-30.12878036 -26.51840591 8.235750198
-30.14357758 -26.49037933 9.673330307
-7.614544392 -7.353186131 3.399260998
-8.269415855 -7.89409256 4.029177189
-21.51309776 -19.14711189 1.114232779
-21.52171707 -19.20386314 2.102599382
-10.6139183 -9.910861969 1.923459291
-21.53647995 -19.15335083 4.085837364
-30.12533951 -26.38316536 6.799446106
-30.20526886 -26.40143585 8.230100632
-30.20827484 -26.36333084 9.663554192
-7.649137497 -7.336443424 3.402723312
-30.26941872 -26.31376076 12.6154213
-21.57512283 -19.0706501 1.112551451
-21.56420708 -19.11057281 2.099642038
-10.86947441 -10.06257248 1.946532011
-10.36624908 -9.621741295 2.369388103
-9.785410881 -9.120227814 2.733858347
-30.28281593 -26.28550529 8.224806786
-30.28141594 -26.2346077 9.654966354
-30.32348251 -26.21954536 11.12009525
-30.35182953 -26.20140839 12.61021137
-21.63227463 -18.99012566 1.110791445
-21.62938309 -19.03011703 2.097800255
-21.64858246 -19.01789284 3.087380886
-10.40288067 -9.590555191 2.369513512
-9.791376114 -9.063990593 2.728246689
-30.35991669 -26.16935349 8.219502449
-30.36458206 -26.12347412 9.650865555
-30.40978241 -26.1107235 11.11672974
-30.43530464 -26.0900116 12.6055603
-21.68143463 -18.90303612 1.108908415
-21.69255447 -18.96084023 2.096393585
-10.92724705 -9.981321335 1.944197416
-10.59692001 -9.689831734 2.39350152
-9.838375092 -9.047815323 2.731436253
-30.42446518 -26.04296112 8.211228371
-30.43689346 -26.01242828 9.64511776
-30.46437073 -25.9848156 11.1043644
-30.50800514 -25.96982765 12.59688663
-21.7333374 -18.81837082 1.107063174
-21.74324989 -18.87481689 2.093967915
-10.95283318 -9.938024521 1.942699075
-10.60468864 -9.636920929 2.389475584
-9.856255531 -9.004575729 2.728564501
-11.0304985 -9.95202446 3.470413923
-30.5147171 -25.897089 9.639678955
-7.613487244 -7.125786304 3.357851744
-30.56985283 -25.84097481 12.58419037
-21.78800774 -18.73609352 1.105254769
-21.78743172 -18.78359032 2.091164827
-10.94432163 -9.866868973 1.937631607
-10.62912273 -9.594776154 2.387721777
-9.861698151 -8.951310158 2.723284721
-10.99677086 -9.86000061 3.453664541
-30.57696915 -25.76919746 9.62984848
-7.688022614 -7.141765594 3.374953032
-11.41353798 -10.14650059 5.178415775
-22.18535042 -18.93240547 1.108397245
-21.94739532 -18.7869339 2.095275402
-10.9725647 -9.826072693 1.936451674
-10.70891094 -9.597650528 2.394294024
-9.963671684 -8.976536751 2.736938477
-10.24575806 -9.188609123 3.263697147
-30.65084457 -25.65098953 9.623509407
-11.3623867 -10.05790234 4.599731445
-11.42828369 -10.09204292 5.170646191
-22.82556343 -19.32081795 1.114936709
-22.4043045 -19.02939796 2.11696291
-11.0115118 -9.793954849 1.936399817
-10.80276775 -9.611294746 2.40293479
-10.04591274 -8.985034943 2.746670246
-10.2626152 -9.142870903 3.259937525
-30.7181797 -25.52768707 9.615409851
-11.34330654 -9.97695446 4.581653118
-11.50718212 -10.08900738 5.187496185
-23.43893623 -19.6878109 1.121090293
-23.41125298 -19.71591187 2.171250582
-11.06747818 -9.778570175 1.938325524
-10.82863998 -9.572900772 2.401664734
-10.04195976 -8.926933289 2.739912271
-10.30088806 -9.11729908 3.261752844
-30.78528214 -25.41325951 9.608733177
-7.720855713 -7.036727905 3.362550974
-11.46895599 -9.995885849 5.160297394
-24.22577477 -20.17997932 1.129419565
-23.91729355 -19.98545837 2.19532609
-11.11877728 -9.756004333 1.939552665
-10.2867403 -9.080051422 2.315794706
-10.07630634 -8.896689415 2.74031949
-10.40527058 -9.14100647 3.279018879
-30.86238861 -25.29809761 9.603672981
-10.5714817 -9.241295815 4.302563667
-11.41978264 -9.891636848 5.128480911
-24.97238731 -20.63216591 1.137009382
-24.67450333 -20.44895363 2.233916759
-11.17943764 -9.740604401 1.941740394
-10.37931156 -9.094518661 2.324446917
-10.39250088 -9.071755409 3.268234253
-30.92832565 -25.17426491 9.595540047
-7.773180008 -6.989662647 3.364355087
-11.49081135 -9.882252693 5.142451286
-25.67051888 -21.03863525 1.143759966
-25.39912224 -20.87898254 2.270278931
-11.15701675 -9.659654617 1.935368657
-10.3517046 -9.01408577 2.315315247
-9.770905495 -8.543424606 2.669131994
-9.967172623 -8.680991173 3.159365654
-7.888539791 -7.048223495 3.02732563
-7.811460018 -6.975471973 3.369290352
-11.5164938 -9.837239265 5.139246941
-25.8530426 -21.0902195 2.290596724
-10.90145206 -9.397611618 1.905144095
-10.39108753 -8.986400604 2.316105604
-9.844568253 -8.545597076 2.677348137
-10.04889679 -8.68821907 3.171472788
-7.917899609 -7.026547909 3.028881311
-10.67313004 -9.140420914 4.30457449
-11.59514236 -9.833087921 5.156059265
-27.45744324 -22.13246918 1.16212821
-27.39507866 -22.14073753 2.373739004
-10.76717186 -9.232616425 1.887523413
-10.49329281 -9.007117271 2.326110601
-9.998240471 -8.608915329 2.700836658
-10.02172852 -8.611069679 3.157771826
-10.87284088 -9.251369476 3.856094599
-10.79128742 -9.171269417 4.332991123
-31.23394203 -24.78515053 12.52051163
-27.57580185 -22.07063293 1.160531759
-27.57525826 -22.12662125 2.377665758
-10.9369936 -9.303037643 1.900985718
-10.49802685 -8.952265739 2.321814537
-10.00172234 -8.555886269 2.695542097
-10.1003809 -8.615337372 3.169124603
-10.86188698 -9.182499886 3.843867064
-11.68455887 -9.790774345 4.6151824
-31.29241562 -24.65587425 12.50828075
-27.64634514 -21.97185898 1.15827632
-27.63502312 -22.01931 2.374634981
-10.91246319 -9.223686218 1.894640684
-10.47405243 -8.875818253 2.313373089
-10.1340704 -8.601020813 2.714801073
-10.09146118 -8.55264473 3.159842968
-10.86770153 -9.126767159 3.836444139
-11.65568733 -9.704317093 4.594568729
-31.36413765 -24.53687477 12.50118732
-27.71334648 -21.87043953 1.155967355
-27.69278526 -21.91063309 2.371503353
-10.87638378 -9.136185646 1.887174726
-10.62560081 -8.93260479 2.330481291
-10.10582256 -8.523866653 2.703508854
-10.2440052 -8.611869812 3.188478947
-10.85453224 -9.05702877 3.823782444
-10.5439291 -8.806693077 4.221446991
-11.7527914 -9.693824768 5.164313793
-27.77677536 -21.76640511 1.153605103
-27.75810432 -21.80782127 2.368816853
-10.90675926 -9.099345207 1.886458039
-10.84283257 -9.037313461 2.356995344
-10.40483379 -8.692343712 2.754152775
-10.35614681 -8.639527321 3.207522392
-10.88637924 -9.021325111 3.823777199
-10.62926769 -8.812478065 4.239248276
-31.51239586 -24.30281448 12.48924828
-27.83821297 -21.66099548 1.151211858
-27.82944298 -21.70959282 2.366482973
-10.95298672 -9.074316978 1.887340784
-10.86494827 -8.994626999 2.355198383
-10.52104282 -8.721979141 2.770057201
-10.52387333 -8.707484245 3.239423037
-11.04988098 -9.083058357 3.860410213
-10.18238735 -8.42444706 4.084647655
-11.83023834 -9.62263298 5.168117046
-27.88800049 -21.54707718 1.148662806
-27.95658493 -21.65280533 2.367310524
-10.85179234 -8.939898491 1.873468399
-10.96517563 -9.009765625 2.364655972
-10.44822979 -8.611180305 2.750370502
-11.08813 -9.051273346 3.862128496
-10.20581055 -8.386458397 4.082811356
-31.93580246 -24.27046776 12.57949734
-27.96114349 -21.45807076 1.146570802
-10.8383379 -8.874316216 1.868626118
-11.01759052 -8.989034653 2.367208481
-10.43858337 -8.547729492 2.742647648
-11.19409847 -9.068788528 3.882587194
-10.80824184 -8.772903442 4.267926693
-33.54943466 -25.27949524 13.14233685
-28.02430916 -21.36174202 1.14434433
-28.08776665 -21.45493698 2.362328529
-11.15136528 -9.047625542 1.896276116
-10.97867012 -8.90443325 2.356945276
-10.21778107 -8.333880424 2.695842266
-11.28397369 -9.094687462 3.394217491
-11.71776772 -9.39111042 4.018576145
-8.028733253 -6.707861423 3.365986347
-10.80940533 -8.701210976 4.757682323
-28.0809803 -21.25327301 1.141870499
-28.1655941 -21.36872673 2.360692024
-11.17822361 -9.007456779 1.89520514
-10.96506119 -8.838821411 2.350358248
-10.02933788 -8.145900726 2.655340672
-10.53604698 -8.495377541 3.214388609
-11.30725956 -9.036353111 3.896966934
-8.06180191 -6.688744545 3.369356632
-10.83231068 -8.659946442 4.755083084
-28.14210892 -21.14816093 1.139448404
-11.17904854 -8.948569298 1.89157331
-11.01521969 -8.813604355 2.352394581
-10.12546921 -8.161495209 2.667648554
-10.15500641 -8.166788101 3.119879961
-11.30715466 -8.973201752 3.88771534
-8.094280243 -6.666927338 3.372184753
-10.89255524 -8.645275116 4.766175747
-28.19796181 -21.03938293 1.136955619
-11.23312664 -8.928019524 1.893209696
-10.83099747 -8.623970032 2.321476221
-10.36809444 -8.26440239 3.161994934
-11.33080673 -8.930198669 3.88547802
-8.084596634 -6.617321491 3.361955166
-10.90584564 -8.597123146 4.760142803
-28.27134132 -20.94318771 1.134673953
-23.85308456 -17.85593987 2.103981733
-11.1522274 -8.811465263 1.881597042
-11.20510864 -8.831691742 2.36958456
-10.22636414 -8.125892639 2.67522192
-11.04156399 -8.670089722 3.798392534
-8.138618469 -6.614864826 3.37239027
-10.99115944 -8.599559784 4.780345917
-28.33785629 -20.84212112 1.132300735
-11.1603117 -8.758696556 1.878764033
-11.32415485 -8.859566689 2.381749868
-10.2355175 -8.078742981 2.671396494
-10.37462807 -8.160137177 3.150008678
-10.63519955 -8.328530312 3.67953825
-8.169900894 -6.594081402 3.375237465
-11.04986763 -8.582893372 4.790840149
-28.40072823 -20.73854065 1.129876733
-28.44060326 -20.81899834 2.344747543
-11.52768898 -8.957192421 1.910965204
-10.44070721 -8.181595802 2.252690077
-10.29479027 -8.066641808 2.676804304
-10.39368534 -8.119318962 3.147681713
-10.62576008 -8.263832092 3.668605089
-8.221251488 -6.58492136 3.38408041
-10.83719158 -8.378667831 4.703261852
-28.45993233 -20.63248825 1.12740314
-28.46268654 -20.67927742 2.339498997
-10.02833843 -7.842051029 2.19056654
-10.52786732 -8.171519279 2.713720322
-10.64246655 -8.236893654 3.197403908
-10.64847946 -8.224390984 3.666851521
-8.268449783 -6.574719906 3.391943455
-10.74184513 -8.25726223 4.658469677
