# .PCD v0.7 - Point Cloud Data file format
VERSION 0.7
FIELDS x y z
SIZE 4 4 4
TYPE F F F
COUNT 1 1 1
WIDTH 1333
HEIGHT 1
VIEWPOINT 0 0 0 1 0 0 0
POINTS 1333
DATA ascii
5.519645214 21.75438118 0.4166646004
10.5043745 42.03957367 3.172913551
10.68513966 42.72278214 4.786980629
5.623304367 21.81746674 0.4150034487
10.88722706 42.8555603 4.802209377
5.669884682 21.6842556 0.4166266918
10.85426426 42.19970322 3.184834957
10.99180889 42.6609993 4.787179947
5.748203278 21.67889214 0.416157037
11.21948242 43.08761978 1.648701787
11.10409927 42.50096512 4.775361538
5.801983833 21.56187439 0.4175016582
11.27543354 42.62189865 3.211565256
11.38463593 42.96153259 4.82080698
5.931549549 21.73686409 0.4140377939
11.43455315 42.61136627 3.21271944
11.42810535 42.50751495 4.782229424
6.046995163 21.85323715 0.4115376472
9.755030632 35.74094009 1.505677342
11.65390015 42.82603836 3.226483345
9.811841011 35.84845352 4.172194481
6.122614384 21.84957314 0.4110796452
7.173410416 25.67913055 2.271145105
7.220274925 25.80595016 3.2491467
6.24304533 21.97853851 0.4083698392
16.99895477 61.29117584 2.007416725
7.231145859 25.52686691 2.263793945
7.396869659 26.08617973 3.277075529
6.270627022 21.76771927 0.4112976789
8.61397934 30.18693924 1.397662878
7.287381172 25.37260056 2.256348848
7.482165813 26.02960014 3.273999214
6.314087868 21.61860657 0.4132140875
7.366409779 25.30285645 2.253649473
7.513170242 25.7809906 3.253215551
6.389373779 21.58488846 0.413220644
10.43339729 35.78235626 1.508235335
7.474045277 25.33467293 2.25666213
7.460546017 25.24514198 3.20587039
6.512565136 21.73269272 0.4102337062
7.523272038 25.16267204 2.248286724
7.525900364 25.14763641 3.198946714
6.591532707 21.70981979 0.4100655019
16.75382996 56.48162079 1.916251063
7.576973915 25.02646637 2.241868973
7.586246014 25.01807404 3.189190865
6.65282917 21.61263275 0.4111177921
7.798980236 25.45131111 1.30629611
7.603098392 24.76689911 2.228672504
7.625348091 24.80304146 3.171644449
6.794972897 21.787323 0.4076262116
7.691748619 24.72171974 2.227530241
7.725485325 24.79602242 3.173418999
6.369581699 20.11308479 0.4351897538
11.16764832 35.91258621 1.513221502
7.8043437 24.78786087 2.232541561
7.85559082 24.91902733 3.187086821
6.980478764 21.85646629 0.405443877
8.019563675 25.18569565 2.256261349
7.943806648 24.90245819 3.187834501
7.081395626 21.91531563 0.4039474726
8.176839828 25.37118912 2.268159389
8.07642746 25.0282402 3.201873779
7.109445572 21.72639084 0.4065973163
9.861757278 30.44343376 1.406899214
8.110167503 24.85634232 2.240531206
8.143813133 24.92780304 3.195019722
7.238695621 21.85960579 0.4038283825
8.161619186 24.70807266 2.233648062
8.245118141 24.93539047 3.198270798
7.233549595 21.57150459 0.4081705213
8.312672615 24.87146759 2.24439621
8.378404617 25.04116249 3.210739851
6.996706486 20.57829666 0.4244503081
8.39246273 24.81199265 2.242584705
7.365219593 21.44448853 0.409301579
12.96278572 38.35124207 3.011097193
7.487334728 21.56412506 0.4067977071
13.0209322 38.0709877 2.997669935
7.539514065 21.4601593 0.4080622494
13.19900799 38.17339325 3.005854368
7.548456669 21.23118591 0.4114597142
13.38537216 38.27460098 3.014157772
7.753480434 21.57522583 0.4051205218
13.46432018 38.06164551 3.00464797
7.847700596 21.59333801 0.4043233395
13.74917603 38.46466827 1.572488666
13.55446815 37.88443756 2.997196436
7.934158802 21.58843994 0.4039218128
13.61559582 37.62799072 2.98525095
7.997156143 21.51729012 0.4046560228
13.82225418 37.78345871 2.996842623
7.555157185 20.06973076 0.4289810658
14.01800632 37.94657898 3.008664608
8.176649094 21.56101608 0.4030303657
14.38110065 38.52230072 3.044454336
7.594139576 19.73631477 0.4338381886
7.97451067 20.52735901 0.4198126197
8.010036469 20.38381958 0.4218170643
8.212948799 20.69404602 0.4160462916
8.506350517 21.23270798 0.4063319564
20.04933929 51.19661713 3.790237904
8.298973083 20.48104668 0.4188725948
8.329030037 20.33838654 0.4209110141
18.75158119 46.8543129 3.547576666
8.385444641 20.26456261 0.4217690229
16.4125843 40.4732666 3.182258368
8.170990944 19.51481056 0.4343291819
16.61377716 40.55858994 3.190722227
8.59824276 20.37757874 0.4190100431
11.65982342 27.90479469 2.459776402
8.716301918 20.45482254 0.4172628522
11.72106361 27.78286171 2.455090284
6.793471813 15.69570827 3.015160561
8.820519447 20.49637413 0.4161361456
19.764328 47.00603485 1.765083671
6.768285751 15.4986248 1.742452145
11.92982674 27.9820385 3.565982819
6.855639935 15.68300247 3.01673913
9.368583679 21.60269165 0.3965078294
6.816905022 15.45467091 1.741374016
6.92885828 15.7098875 2.387928963
6.85281086 15.51437473 2.997368813
9.447852135 21.57170105 0.3966277242
17.26355553 40.13031006 1.627771735
6.876142502 15.43635178 1.741807818
6.881427765 15.43598843 2.363951445
6.894380569 15.45387936 2.992550373
9.434036255 21.32137871 0.4005723596
6.888477325 15.3075304 1.735797763
6.924174309 15.37894917 2.360882044
6.96075058 15.46024227 2.996609211
9.093445778 20.32310867 0.4175889492
12.29964638 27.78483963 1.377104402
7.104741096 15.65600109 1.757751703
6.873430729 15.11249256 2.337438583
7.015198231 15.43047523 2.995996475
7.033553123 15.46878433 3.635842562
12.37972736 27.69590187 1.376392841
7.107897758 15.5132761 1.75088954
6.885523796 14.98794365 2.327824593
6.921859741 15.0600214 2.949276924
7.094239235 15.4533186 3.637555838
9.820040703 21.58408928 0.394796133
12.31019115 27.25833893 2.442867517
6.95751524 15.00221348 2.33168292
6.915977955 14.89586353 2.930425882
7.138270855 15.39963436 3.632646322
9.858940125 21.46001625 0.3965664804
12.58556461 27.61724854 2.466789961
7.094873905 15.16378403 2.349902868
6.98812294 14.91832256 2.936728477
7.193184853 15.37113571 3.632163763
9.910284996 21.37604523 0.3976626992
7.583735466 16.12220955 1.791682959
7.160079956 15.16753387 2.352706909
7.030912876 14.86674213 2.933179855
7.139796734 15.10742283 3.590314865
10.08055401 21.54746246 0.3942715228
7.623637676 16.06058693 1.789691687
7.133398056 14.95901966 2.334965229
7.022658348 14.70948982 2.915076494
7.032356739 14.72055149 3.527003527
10.14256573 21.48659134 0.3949715197
16.24240112 34.92727661 1.532554388
7.38894558 15.38646317 1.75155127
7.133084774 14.81924343 2.323777437
7.058792114 14.64522362 2.909812689
7.078910351 14.68647289 3.525264263
7.231325626 15.01174068 4.212241173
10.23503971 21.49285126 0.3944986761
16.1830101 34.48411942 1.524815321
7.143392086 14.71485996 1.713279247
7.283649921 15.01113224 2.345036745
7.143116951 14.69400215 2.919842005
7.192756176 14.79948807 3.549427986
7.327833176 15.0841608 4.233172894
10.30142021 21.43157387 0.3951971531
16.24092674 34.28585434 1.522257686
7.221162796 14.74065208 1.71647048
7.269616604 14.83557892 2.330500603
7.156445026 14.58079338 2.907929659
7.205752373 14.68477535 3.53381443
7.313138485 14.90722084 4.200665951
10.61392498 21.89948273 0.386594981
23.3037014 49.12902069 1.834433913
7.292455673 14.75160503 1.718808174
7.258651733 14.66934776 2.316854715
7.170753956 14.47127628 2.896515369
7.273139477 14.68828773 3.539052486
7.358744144 14.86218357 4.196623325
7.611336231 15.30106926 0.5023721457
9.50568676 19.32136536 1.211686015
7.33434248 14.69229794 1.717070222
7.372119427 14.77017498 2.329459667
7.36103487 14.73716354 2.936680317
7.557074547 15.14405441 3.624542475
7.408512592 14.81928539 4.193365574
7.662961006 15.25680733 0.5028740168
7.661765575 15.25188446 1.127111912
7.33208704 14.54757404 1.710157752
7.379739285 14.63875771 2.319381714
7.385512829 14.6487236 2.928242207
7.363491058 14.59328461 3.53187108
7.445056438 14.76286697 4.186633587
7.72858429 15.25656605 0.5026301742
7.723856926 15.24445438 1.127693534
7.396087646 14.55024338 1.711967349
7.41038847 14.57115173 2.315319061
7.668275356 15.10753345 2.99507618
7.444385529 14.63123322 3.543123245
7.47706604 14.69752502 4.177983284
9.328639984 18.43688965 0.4462488294
7.470602989 14.57424068 1.715077519
7.448474407 14.51965427 2.312858343
7.722111225 15.07719803 2.994801283
7.590929031 14.8039484 3.578395605
7.609678268 14.83403397 4.213587761
11.23733234 22.18741608 0.3796831965
10.08005619 19.79798698 1.225648999
7.526197433 14.55171108 1.715511084
7.528242111 14.54736137 2.318399191
7.633180618 14.75411129 2.954048395
7.621138573 14.72777557 3.569770575
7.669316769 14.81811047 4.216119766
11.33019447 22.17318916 0.3795740008
10.13982391 19.73758316 1.225417018
7.616066933 14.59888744 1.720157146
7.585445881 14.5282135 2.319334507
7.620065689 14.59033966 2.935266733
7.643060207 14.63563633 3.558307171
7.676064491 14.69454479 4.195188999
11.40268517 22.11737823 0.3802053332
7.722373962 14.67111874 1.726442218
7.633751392 14.4910078 2.318501711
7.621787548 14.458848 2.92093277
7.728580475 14.66602421 3.568982363
7.72053194 14.64185238 4.190050125
9.837166786 18.77531242 0.4390377402
9.843531609 18.78639793 1.207288623
7.705975056 14.50301552 1.718160748
7.746966839 14.57701874 2.330114603
7.713294029 14.50856495 2.931790113
8.075234413 15.22356606 3.673840284
7.791863918 14.65666771 4.199131012
9.903262138 18.74437904 0.439304471
9.902385712 18.74118423 1.207320213
7.758691311 14.48099422 1.718610764
7.833963871 14.62245655 2.337452412
7.949195862 14.8497715 2.983147383
7.928953171 14.80193233 3.603283167
11.67354393 22.06650543 0.3800840974
25.36252403 48.97578812 1.856054783
7.762454987 14.36266804 1.713238001
7.938508034 14.70122051 2.348172665
7.803983688 14.42937279 2.928573847
7.960951805 14.73695469 3.59657526
11.77006912 22.05765343 0.3799033463
25.2798214 48.38707733 1.846161008
7.773636341 14.25378609 1.708529353
7.881763458 14.45726395 2.326768875
7.839057922 14.36682796 2.923893452
8.028682709 14.73554802 3.601582766
11.86851692 22.0519619 0.3796710372
12.41153622 23.09090042 1.304230213
7.832785606 14.23902607 1.709549308
7.914067268 14.38904572 2.32295084
8.010681152 14.56858635 2.956277847
8.078339577 14.6987896 3.600275278
11.88198662 21.88273621 0.3823517561
8.145044327 14.70917702 1.740179181
7.993009567 14.41084957 2.328199863
8.062522888 14.53711319 2.956061125
8.161660194 14.72663689 3.610673666
12.04801846 22.00572777 0.3798401654
25.84050941 48.20840454 1.850717545
8.270025253 14.81502533 1.748679638
8.038789749 14.36882973 2.327059984
8.08095932 14.44224739 2.946955442
8.225026131 14.71565342 3.614124298
12.05107307 21.8186779 0.3828524351
26.04998779 48.19042587 1.853216171
8.310659409 14.75965309 1.747354746
8.202997208 14.55013657 2.348499537
8.295249939 14.7172823 2.990003347
12.14539623 21.80469894 0.3827888072
24.7373848 45.34614563 1.79410243
8.318976402 14.64431953 1.742359281
8.3177948 14.63564301 2.360354424
8.347678185 14.6915369 2.990538597
12.32407188 21.95616722 0.3797934353
8.350293159 14.5730629 1.740071654
5.980483532 10.18136597 1.911688209
8.379156113 14.62049389 2.984915257
12.20034218 21.53879547 0.3869389892
8.407161713 14.55586433 1.741019964
6.023749828 10.1692276 1.912802815
10.23480415 17.90152168 3.454774857
12.43817711 21.78717041 0.3822047412
6.069878578 10.16216278 1.914456725
10.28286171 17.83449173 3.450716019
12.52600765 21.75937462 0.3824064434
10.57488346 18.22298241 1.972527623
6.125672817 10.17234039 1.917895198
12.54175186 21.60198212 0.3849321306
10.92438507 18.69361496 2.004466057
6.183552265 10.18574333 1.921696305
12.75247574 21.79343224 0.3812198937
6.229175091 10.1806612 1.477412581
6.224021912 10.16762161 1.92230022
12.96365166 21.99116325 0.3774088323
23.7509079 41.04348755 1.718847275
6.092570305 9.854150772 1.45857513
6.231095791 10.09498024 1.917199492
12.89379978 21.69273949 0.3824928403
26.73318291 45.92881775 1.830464482
6.174645901 9.915441513 1.463909626
6.319741249 10.1659956 1.926880717
6.322324753 10.16692638 2.377192736
12.88982296 21.50373268 0.3856113553
26.81948853 45.70186234 1.828598142
6.302912235 10.05137634 1.474038243
6.337321281 10.10767078 1.923403978
6.33101511 10.09326935 2.370030403
6.369112968 10.16047764 2.83434701
12.90976334 21.35828209 0.3879568875
24.43814278 41.22341537 1.73148632
6.470274448 10.25219154 1.488303542
6.351572514 10.04418755 1.919396043
6.410009384 10.14155388 2.38044858
6.401494503 10.12802315 2.832716227
13.00656986 21.34589005 0.3879197836
24.55859756 41.09306335 1.731523156
6.234880447 9.760662079 1.459051609
6.35036993 9.954947472 1.912718415
6.45634079 10.13288975 2.38270402
6.464638233 10.14831924 2.840908527
12.64757442 20.55953598 0.4018004537
27.10538292 45.07938766 1.824409842
6.326726913 9.831774712 1.465186357
6.366840363 9.896734238 1.909250736
6.534947395 10.17874146 2.392889977
6.636334896 10.35201454 2.883318663
13.2892313 21.46947861 0.3851909637
20.24919319 33.17643738 1.558487058
6.445509911 9.94246006 1.473952651
6.344308376 9.773465157 1.899011374
6.542966843 10.10475826 2.385745764
6.548085213 10.11045647 2.843072414
13.30640507 21.31254959 0.3877557516
27.62445641 45.20350266 1.834111691
6.46988821 9.897662163 1.472825766
6.322827339 9.649385452 1.888785839
6.605505466 10.11823273 2.391501427
6.572027206 10.06391335 2.838927507
13.3693924 21.24201202 0.3887850642
20.03221703 32.26910782 1.543000579
6.521899223 9.898986816 1.474638939
6.31931591 9.560805321 1.882113338
6.647837162 10.10198021 2.392789602
6.624314308 10.06466198 2.843659401
13.32602024 20.99705315 0.3929635584
20.08064461 32.10177612 1.541562557
6.634217739 9.999024391 1.482768178
6.337014198 9.508111 1.879189014
6.737756252 10.16810131 2.405964136
6.431262493 9.662050247 2.772647619
13.35885143 20.88796616 0.394713074
20.93911934 33.25741959 1.570451736
6.583597183 9.835694313 1.474024296
6.504668236 9.704450607 1.902309418
6.742080688 10.09332275 2.398573875
6.732395649 10.07505226 2.854712486
6.798480988 10.18471813 3.343749285
13.91443253 21.62619972 0.38118276
20.65450287 32.53095245 1.556401968
6.50048542 9.621850014 1.46201098
6.472654819 9.574420929 1.891171336
6.673808098 9.89759922 2.373598337
6.533943653 9.673094749 2.783358335
6.813107967 10.12263584 3.335192442
13.95916939 21.52317619 0.3828158379
21.16198349 33.08678818 1.571862936
6.604364872 9.703098297 1.469085097
6.610124111 9.714154243 1.908617139
6.720711231 9.889473915 2.376143217
6.575537205 9.654201508 2.784631729
6.900887489 10.1743288 3.353275776
14.03913784 21.4684906 0.383571744
18.58084679 28.71055412 1.47325182
6.673094749 9.730764389 1.472667575
6.690142155 9.755713463 1.915912151
6.880520344 10.06101227 2.405232906
6.729691505 9.818594933 2.820463181
6.956943989 10.17854309 3.360162735
14.09294224 21.38970757 0.3847906291
6.713278294 9.712508202 1.473314404
6.628428459 9.580314636 1.899958134
6.6257658 9.574086189 2.337093115
6.688984871 9.676139832 2.79793191
6.971333504 10.1206913 3.352375269
14.18141556 21.35725403 0.3851671517
21.26332092 32.47938919 1.565824628
6.720450401 9.646436691 1.470786572
6.762247086 9.710043907 1.916541815
6.624032974 9.495220184 2.328961134
6.81794548 9.797702789 2.825855017
6.949346066 10.00207615 3.330712318
14.29511738 21.37238503 0.3846984208
21.54805946 32.66755295 1.573004365
6.636297703 9.434737206 1.458891511
6.54116869 9.288640976 1.87430954
7.009611607 10.01653194 2.410190821
6.86595583 9.79506588 2.829978704
7.074231148 10.1177969 3.363460064
14.28155804 21.18131447 0.3879553974
21.28159332 31.99951935 1.560149789
6.629241943 9.348988533 1.455053091
6.564661026 9.247402191 1.872664928
6.839439869 9.67048645 2.362627745
6.859039783 9.703146935 2.817306042
6.861875057 9.7059412 3.27308321
14.36183643 21.13636208 0.3885748386
6.644856453 9.29120636 1.453214765
6.691273212 9.364664078 1.888016701
6.853351116 9.611710548 2.357753992
6.842607498 9.593671799 2.801477194
6.876822472 9.644673347 3.264947414
7.209180832 10.07240868 0.5887991786
7.210771561 10.07727146 1.047290325
6.684689045 9.274663925 1.453985572
6.788864613 9.431695938 1.898210645
6.889815807 9.587799072 2.358098269
6.8605299 9.541758537 2.79642415
6.923326492 9.639961243 3.269523382
7.242224216 10.04344463 0.5892367959
7.225026131 10.01996899 1.046845555
6.941998005 9.590573311 1.47650528
6.911998272 9.543738365 1.913034797
6.91014576 9.543449402 2.355200529
7.149858475 9.90439415 2.871050119
7.052155495 9.759443283 3.303457975
7.205208302 9.989614487 3.834862947
7.258940697 9.99264431 1.047116995
7.205897331 9.911533356 1.499488711
6.945358276 9.51915741 1.913191319
6.95446682 9.535412788 2.357771873
6.844870567 9.369679451 2.772637367
7.086101532 9.734473228 3.303413868
7.224750042 9.941476822 3.828394651
14.73073864 21.04346275 0.3895485103
6.978978634 9.496293068 1.474009395
6.764364719 9.175266266 1.878788114
6.974481106 9.490942955 2.354881763
7.12075901 9.707717896 2.842846155
7.080596924 9.65073204 3.289466381
7.206066608 9.836722374 3.806019068
14.21714783 20.11150169 0.4062819481
28.81192207 41.67792892 1.809792638
7.043793678 9.510386467 1.477018595
6.753107548 9.079522133 1.871453762
6.969638348 9.398426056 2.345337868
7.159335613 9.681649208 2.843234777
7.113040924 9.612213135 3.287166119
7.282875061 9.862354279 3.821434021
14.76012039 20.75079918 0.3945183754
28.89710617 41.48467636 1.80907321
6.907923698 9.233299255 1.460622549
6.841623306 9.134951591 1.880409718
7.088074684 9.49545002 2.364101171
7.132603168 9.563684464 2.825499773
7.078670025 9.483657837 3.262806416
7.123692989 9.548932076 3.740424633
14.68276978 20.47662163 0.3993399739
28.96601677 41.28485107 1.808012009
6.954469681 9.225628853 1.462083817
6.888883591 9.129124641 1.88274312
7.16950655 9.540673256 2.374901533
7.218027115 9.610438347 2.839859009
7.080151081 9.40885067 3.251198292
7.164596081 9.535010338 3.743510723
14.73424625 20.39986801 0.4005907774
29.22211266 41.34145355 1.813388348
6.979459286 9.18655014 1.461467028
7.277761459 9.62070179 1.9393996
7.092830658 9.352451324 2.350409746
7.249242783 9.581665039 2.839270592
7.260237694 9.596850395 3.302196503
7.361265659 9.742339134 3.809840202
11.20700073 15.18012047 0.4953122437
11.19980431 15.16838932 1.179377794
7.073290348 9.250229836 1.467639923
7.349603176 9.6459589 1.945351005
7.228230476 9.470983505 2.372684479
7.281032562 9.549911499 2.838387966
7.304395676 9.582827568 3.305292368
7.392456532 9.708722115 3.807960749
7.095173836 9.203434944 1.034942865
7.120680809 9.238990784 1.469030142
7.40225172 9.64312458 1.948260903
7.13991642 9.268728256 2.345949888
7.225999355 9.390737534 2.812728167
7.431537151 9.682977676 3.33625555
15.15309334 20.5144577 0.3980766833
7.121121407 9.165571213 1.035008669
7.296639919 9.413010597 1.482823968
7.392377377 9.547689438 1.941145062
7.146541119 9.203313828 2.340116262
7.245676994 9.342978477 2.808669806
7.343500137 9.480861664 3.294118643
15.21474266 20.45108032 0.3991044462
7.655844688 9.841253281 1.513899565
7.87990284 10.15913296 2.011923075
7.370418549 9.443441391 2.381341934
7.282815933 9.323807716 2.81000185
7.370779514 9.44697094 3.292180777
14.94051933 19.91209984 0.4087869823
29.80326653 40.63092041 1.816401482
7.487580776 9.531920433 1.495050788
7.860240459 10.05070686 2.003377199
7.323525906 9.306148529 2.364296198
7.322827816 9.30483532 2.811677456
7.460325718 9.496226311 3.310771465
14.35926437 18.96297073 0.425953269
7.158670425 9.001030922 1.033919334
7.528535843 9.512238503 1.495908499
7.754030704 9.82767868 1.981870174
7.325209618 9.233957291 2.357480049
7.345997334 9.266180038 2.809201002
7.593306065 9.608325005 3.344442129
14.86524868 19.51249886 0.4158370793
25.49655724 34.12402725 1.662255883
7.530028343 9.442050934 1.493225932
7.791285038 9.800609589 1.982305169
7.42048645 9.29472065 2.371076345
7.782041073 9.791363716 2.919418573
14.87964725 19.39053726 0.4179568887
25.65042686 34.07843781 1.664788246
7.519937515 9.352941513 1.489353538
7.470941544 9.289610863 1.928415895
7.45466423 9.267233849 2.371246099
7.677164555 9.574475288 2.881635427
14.85653305 19.21140862 0.4211188555
7.576348305 9.358509064 1.491854906
7.456628323 9.196231842 1.921285272
7.34729147 9.048069 2.341504574
7.714612007 9.549297333 2.882390261
14.97559738 19.22522354 0.4207709432
7.663182735 9.397192955 1.048070908
7.611414909 9.327514648 1.492089868
7.428684711 9.08549118 1.912174344
7.386522293 9.028809547 2.342922688
15.20881176 19.38301849 0.4177984893
7.435736179 9.015497208 1.039552569
7.644584656 9.2977314 1.492308021
7.520041466 9.131577492 1.92090559
7.427433014 9.008097649 2.344367743
15.32757187 19.55663872 4.91178894
15.48200989 19.59791756 0.4137929678
7.490748405 9.016631126 1.040676594
7.808788776 9.441557884 1.504572392
7.5500741 9.098970413 1.920621753
7.467768192 8.990105629 2.346046448
15.42218208 19.534729 4.919050694
15.18902969 19.06469536 0.4234354198
7.49813652 8.958335876 1.040235877
7.871339798 9.449251175 1.507460594
7.563093185 9.044072151 1.917819738
7.717699528 9.251302719 2.391634464
7.870128632 9.452172279 2.886759281
15.91060734 19.86993408 0.4086739719
7.468753338 8.852469444 1.038571358
7.880034447 9.389836311 1.505577326
7.563201427 8.976293564 1.913375497
15.25986767 19.03671837 3.946351767
15.59117126 19.47042274 4.929103851
15.9757309 19.81233215 0.4096546471
7.473402977 8.788363457 1.038031101
7.895737648 9.339968681 1.504359841
7.858460426 9.291960716 1.952746868
15.31565666 18.96619987 3.944506884
15.6822691 19.45007515 4.936355591
16.01727676 19.71697044 0.4113261104
8.102062225 9.528118134 1.058357477
7.883575916 9.250875473 1.500510335
7.575015545 8.853902817 1.906135321
15.38574791 18.91434097 3.945667982
15.75514412 19.39852142 4.937925816
16.00289154 19.55070305 0.4142975509
8.140837669 9.502948761 1.058924794
7.870891571 9.161992073 1.496659994
7.612563133 8.832167625 1.907130122
18.87952232 23.24056053 4.646698475
15.9999218 19.40049171 0.4169821143
21.46183968 26.33256912 1.501017213
7.893518925 9.118812561 1.496025085
7.6192379 8.771170616 1.903616905
18.98039818 23.19652367 4.651334763
18.69898987 22.65578651 0.3574970961
19.2917099 23.40393066 1.427223206
8.05866909 9.255502701 1.508155584
7.657767773 8.750816345 1.904800892
15.95751667 19.21431732 4.022712708
16.49715614 19.73350143 0.410802871
19.45871735 23.43959236 1.43112433
15.76163292 18.82317352 2.191714287
16.33991051 19.54837799 3.162056208
16.06687737 19.20825958 4.031687737
16.46123505 19.54184914 0.4142606258
22.32731056 26.82922745 1.524153829
20.01686096 23.97034264 2.56428647
18.90711975 22.59332848 3.524383307
16.1204052 19.13211823 4.029420376
16.47077179 19.40817642 0.4166656435
19.38865852 23.00818253 1.425647855
20.09199524 23.88647079 2.564519167
21.48438263 25.60667419 3.885400057
19.46126556 22.92528915 0.3523948789
19.49175262 22.97325134 1.427578449
21.80463028 25.80872917 2.709095001
22.21872902 26.31863403 3.978995085
19.65448952 22.99965858 0.3510080874
22.26332092 26.17486191 1.516856551
21.822649 25.64156342 2.703883648
22.24905205 26.17263985 3.971804142
19.88449097 23.10804939 0.3490044177
22.11525917 25.80444527 1.51033318
21.85300636 25.49994278 2.700167894
22.2020607 25.92465591 3.953099728
20.13981819 23.24430656 0.3464980423
22.18516159 25.69951439 1.510974765
22.92290306 26.59702873 2.78685379
22.26583672 25.81196976 3.950331688
22.28546143 25.6311779 1.512631059
22.26994896 25.62532806 2.723244667
22.32781219 25.69764519 3.947392225
14.18607426 16.00046349 3.574823618
22.36360931 25.53650093 1.513589025
22.40727234 25.60091972 2.728570938
22.39570045 25.59080887 3.945368767
14.25105095 15.95856094 3.576979876
22.57419205 25.60688782 1.518938422
22.45147514 25.46641159 2.725869179
14.23731041 15.821558 2.787744284
14.33227825 15.94156551 3.582861423
22.5948658 25.44452477 1.518075585
14.05126572 15.48472214 1.996635199
14.26263714 15.73957157 2.784440041
31.38712692 35.43948746 1.800242305
14.0779705 15.40636444 1.995147228
14.20326042 15.55409336 2.769021988
14.1119051 15.32272911 1.241977572
14.1687088 15.39638042 1.998973727
14.32439041 15.57818031 2.778844118
14.57974339 15.87484169 3.599708319
27.3010273 30.27736092 1.665000439
14.12801075 15.23572159 1.991603017
14.01689053 15.11154747 2.72926116
14.10063076 15.21575165 3.497904778
13.99055958 15.09296131 4.234379768
14.29988194 15.31487083 1.246284127
14.20654583 15.21184254 1.994436622
14.01964569 15.0082922 2.723225355
14.26402569 15.28865337 3.519427538
14.06139851 15.06737518 4.23973465
27.32221985 30.13399506 8.986564636
14.51556492 15.4529562 2.016992331
14.099967 14.98766804 2.727604389
14.13169003 15.03208351 3.484888554
14.18606281 15.09664631 4.257640362
14.05210209 14.82012653 1.9740237
14.23063469 15.02855873 2.739226818
14.11023903 14.89696026 3.471243858
14.29780293 15.11594677 4.27295208
14.12270641 14.7942934 1.976485133
14.3938036 15.09883308 2.754919291
14.11721134 14.79463577 3.463128805
14.33737373 15.04849339 4.270054817
14.21885872 14.7854147 1.980738878
14.12974072 14.69581223 2.712347031
14.22619724 14.80569363 3.474384546
14.39398384 14.99454308 4.270739079
14.6649332 15.15235901 0.494579941
14.24184418 14.69791317 1.240356088
14.32452583 14.79180431 1.985972285
14.1932745 14.65138531 2.714253664
14.26189613 14.73554802 3.471815586
14.70996761 15.09482861 0.495680213
14.66693497 15.05147362 1.253084302
14.46553516 14.83587551 1.994151115
14.55040169 14.93727684 2.75655055
14.32546616 14.69602966 3.474538326
14.19814587 14.43927479 1.237501502
14.90534878 15.20706558 2.027340889
14.38757515 14.66022491 3.477473497
14.27061272 14.41014862 1.239070415
14.57609558 14.74157143 1.996406674
14.26377392 14.41539478 2.705551147
14.5874958 14.76687336 3.505656958
49.34041977 51.68916321 2.346222878
14.42555714 14.47767639 1.980631351
14.25424957 14.29878139 2.698125124
14.55222988 14.62589455 3.490474463
49.5975647 51.59527588 2.35194397
14.5105257 14.46069431 1.984220624
14.31391811 14.26166916 2.700331688
14.80074024 14.78148365 3.527519703
15.38935852 15.26810837 1.272230506
14.73179722 14.58653831 1.999025702
14.60108185 14.45313168 2.732257128
14.81676865 14.68413258 3.52102375
15.265769 15.02666855 1.26763916
14.46503258 14.19513988 1.973591328
14.57721424 14.32161617 2.723024607
14.87349224 14.63532448 3.522552252
14.46064281 14.08571148 1.969947815
14.65477943 14.29113579 2.727015018
14.76207829 14.41203403 3.493299484
50.3615036 50.91820526 2.366813898
14.65324402 14.17986679 1.982414961
14.75757408 14.29684734 2.734941721
14.87176895 14.41891956 3.504678965
15.31959534 14.75176239 1.267340064
15.27824879 14.71940231 2.030171633
14.85623741 14.29234314 2.7420187
14.92760754 14.36988449 3.506224871
15.26038265 14.58288002 1.264861345
14.69079971 14.01448441 1.979194403
14.94806862 14.28023243 2.748194218
15.33816528 14.68121052 3.572207689
15.19595051 14.41034508 1.262242913
15.08850765 14.31196117 2.00821209
14.96988297 14.19695091 2.745214462
15.25629044 14.36433029 1.263539672
15.11737537 14.23525524 2.007345438
15.12074661 14.24337196 2.75911665
15.10394287 14.23140049 3.512680531
15.40868282 14.40969372 1.267718196
15.13172626 14.14446068 2.005343199
20.42729568 19.41670227 3.443237305
15.15353107 14.17592812 3.513247967
27.94367599 26.67281723 1.657283187
15.4624691 14.36660576 2.028776407
20.55444336 19.40139389 3.452041626
28.26184845 26.80264664 1.666243196
15.58108425 14.37693214 2.035134792
20.44998169 19.15813828 3.43091011
23.23381805 21.70789909 0.3771822155
23.18460083 21.66754723 1.507606506
20.0730629 18.64512634 2.390777588
20.47042847 19.04587555 3.426422358
20.55615807 19.13642311 4.452249527
20.84652901 19.25041771 1.434311271
20.18922997 18.62853432 2.396270275
20.36787605 18.80824852 3.405823231
20.52860451 18.9709053 4.43650341
20.24986267 18.55113411 2.397159815
20.4003334 18.70266914 3.402696371
20.59597588 18.89794159 4.437736034
20.24808311 18.4142704 2.393132925
20.51873589 18.6796093 3.410624743
20.67832565 18.84614563 4.442199707
20.86094093 18.84619713 0.4298747778
20.8958149 18.88640404 1.433946729
20.33691406 18.36417961 2.396329641
20.51242638 18.54446411 3.403016567
20.59122467 18.62659645 4.416310787
20.95161057 18.79382706 0.4310305715
20.93407249 18.78463936 1.434531331
20.47028542 18.36240959 2.403252602
20.47401237 18.37322998 3.39105773
20.80036545 18.6880722 4.442687511
20.46570396 18.22414398 2.399127245
20.53502274 18.29635239 3.391823292
21.00002289 18.73885155 4.467317581
20.63897133 18.25183678 2.409029007
21.20287704 18.78294945 3.4693892
21.08642197 18.68952942 4.472596645
20.61701965 18.10490036 2.403804064
20.74510765 18.23066711 3.404941797
21.11731911 18.58873367 4.468233109
12.07638645 10.14483261 0.5881049037
12.07786655 10.15060806 1.159620047
12.07151794 10.15311718 1.73188591
21.03425598 18.3690834 3.434862614
21.22866058 18.55529594 4.477425098
12.10939598 10.0937891 0.589170754
12.09751225 10.08748055 1.159926891
12.08671093 10.08602905 1.730869651
12.08659935 10.09050655 2.3046422
12.06416035 10.07476711 2.878491402
12.04424763 10.06143665 3.456165075
12.0506916 10.07608032 4.04643631
12.05454636 10.08474159 4.644676685
12.14664173 10.04667282 0.5901694894
12.14655018 10.0511446 1.161150098
12.11342812 10.02968121 1.730778933
12.12660694 10.04622269 2.305590153
12.09962749 10.02659988 2.878674269
12.08694839 10.0199976 3.457756281
12.0788126 10.02147102 4.044243813
12.05674362 10.00671673 4.63365078
12.20159721 10.0154295 0.5908859968
12.16297245 10.0034771 2.88369894
12.12068653 9.970489502 3.457412481
12.12712288 9.985150337 4.04754734
12.12513542 9.988650322 4.643809319
21.67789078 18.40233421 2.46859479
21.46351814 18.21982765 3.461562157
57.64439774 49.32024384 2.554864883
49.10319901 41.57853699 2.292190075
49.50572205 41.62592697 2.303745985
49.77705002 41.57327652 2.311355114
48.0270462 39.79149628 2.257116318
49.79035568 40.98820114 2.310422421
48.14511108 39.0340538 2.258981943
48.60501099 39.13029099 2.272536278
13.86074257 10.43914604 1.837305307
13.80250359 10.39750576 2.459464312
13.89856243 10.38950157 1.838273048
14.23104191 10.66586113 2.507606506
51.64829636 40.73791122 2.364187241
13.63938522 10.10030937 1.816848636
13.64511871 10.1109581 2.433225393
51.34575272 40.21412277 2.354617834
13.56036758 9.962697983 1.809182048
14.05800629 10.37806225 3.117196321
49.42282104 38.39231491 2.295635462
13.65399551 9.963736534 1.814546227
13.63802147 9.957141876 2.425728321
14.29713535 10.48848152 3.151391983
14.08988953 10.22041988 1.217450976
13.60428524 9.843150139 1.808975935
13.94899845 10.12567329 2.459572554
14.04407406 10.20728302 3.104280233
14.1761322 10.20450497 1.220018029
13.58187199 9.748847961 1.805581093
13.93428135 10.03154659 2.454177141
14.00015736 10.08972073 3.091586113
13.64247036 9.719837189 1.808430314
14.0821085 10.06859684 2.468410015
14.00844955 10.01773262 3.087819576
13.88309574 9.829734802 1.824741721
13.86338329 9.82089138 2.438953161
14.19364452 10.08299732 3.113094091
14.68972015 10.36093616 1.235567927
13.90608025 9.770339966 1.824789524
13.78366566 9.682780266 2.426169872
14.60435963 10.31991863 3.175165176
14.44568539 10.09407711 1.228111625
13.94470406 9.723008156 1.826023698
13.96441936 9.744555473 2.444371223
14.25051022 9.969445229 3.112283945
14.2097702 9.949174881 3.744182825
13.85223103 9.566270828 1.21001184
13.97838402 9.671930313 1.826908946
14.0886116 9.761935234 2.45583415
14.26136303 9.910384178 3.748262882
14.45642281 9.941104889 0.5974457264
13.89160538 9.523915291 1.211220145
14.03399849 9.641168594 1.829520941
14.18896008 9.764296532 2.464626074
14.22061348 9.794930458 3.097787619
14.52064323 10.0317049 3.795724392
14.50701427 9.900156021 0.5984482169
13.98235798 9.51602459 1.214006543
14.29463005 9.759292603 1.847265005
13.95622158 9.513539314 2.433960676
14.27189159 9.756030083 3.101256132
14.23122787 9.736552238 3.729276419
25.26494026 17.77399254 0.461076051
14.00249386 9.455311775 1.214650393
13.97863007 9.448033333 1.822295666
14.06908321 9.521751404 2.444133997
14.44415951 9.806663513 3.124320984
14.38359928 9.772790909 3.754286051
36.51161194 25.89105225 0.3198987544
14.43494701 9.697522163 1.227881551
14.05314159 9.427623749 1.82628572
14.37945747 9.674402237 2.477511168
14.31664753 9.635211945 3.098933697
14.42518997 9.726178169 3.756435394
36.20725632 25.47382545 0.3279250264
14.43602371 9.624904633 1.227964759
14.07446098 9.367986679 1.826359868
14.34372234 9.571398735 2.470194817
14.22796345 9.497673035 3.080176115
14.43478203 9.656100273 3.7520504
35.91860962 25.081707 0.3354697824
14.33476067 9.478508949 1.224935651
14.25866318 9.430265427 1.838533878
14.34271717 9.498155594 2.467155218
14.22519493 9.423753738 3.075343132
14.40074158 9.558455467 3.739101171
35.64561081 24.70464897 0.3427460492
14.33512402 9.402783394 1.225020409
14.39967442 9.459949493 1.847515941
14.26544094 9.37034893 2.455238104
14.37190151 9.454157829 3.094326973
14.43821907 9.513092041 3.740875483
35.3570137 24.31072617 0.3503471315
14.13820076 9.186655998 1.219094992
14.29930687 9.308566093 1.838607192
14.33826447 9.34720993 2.460756779
14.33833218 9.354428291 3.084396362
14.69091702 9.614141464 3.785996914
35.08512115 23.92342949 0.3578646779
14.34294796 9.257472992 1.225439191
14.28260326 9.221718788 1.8359586
14.36577415 9.287780762 2.460861206
14.85079193 9.643158913 3.161839008
14.75613117 9.583517075 3.793101788
34.79579163 23.54601479 0.3651270568
14.384799 9.211985588 1.226823211
14.36997032 9.208629608 1.840967774
14.38790035 9.232146263 2.460662603
14.43821716 9.27488327 3.091417551
14.8436861 9.572200775 3.805072069
34.52332687 23.17505455 0.3723095357
14.34273624 9.118685722 1.837664127
14.40666199 9.170550346 2.459958315
14.43925476 9.200670242 3.087177038
34.2832222 22.83019447 0.3790354729
15.14520264 9.589598656 1.250298977
14.23484516 8.966029167 1.828356981
14.85372257 9.406356812 2.508919954
15.02797508 9.534948349 3.176407576
34.16060638 22.56064415 0.384500891
15.18825626 9.541244507 1.251760125
14.81180573 9.289802551 1.869171858
15.00105667 9.427599907 2.522926331
15.07546043 9.490432739 3.179469824
34.28282928 22.47771454 0.3866853416
15.21959209 9.484826088 1.25287509
14.62788677 9.088363647 1.854415536
15.15993786 9.463289261 2.538540363
15.25719357 9.436591148 1.254184484
14.79299164 9.129500389 1.865205646
15.22052288 9.42718029 2.542655945
15.26996326 9.472518921 3.2016325
27.37997818 17.49849892 0.4733344316
15.35118103 9.422374725 1.257238865
14.86918354 9.105745316 1.869456887
15.2924614 9.402336121 2.548238516
15.32388687 9.431471825 3.205764771
63.86338425 42.21356201 13.61829376
27.45070076 17.40728569 0.4755584002
15.36544037 9.354342461 1.257866263
15.02000999 9.1352005 1.879207611
61.68165207 40.0389328 7.86652565
62.55819321 40.65357971 10.62433052
61.04203033 39.69441605 13.0050106
56.21131897 36.05480957 2.509490967
64.22818756 41.44181442 10.86920929
56.45358276 35.93282318 2.517733812
15.43473911 9.180657387 1.905532241
61.63097382 39.39023972 7.838819981
64.58680725 41.35686874 10.90791702
56.45937729 35.67059326 2.518728018
66.27645111 42.09882355 8.358797073
64.47932434 40.98310089 10.8746109
63.38203049 39.6124649 8.007142067
34.09156418 20.6869545 1.834563851
64.35467529 39.96977234 10.80535793
33.7171669 20.26095963 1.823762178
64.36248016 39.61450195 10.78769493
33.86365509 20.18868446 1.828896642
33.70052719 20.1131115 3.213204384
64.35096741 39.29557419 10.76972866
34.17303467 20.22462082 1.839037657
33.99576187 20.13310242 3.232089758
66.14865875 40.06345749 8.278227806
63.69410706 38.59342575 10.65282154
33.6974678 19.7766552 1.825044513
34.1109581 20.04862213 3.238168478
66.1984787 39.79216766 8.274044991
34.52584457 20.10126114 0.4401076436
33.95030212 19.76922798 1.833527923
33.98223495 19.81499863 3.226771355
33.90572739 19.58041382 1.832875729
34.05249023 19.68737221 3.229488373
67.99093628 40.29838181 11.26984692
34.10033417 19.53603554 1.839622736
33.97148895 19.47715759 3.22152257
68.09231567 40.03684235 11.26945496
34.42393112 19.56718826 1.850382924
34.55157852 19.66183853 3.260941505
68.27442169 39.82384872 11.28164291
34.35897064 19.36676788 1.849175215
34.72069931 19.60720062 3.271050215
69.45767212 40.16417313 8.591331482
34.5691185 19.32862091 1.856492758
64.88103485 37.15420914 8.067908287
65.60340881 37.61462402 10.8412714
34.71718216 19.25309944 1.86192143
65.33608246 37.11611938 8.109827042
65.44159698 37.21426392 10.80190468
34.97427368 19.23966599 1.870756388
65.91641998 37.18452454 10.86009693
63.80939102 35.55012512 2.765426874
65.07176971 36.00703812 5.423503399
65.16021729 36.10865021 8.063653946
64.3405838 35.26094055 2.785329103
63.34931564 34.75352097 5.297672272
65.3575058 35.92048645 8.07712841
31.30494308 16.54974747 1.760461569
65.48477936 35.69252396 8.082896233
30.45278931 15.94274139 1.734796643
30.77531242 16.13835716 2.975547075
30.54632378 15.85565662 1.738587618
30.69436646 15.95409966 2.968329906
65.38180542 35.05490494 8.055430412
70.62869263 37.98103333 11.49237347
30.62556648 15.76049995 1.741957188
30.76034927 15.85809708 2.971665621
65.21246338 34.66676331 8.028635025
30.51098061 15.56054878 1.739304781
30.78853989 15.73462772 2.972284079
64.49147034 33.98282623 7.940833569
66.55490875 35.13751984 10.84870529
66.89562988 35.37641144 13.62028599
30.97355843 15.67098713 1.754684091
21.53177834 10.63601303 2.314507961
30.98954773 15.72177792 4.2212286
66.6267395 34.87735367 10.84672356
30.53482056 15.29956341 1.741941214
21.41484833 10.47752571 2.305312395
31.04697227 15.61370564 4.223995686
66.57701874 34.6072731 13.52370739
30.61759186 15.20693016 1.745505452
21.60789299 10.48375702 2.31811142
21.45608902 10.41611958 3.160000801
63.660923 32.7163887 10.37497139
66.26329041 34.14477539 13.44640255
31.53414154 15.53110886 0.5335108042
21.97395897 10.56159687 1.475794077
20.82819366 9.98039341 2.262062311
21.24648857 10.21121311 3.134454012
64.62326813 32.9377594 10.5080061
66.69812775 34.07874298 13.51231289
60.54409409 30.38064766 0.3060765564
21.79159164 10.3747921 1.470767856
20.96335411 9.958217621 2.270830631
21.16648865 10.0757122 3.123298883
63.87554169 32.27779007 10.38453102
67.02829742 33.9555397 13.55830002
21.43392181 10.09986401 1.460240245
21.09671593 9.938916206 2.279528379
21.38305092 10.09845924 3.145011663
63.95594406 32.05175018 10.38575649
21.18166733 9.877253532 1.453049421
21.47916222 10.04573917 2.305847883
21.3074398 9.970637321 3.134539843
64.44373322 32.01998901 10.44762325
64.36211395 32.03112793 13.01993084
21.08520508 9.73577404 1.45075345
21.31040001 9.866378784 2.293188095
21.33255386 9.890033722 3.135096073
64.59603119 31.81506729 10.45926666
21.20079231 9.701519012 1.455139995
21.53862 9.887688637 2.308601379
21.38405228 9.822771072 3.138591766
64.57052612 31.52052307 10.44444466
34.61692047 16.24091148 0.5299099684
21.23578835 9.626635551 1.457006812
21.46691895 9.758382797 2.302857399
21.19650841 9.636550903 3.115863562
65.0122757 31.45973587 10.49960804
21.70897102 9.754509926 0.6282452345
21.31896591 9.575444221 1.460408926
21.0328331 9.451647758 2.271577835
21.25252533 9.572313309 3.119943857
66.83384705 32.07695389 10.76070118
21.79099274 9.700572014 0.629897356
21.42181587 9.533419609 1.464451432
21.77190018 9.716703415 2.32305789
21.4979229 9.600413322 3.144821167
37.78626251 17.31229401 0.5182375908
21.80727577 9.627289772 1.477454185
21.2192173 9.355809212 2.283490896
21.57359505 9.539904594 3.1510005
64.65568542 30.44491386 10.41486263
68.04669952 32.13056183 13.62356949
21.49396324 9.388372421 1.468325496
20.97936249 9.154336929 2.266052961
21.60425186 9.46670723 3.152479887
64.75821686 30.23079872 10.42047119
21.49895668 9.298776627 1.46931982
21.00160408 9.079670906 2.267115116
21.56636238 9.360933304 3.146494627
64.23905182 29.7066555 10.33332634
39.53458405 17.66441154 0.5175955296
21.35523415 9.139514923 1.465605497
21.12281227 9.04722023 2.275144815
21.6053772 9.287417412 3.148865461
64.80326843 29.69940567 10.40732956
68.99714661 31.73700523 13.75892448
39.58644867 17.52046585 0.5213144422
21.63650131 9.1798172 1.475401998
21.36883545 9.072303772 2.291982412
21.48005676 9.137078285 3.133324623
65.75954437 29.87177277 10.53947639
71.19434357 32.47416687 14.1568222
39.64687347 17.38057518 0.5249833465
21.72410393 9.128609657 1.479068875
21.68593407 9.128468513 2.313837767
21.52733231 9.068032265 3.136680365
65.07781982 29.27728653 10.42883968
39.70680618 17.24046326 0.5286646485
21.72434998 9.036977768 1.479971647
21.78413582 9.081912994 2.320305347
22.01394272 9.200486183 3.187973976
66.79901886 29.79368591 10.67421722
39.78627777 17.10924911 0.5322285891
21.77702713 8.969404221 1.482560039
21.61512184 8.913492203 2.308000326
67.46021271 29.81384087 10.76253796
45.27596664 19.40436363 0.5016343594
22.2297039 9.099308968 2.35083127
50.78179169 21.67186356 0.4718005657
71.4206543 30.8890934 3.072745562
21.99812508 8.90312767 2.334179401
56.35136795 23.91256523 0.4429325163
27.52946472 11.23721981 1.669616938
22.01756287 8.824574471 2.335221291
70.64527893 30.34951019 8.469086647
66.5480957 28.57802582 10.60088634
61.93711853 26.1146698 0.4151016176
71.84906769 30.48139572 3.09273386
72.13430023 30.75302696 11.41515636
27.60595512 11.041749 1.674511671
26.78556252 10.5760994 1.649362803
81.57015228 34.1685791 9.639629364
83.53578186 35.06552505 13.07359886
27.53016853 10.78173256 1.674576044
27.45849419 10.77368259 2.716289043
81.62512207 33.8560524 9.640106201
83.4770813 34.6966362 13.05461407
26.71921349 10.32780361 1.649683475
27.13832664 10.52606964 2.693541288
80.68180084 33.17341995 12.63403702
26.99621964 10.33365059 1.659883857
27.18334389 10.43370819 2.696475029
80.93419647 32.94878006 12.66145325
27.31240463 10.35368347 1.671393037
27.04367256 10.25951004 2.686463356
81.03583527 32.6606369 12.66690636
27.48467445 10.31274986 1.678283572
27.20232201 10.21425056 2.697440386
27.25662422 10.10899734 1.672213554
27.56449127 10.25035667 2.722734928
81.69510651 32.26981735 12.74507046
27.08131409 9.928514481 1.667850494
26.98605537 9.912527084 2.68203187
81.75752258 31.96439743 12.74525166
27.23036385 9.878149033 1.674044251
27.14770317 9.867704391 2.693310022
84.25678253 32.6291275 13.1017561
27.77739906 9.965716362 0.6516620517
26.71866989 9.573352814 1.65865767
27.32608223 9.828435898 2.705793381
84.60582733 32.4446373 13.14434338
27.80395126 9.869982719 0.6542129517
26.63195038 9.432385445 1.657178164
27.02831078 9.602970123 2.684883595
27.69729614 9.885911942 3.776997805
26.7405262 9.367388725 1.662091494
27.70535851 9.760713577 2.732431889
27.76786232 9.802214622 3.783236504
86.89687347 32.65116501 13.46132755
26.86205864 9.306733131 1.66745472
27.0875473 9.414752007 2.689116478
27.67456436 9.655737877 3.771846294
89.49626923 33.29760361 13.83167934
26.83191872 9.188384056 1.667868853
27.04846954 9.292104721 2.686456442
27.74440002 9.571911812 3.778096914
27.02424049 9.153300285 1.675604939
27.36040688 9.300948143 2.708470106
27.65741539 9.429211617 3.767491579
27.45113373 9.203331947 1.691096425
27.53416824 9.256646156 2.720815897
27.74522591 9.352085114 3.775766373
27.31894875 9.046650887 1.688217521
27.52423859 9.144174576 2.720296144
27.99354935 9.333250046 3.801361799
26.93041611 8.804265022 1.676800609
27.73159409 9.110521317 2.735065699
27.80047035 9.15307045 3.779480696
27.22198486 8.802242279 1.687923074
27.83943939 9.039958 2.742880821
92.53601074 32.28123093 14.22518921
27.65714073 8.848833084 1.703848958
27.75725365 8.907155037 2.737365484
27.87209892 8.81549263 1.712531447
32.79846191 10.56030273 3.091831923
35.07187653 11.19554234 1.953338146
32.83610916 10.44523907 3.094868422
92.35159302 31.14942741 14.17663383
65.58963013 21.42499542 0.5519761443
34.70506287 10.93379402 1.943125725
32.8620224 10.32618046 3.097117424
32.77575684 10.12756538 0.6731699705
35.38248444 11.02726936 1.96771872
32.90259552 10.21857738 3.100408792
35.73469543 10.98467159 0.6664515138
35.42185974 10.903162 1.971091509
32.89363098 10.08163071 3.100302219
34.92738724 10.59648609 1.956722021
32.92959213 9.966298103 3.103366613
107.3499146 33.95577621 0.4459031522
34.7960701 10.41895676 1.954387426
32.96323013 9.843815804 3.106334209
107.4385529 33.57062531 0.4564797878
35.11688232 10.38808346 1.967243791
32.99462128 9.73337841 3.109120846
35.09877014 10.24738407 1.968752027
33.03316879 9.618909836 3.112477541
42.87440872 12.52539921 0.6641290188
35.22696304 10.15307045 1.975208402
35.49066162 10.26556015 3.286166668
49.80128098 14.50418282 0.6492133141
35.54585648 10.11715221 1.988140821
35.6472702 10.1785059 3.297964096
35.95475388 10.10666561 2.004176617
42.81985474 12.24457932 3.804046631
42.29934692 11.8881197 2.221495628
42.75818253 12.06281853 3.800719261
42.8358078 11.88749123 2.242378712
42.91369247 11.94689465 3.812743664
42.58281326 11.65043449 2.236490726
42.82554626 11.56797695 2.247354269
43.48122787 11.60280991 2.272369862
101.3151932 22.95108604 4.344445705
88.08208466 17.59519196 3.925262451
87.98912048 17.25556946 3.928664207
88.20519257 16.99582863 3.942812443
81.77462769 14.50680542 3.738348722
81.30867767 14.12565994 3.728000641
81.45074463 13.85843468 3.739659071
81.28889465 13.53653336 3.740346193
81.19271851 13.22762966 3.743442059
81.24119568 12.94438267 3.75184536
96.9183197 15.26881123 4.331827164
79.98779297 12.10186386 0.889347136
75.14917755 11.36745548 3.54197073
75.45417023 11.09479809 0.8913642168
75.08464813 11.08831406 3.545864105
75.15335846 10.83073521 3.554694176
75.09078217 10.55289364 3.558733463
30.14039993 3.357914448 0.8444874883
91.88065338 11.16950417 4.225579262
69.2641449 6.678468227 0.9833369851
69.36843109 6.457296371 0.9905462861
63.02916336 5.607634068 3.191277027
62.53814316 5.336600304 3.178360939
62.52544785 5.115240097 3.183718443
62.75663376 4.871553421 0.9976249337
62.24928665 4.869657516 3.178989172
62.38024902 4.662505627 3.189922571
62.52446365 4.455704212 3.201427937
62.65006638 4.246460915 3.212278366
64.02735138 4.088542938 1.028985023
63.97338104 3.848631144 1.03591764
58.73603439 1.403908968 1.078520298
58.57979965 1.193118215 1.084079862
56.71088791 1.16828239 3.056390762
58.62669754 0.9900525212 1.090665936
56.75115967 0.981540978 3.063617706
56.21766281 0.7258349061 1.084005713
56.56509018 0.7877835035 3.061785221
56.5825882 0.5487285852 1.091771245
56.43454361 0.5869804025 3.062481642
56.7232399 0.3543292582 1.098702073
56.47710419 0.3910325766 3.070183039
56.50528717 0.1523419023 1.103667021
56.7427597 0.1991489232 3.086968899
56.90799332 -0.006057930179 3.100071907
57.9368782 -0.8417497277 1.143758655
57.80867004 -1.053616762 1.14966476
58.05980301 -1.246706963 1.157333374
58.08420181 -1.449503541 1.163920164
58.00390625 -1.651075006 1.169833422
57.44898605 -1.844374418 1.172563195
55.53111649 -1.770650029 3.099310875
55.57371902 -2.007557869 1.166187644
57.40893173 -2.244416714 1.185097218
55.5553894 -2.148944616 3.112666368
57.33615494 -2.432836056 1.190684557
55.61037064 -2.344202518 3.121357679
57.12251663 -2.626577377 1.195584774
55.62071991 -2.538594246 3.128221512
57.02816391 -2.82285881 1.201314926
57.19256973 -3.038163662 1.209266901
56.93693542 -3.227528572 1.213804126
57.01633453 -3.430045605 1.220844269
59.2142334 -3.941577911 1.250976801
30.51912498 -2.444925785 2.093675852
59.19921875 -4.147889137 1.257595539
34.64399719 -2.92276144 1.066597223
30.55297089 -2.785759687 1.036969066
30.54541206 -2.756131649 2.105516911
30.55002022 -2.732485294 3.177777767
34.67512131 -2.952256918 4.723875046
59.37075424 -4.760068417 1.278636456
30.56254196 -2.864161491 2.109994173
30.55547523 -2.834385157 3.181982517
34.70937347 -3.069630861 4.732318878
34.67301178 -3.039631367 5.96133709
34.65010452 -3.010054111 7.203007698
30.5749321 -2.977408648 2.114480019
30.5877037 -2.948856592 3.188724518
34.67577362 -3.104111671 8.47557354
57.40590668 -5.054939747 1.276245475
30.56735992 -3.084003925 2.11793375
30.59762192 -3.062075615 3.193759918
57.42767715 -5.247833729 1.282723784
30.61191368 -3.164992332 3.198769093
57.47669983 -5.443178177 1.289460897
56.72896576 -5.583274841 1.289506793
56.75123215 -5.79447794 1.29662776
56.44001007 -5.723047256 3.2722826
56.98474503 -6.014949322 1.305360317
56.50018692 -5.926712513 3.282123566
57.07204437 -6.223500252 1.312816262
56.94557953 -6.412168026 1.318318963
56.9723587 -6.369477749 3.317598104
56.55899048 -6.528952599 3.306564331
31.04765129 -3.960572958 3.26311779
31.02858543 -4.067955494 3.266028643
30.87250137 -4.191055775 2.170628309
30.36874008 -4.107658863 3.217695713
30.34462357 -4.217473984 3.220391512
