# .PCD v0.7 - Point Cloud Data file format
VERSION 0.7
FIELDS x y z
SIZE 4 4 4
TYPE F F F
COUNT 1 1 1
WIDTH 1312
HEIGHT 1
VIEWPOINT 0 0 0 1 0 0 0
POINTS 1312
DATA ascii
14.27586842 15.60894299 4.503111362
14.33991432 15.61650658 5.339820385
14.486269 15.69113541 6.214432716
17.06451035 17.99079704 1.282106161
16.49557495 17.4738102 2.183449507
14.28220367 15.59474754 2.869786501
14.31770706 15.57949448 3.683547258
14.43857574 15.6392622 4.521803856
16.51708031 17.29657364 5.840745926
17.24456978 17.8398056 6.978962421
17.04949951 17.90868378 0.3480974138
17.08075905 17.88341331 1.278713465
16.48377037 17.34708977 2.176783085
14.41807365 15.60259724 2.87559557
17.15941238 17.80078316 4.08404541
14.58484268 15.65486622 4.537270546
14.61439896 15.63372421 5.375344276
14.66617775 15.63014317 6.231085777
17.06078339 17.79746437 0.3468495905
17.06417465 17.75562859 1.275247216
16.49608231 17.24088287 2.171477556
14.69644356 15.72556973 2.895426989
14.60209751 15.60946178 3.705149412
14.60843182 15.56999969 4.529429913
16.49912643 17.05218506 5.804018974
17.21908188 17.58792496 6.933742523
17.05622673 17.67985535 0.3462332189
17.06539917 17.63717461 1.271795988
16.53427696 17.15619087 2.167605162
14.57023907 15.52381325 2.875731468
14.73984432 15.61668396 3.71497798
17.11261177 17.48670959 4.9904809
16.52020645 16.96090126 5.793762207
14.96406937 15.66691589 6.281701088
17.06023788 17.56390381 0.345271349
17.05516052 17.51012802 1.268287063
16.60353661 17.10250664 2.165709734
14.96772766 15.73964787 2.907077551
17.21406555 17.49474525 4.058460712
14.92095375 15.61835003 4.564526558
15.01866436 15.65141964 5.427052975
15.12397194 15.6897459 6.30948925
17.05122757 17.43810654 0.3447979987
17.0552063 17.39211082 1.26489985
16.69263077 17.05877113 2.164585829
14.90083885 15.58102036 2.892922878
15.02546787 15.63622093 3.735928059
15.07285213 15.6346693 4.580823421
16.47877121 16.7019558 5.752549648
15.21982193 15.66084194 6.31929493
17.04315186 17.3138237 0.3443010151
17.06120872 17.28535461 1.261761904
16.80200577 17.03077126 2.164533377
15.02064514 15.5716362 2.897015333
15.15834141 15.6418314 3.745408535
15.18311214 15.61705971 4.5892663
15.22048378 15.60708332 5.445712566
15.23160458 15.57083607 6.306571007
17.04258537 17.20207977 0.3435771465
17.05104828 17.16632462 1.258529425
16.90862083 17.00575066 2.164622307
15.26657486 15.66594696 2.913651228
15.18511963 15.56328392 3.739855766
15.18337536 15.51796246 4.577817917
15.40086555 15.64870548 5.473770618
15.5159502 15.6932478 6.369508266
17.04150581 17.09052086 0.3428810537
17.04189873 17.04878235 1.255339026
17.00271416 16.97033882 2.164057255
15.1566267 15.48003578 2.895910978
15.30564976 15.55803871 3.747564077
15.47694397 15.64730549 4.620896339
15.50030708 15.62095451 5.482304573
15.53847027 15.61087036 6.359782219
17.04148674 16.98038292 0.3421548605
17.03814316 16.93036079 1.252061009
17.06173706 16.90144539 2.161400318
15.47889614 15.63128948 2.919764757
15.49806881 15.60241604 3.764839172
15.49585342 15.56207275 4.612935543
15.66271496 15.64637089 5.506026268
15.80038261 15.707201 6.415267467
17.03585625 16.86069679 0.3416070342
16.36352539 16.29274178 1.243956327
16.41415405 16.29209328 2.122761488
15.47638607 15.5240202 2.912054062
15.59329224 15.5705452 3.768430948
15.73784256 15.63759232 4.644976616
15.79366589 15.64127731 5.521718502
15.85179424 15.64088058 6.412675381
16.35964966 16.21874237 0.365822196
16.38642883 16.19437408 1.240888357
16.41325188 16.17553902 2.117015123
15.71191883 15.59417725 2.926686049
15.79223347 15.61201859 3.78598094
15.79001808 15.56661987 4.641979218
15.92424107 15.62973499 5.536557674
16.00217056 15.64410877 6.436411381
16.37748718 16.11664772 0.3644151092
16.38715363 16.08494759 1.237846494
16.41176224 16.05919456 2.111300468
15.75124073 15.51329613 2.922632456
15.90674591 15.59321213 3.792201757
15.97680283 15.60252762 4.664272308
16.29081535 15.7949295 5.605072975
16.13775063 15.64043522 6.456854343
16.37047958 16.00705719 0.3640067279
16.36823463 15.96120262 1.234703422
16.42141533 15.9573679 2.106474161
15.93485546 15.55186272 2.932971478
16.1580162 15.67650986 3.81730938
16.12983704 15.61696815 4.680895329
16.07990456 15.53576851 5.543582439
16.12781715 15.52740669 6.437663078
16.37515259 15.90143871 0.36313954
16.35887337 15.85085487 1.231809258
16.40402412 15.84112453 2.100599289
16.13426781 15.59553623 2.944360018
16.09528923 15.52859783 3.799495459
16.09681511 15.48653793 4.663027763
16.55896378 15.78610039 5.637905598
16.59230423 15.77140427 6.548100948
16.35913849 15.78625298 0.3630825281
16.36439896 15.74685192 1.228896141
16.39347076 15.72528744 2.094864845
16.07555008 15.45107174 2.931886911
16.49748039 15.72115517 3.845176458
16.56828117 15.73516941 4.737337112
16.42274475 15.58384418 5.593636036
16.42504501 15.541502 6.486336231
16.36439705 15.68220043 0.362210989
16.43432617 15.69652081 1.226566434
16.50828743 15.70826817 2.095684767
16.50163078 15.66022396 2.964349985
16.41512108 15.55873585 3.824758768
16.3565464 15.47263718 4.687190533
16.51343727 15.54424381 5.600004673
16.72432899 15.65961647 6.551568031
16.46308136 15.65304279 0.3579081297
16.57593155 15.69342422 1.22454536
16.64834213 15.70371532 2.097487688
16.35732841 15.45279121 2.94397974
16.43394852 15.4663105 3.81782794
16.66854095 15.59981918 4.732306957
16.71617317 15.5909462 5.632200718
16.79614449 15.60500717 6.554528236
16.60400009 15.64358044 0.3519691229
16.70000458 15.67652416 1.222407699
16.79020882 15.69954872 2.099362373
16.64269066 15.54932499 2.962799072
16.72271347 15.57005024 3.847650766
16.74459648 15.54289627 4.733651161
16.86390495 15.58570957 5.650561333
17.08675766 15.70755672 6.616161346
16.74805641 15.64623165 0.3459789753
16.84362411 15.67304325 1.220380783
16.92744637 15.69105148 2.100990295
16.73632431 15.51559734 2.964548826
16.85111809 15.55577278 3.855583906
17.01796341 15.63811493 4.771502972
17.14275169 15.68405151 5.699470997
17.16678619 15.6572361 6.621236801
16.89006042 15.64101505 0.3400315046
17.01408577 15.69336128 1.218642592
17.07363892 15.69352627 2.103293896
16.98162079 15.58479977 2.979860306
17.10162735 15.6333847 3.880444765
17.13361359 15.61319447 4.780439854
17.14341354 15.5822525 5.686342239
17.15487862 15.54678917 6.602662563
17.01833725 15.63040638 0.3346281946
17.04506493 15.61257172 1.216098428
17.0769558 15.59299469 2.098641396
17.0902195 15.56005573 2.982933998
17.10973549 15.53682709 3.872562408
17.10140038 15.48828506 4.76364994
17.14362144 15.48061371 5.673237801
17.15365028 15.44445515 6.587088108
17.01329041 15.52396011 0.3342022002
17.03590202 15.49802494 1.213210821
17.06516075 15.48219872 2.093304396
17.07673454 15.44839287 2.974877834
17.13295937 15.44597435 3.866319656
17.09934807 15.38537693 4.752346992
17.14268112 15.37331295 5.659320831
17.14647102 15.33313942 6.569291115
17.02498245 15.42450905 0.333126992
17.01801682 15.37796211 1.210309148
17.0798893 15.38532162 2.089047194
17.07994461 15.34372711 2.968058109
17.1069355 15.32093906 3.853568077
17.10096359 15.28021908 4.741230965
17.12508774 15.25494671 5.641872883
17.15481949 15.23318481 6.555764198
17.02477646 15.31712246 0.3325046003
17.02161407 15.27898216 1.207692266
17.05978775 15.26448917 2.08316803
17.07448959 15.23351288 2.960523605
17.10881615 15.2213707 3.845106125
17.09721756 15.17184067 4.729280949
17.11339569 15.14134789 5.625878811
17.13449287 15.11914921 6.535601616
17.00846481 15.2043438 0.332524091
17.02727127 15.1765604 1.20497489
17.0538826 15.15421104 2.078024149
17.07260132 15.13161564 2.953732491
17.08982849 15.10257721 3.833502531
17.09375763 15.06945419 4.718053818
17.1116848 15.04045296 5.612878323
17.13706207 15.01620102 6.520854473
17.00232124 15.09394264 0.3321407735
17.0176506 15.06404877 1.202209115
17.04992294 15.05112839 2.073264599
17.06614113 15.02180672 2.946252823
17.08174324 14.9919548 3.823449612
17.08084869 14.95588207 4.704726219
17.13149452 14.94946957 5.60404253
17.20384598 14.95732212 6.523075581
16.99895287 14.986022 0.3316621184
17.01079178 14.95403671 1.199488282
17.04630852 14.94352341 2.068330526
17.06905937 14.91895008 2.939685583
17.10438347 14.90278721 3.817545652
17.15259743 14.90032005 4.706305027
17.26506615 14.93566895 5.620075226
17.35313034 14.95386982 6.546900749
16.99673653 14.879426 0.3311485946
17.02491951 14.85886765 1.196896672
17.0802269 14.86191845 2.065207481
17.13098526 14.85647583 2.938443184
17.23378754 14.88589954 3.825747252
17.31125069 14.9029932 4.723045826
17.4183979 14.93427944 5.640360832
17.51076508 14.95497799 6.572832108
17.06024742 14.81784344 0.3281759024
17.13643456 14.8297863 1.19477725
17.21660805 14.84945488 2.066899776
17.28214264 14.85377884 2.945151806
17.37158394 14.87381458 3.835026979
17.47016525 14.90473747 4.739775658
17.17998695 14.79388618 0.3230952621
17.28455162 14.82458973 1.192820787
17.34484482 14.83065891 2.068199873
17.42357063 14.84356499 2.95097065
17.32475853 14.78590298 0.3170748651
17.37625504 14.7808733 1.190610647
18.57412148 15.33802223 6.802718639
18.53522873 15.28749371 4.890847683
18.57594299 15.27799034 5.838359356
18.60696983 15.25632858 6.796560764
18.53083801 15.29841995 2.108976126
18.5099144 15.24409103 3.026578426
18.54965401 15.23465347 3.953887701
18.54946899 15.19362068 4.882801533
18.58203888 15.17897224 5.827168941
18.44260597 15.17226124 1.187419057
18.5062809 15.17881203 2.103340864
18.51204491 15.14223862 3.020295143
18.68297386 15.21217537 3.962207556
19.15671158 15.39767933 6.90785408
18.45692635 15.07293892 1.184834123
18.50795746 15.0659399 2.098482609
18.54137611 15.05288029 3.016102552
19.1582737 15.32507992 5.92326355
19.1707077 15.29670525 6.896089554
18.56681442 15.03517914 1.182632089
19.17818451 15.30998325 4.008107185
19.13903236 15.24423695 4.950583458
19.1667366 15.22067642 5.911963463
19.19750977 15.20413589 6.887722969
19.1223011 15.28007317 1.182048321
19.09565735 15.2228756 2.115647554
19.10475159 15.19388103 3.051440239
19.15758514 15.1868782 3.996611118
19.13607597 15.13828754 4.939725399
19.05645943 15.1336031 1.179313421
19.10403824 15.1236887 2.111579895
19.10033607 15.08146286 3.044345379
19.16427422 15.08699512 3.989135742
19.05770111 15.03018856 1.176846743
19.1035347 15.01931 2.107156754
20.09090614 15.33323479 7.056096077
20.02781296 15.26534748 5.048416138
20.07126808 15.25654125 6.041111469
20.09670448 15.23077583 7.04324007
20.00140953 15.20698547 3.095317602
20.0541935 15.19894981 4.067466259
20.04291344 15.15739059 5.039616585
20.08729553 15.14371395 6.030325413
20.12290001 15.1243372 7.033410072
19.96365929 15.14620399 1.1693995
20.01958084 15.14045048 2.129188061
20.01695251 15.10475349 3.089995861
20.13791084 15.13786888 4.069316387
20.06601715 15.05461311 5.032259941
20.48542976 15.26569176 6.099964142
19.97719002 15.04268169 1.166876197
20.08961296 15.07094193 2.127664566
20.6614151 15.26358414 6.124394894
21.4281044 15.26275539 6.232553005
21.47463608 15.25436115 7.282993793
21.43921852 15.23495102 4.180521965
21.47101974 15.21886158 5.202727795
21.46006584 15.17229843 6.227092743
21.52102661 15.16649723 7.279735565
21.3259697 15.167943 1.155323505
21.36877251 15.15887165 2.156101704
21.42697144 15.15273762 3.162682772
21.91773605 15.27681637 7.362891197
21.33732033 15.05954933 1.152837634
21.38703156 15.0545311 2.152377129
21.87705421 15.21925735 5.248094559
21.91744423 15.20176411 6.295613766
22.00853539 15.21232224 7.370535851
21.82643509 15.14865971 3.1826334
21.9042511 15.15865135 4.212540627
22.0580616 15.20503044 5.267098427
21.79227448 15.09205532 1.148900747
21.93505478 15.13293076 2.166499615
22.6065712 15.24130726 6.398920536
22.62918854 15.21316624 7.479496002
22.61347008 15.20167637 4.27367115
22.58416748 15.15181828 5.321657658
22.63038063 15.13713074 6.39126873
22.70288086 15.13632488 7.482962608
22.49291039 15.13584805 1.142839193
22.52027321 15.11176205 2.177740335
22.54740334 15.08748055 3.216123581
22.61170959 15.08913612 4.26546669
22.6545105 15.07296467 5.322648048
22.6980896 15.06275082 6.39320755
22.7136364 15.03118038 7.471915245
22.49420929 15.02488613 1.140505552
22.55662918 15.02001762 2.175047874
22.59420586 15.00155258 3.213871002
22.6637516 15.00602531 4.263850212
22.66112328 14.9655056 5.313938141
22.70485497 14.95551109 6.38291502
22.72052574 14.92427254 7.460053444
22.56440926 14.94559956 1.138177037
22.61906624 14.94238472 2.173458815
22.60204124 14.89473534 3.20851016
22.65834236 14.88629818 4.254939079
22.65507317 14.85163403 5.303286076
22.74144173 14.85864258 6.378124714
22.83826065 14.87070274 7.474443913
22.57439613 14.83394241 1.135780811
22.62550163 14.82890892 2.169384718
22.62244415 14.78910446 3.203907728
22.6998558 14.79193401 4.251763821
22.84176064 14.83436012 5.323132038
22.94834709 14.85174179 6.407608032
23.02171898 14.85107899 7.504724026
22.59982491 14.73081589 1.133430362
22.6738739 14.73797798 2.167065382
22.78183746 14.75700283 3.210524082
22.91353607 14.78815365 4.269307137
23.02513313 14.81412029 5.342411041
24.08454323 15.28898811 7.746851921
22.80721474 14.72350311 1.131319284
22.88719559 14.72767067 2.171262026
22.97137833 14.73967743 3.219545603
24.02457047 15.21112442 5.491353035
24.15909195 15.241045 6.624976635
26.20749664 16.37835312 1.132714987
23.93196678 15.15374851 2.209272146
23.98894882 15.1442976 3.294337273
24.03960991 15.13742256 4.387671471
24.04605675 15.10144329 5.484498024
24.53031921 15.27658272 7.825191021
26.23903656 16.26981926 1.130255818
23.99320602 15.07037163 2.207599401
24.00222015 15.03628159 3.289410591
24.47193718 15.20482826 5.542467594
24.51117134 15.19117928 6.671770573
24.38164711 15.15416241 2.219084978
24.44341469 15.14671898 3.318514109
24.50724411 15.14622307 4.427649498
24.46076202 15.07824516 2.21812892
25.08202362 15.24686909 6.761785507
29.71872902 17.630476 1.125200868
29.68736839 17.46993637 1.122382283
25.56661606 15.22093201 6.831272602
25.60933304 15.2080965 8.012026787
29.65529442 17.30981636 1.119601727
25.5587101 15.1712141 4.518634319
25.5525856 15.12896729 5.662102222
26.02170181 15.38992691 1.115146875
25.48922729 15.08991241 2.241501331
25.50123596 15.05713367 3.370669603
25.54316521 15.0450716 4.509063244
25.56206703 15.01537037 5.654022217
26.19711304 15.25000668 8.123685837
26.1043911 15.30270386 1.112783194
25.48928452 14.97136879 2.237455368
25.50302505 14.9397192 3.364958525
26.14564705 15.17858219 5.735808849
26.17478752 15.1530695 6.915665627
26.2062664 15.12834835 8.111761093
26.197649 15.22028351 1.110438704
26.10936546 15.10653687 3.406089544
26.16127396 15.0925808 4.565233707
26.15227318 15.05560112 5.726780891
48.49023438 25.65079689 11.26803589
48.53249741 25.60178947 13.35714817
36.12346268 19.83662987 1.110785127
26.10983276 15.01888752 2.253245115
26.1244278 14.98743153 3.401109695
36.29072952 19.77018929 5.737818718
48.49409485 25.43276215 11.24800396
48.52959061 25.38103485 13.33231163
36.11872864 19.66503334 1.107679367
36.20655823 19.6640625 2.64085269
36.20759201 19.61353493 4.176173687
36.26618195 19.59000206 5.724276066
48.48100662 25.20750618 11.22489548
48.53287125 25.16389847 13.30919075
36.11328125 19.49370003 1.10461247
36.1739502 19.48008728 2.634016037
36.20383453 19.4435482 4.167819023
36.23725891 19.40851784 5.710356236
48.46340561 24.98094749 11.20114231
48.52814865 24.94375992 13.28445339
36.08717346 19.31335068 1.101583719
36.19129944 19.32012177 2.629178524
36.20661545 19.27716255 4.160059929
36.2436676 19.24414444 5.700659752
48.48064041 24.77125549 11.18438625
48.51897049 24.72229004 13.25893402
36.09524918 19.15788841 1.098743677
36.14265442 19.13020134 2.621865511
36.19648361 19.11371231 4.151789665
36.22815323 19.07853889 5.689057827
48.46962738 24.56007957 11.16335487
48.50476074 24.51012802 13.23365593
36.08272552 18.99343491 1.095938206
36.14324188 18.98031616 2.617048264
36.17662048 18.94639587 4.142858028
36.22333908 18.92669678 5.679308414
48.46136856 24.35084724 11.14306355
48.48207474 24.30563736 13.2077837
36.07318497 18.83091545 1.093167663
36.11179733 18.80807686 2.610795498
36.17245102 18.78678894 4.135215282
36.23869324 18.76782227 5.670969009
48.43431091 24.13388443 11.11934757
48.48633575 24.09240913 13.18614483
36.04785919 18.65357018 1.090292215
35.98423767 18.58522606 2.600692749
36.15253448 18.6123848 4.126072407
36.20980453 18.58964348 5.657660484
48.42298889 23.91398048 11.09791946
48.48257446 23.87626457 13.1628933
36.06074524 18.5022049 1.087585926
35.79348373 18.33592987 2.588293076
36.15559387 18.44884109 4.118774891
36.20623016 18.43159294 5.64786768
48.41616821 23.69680977 11.07758045
48.45426559 23.66071701 13.1353054
36.05413437 18.33437157 1.084779024
36.00221634 18.26430893 2.591082335
36.18055344 18.30358315 4.113595486
36.21417999 18.27085876 5.639009953
48.43162918 23.50069618 11.06266975
48.45772171 23.44913483 13.11422443
36.01751328 18.15398979 1.082022548
36.10894775 18.15525436 2.590295076
36.14942551 18.1260128 4.103871346
36.19592667 18.09923172 5.627272606
48.41768265 23.28174591 11.0413847
48.45134735 23.23393631 13.091115
36.03151321 17.99631691 1.079280496
36.13578033 18.00314522 2.586291075
36.15602493 17.96543312 4.097095013
36.20438004 17.93969154 5.618695259
48.5343399 23.18073845 9.024940491
48.40646744 23.06469917 11.02083969
48.46029282 23.02595329 13.07178593
35.88017273 17.77630997 1.076803684
36.12712097 17.83612633 2.581014872
36.14180374 17.79640961 4.088832855
36.19462585 17.78095055 5.608623981
48.3762207 22.84031677 10.99688244
48.43215179 22.8134079 13.0452137
35.72703171 17.54909134 1.074248075
36.10673141 17.66469955 2.575363636
36.14970016 17.64544487 4.082676888
36.19448853 17.61867142 5.599283695
48.39575577 22.64818382 10.98352814
48.43582916 22.60442924 13.02514553
36.0042305 17.50448418 1.071436286
36.11777115 17.51519012 2.571184158
36.14703751 17.48231888 4.075452805
36.18819046 17.45430946 5.589356422
48.3928566 22.43664742 10.96520042
48.42240143 22.38894463 13.00139427
35.98246765 17.33365059 1.068858981
36.10074615 17.33821297 2.565542936
36.1308136 17.31408119 4.067298412
36.19962311 17.29776573 5.581539631
48.47682953 22.3100071 8.956119537
48.37825394 22.21043396 10.94398117
48.43524933 22.18495369 12.98390388
36.01459885 17.17763138 1.066146255
36.09861755 17.17606544 2.560754299
36.11487198 17.13853073 4.058914661
36.18748093 17.12394142 5.570724487
48.35717773 21.99282837 10.92263794
48.41833878 21.95892715 12.95883465
36.00997925 17.0148735 1.06362617
36.10975266 17.01177406 2.556281805
36.12682343 16.98292351 4.053040504
36.16812134 16.95579338 5.559661865
48.36078262 21.77548981 10.90532303
48.43313599 21.75683784 12.94226456
36.01490402 16.86449242 1.061255574
26.64224815 13.05089188 2.205055952
36.12982178 16.83209038 4.046913624
36.13976669 16.79262161 5.548141003
48.50998306 21.70541382 8.918579102
48.35634613 21.58670425 10.88923836
48.39993668 21.5464592 12.91596699
36.02573776 16.70884323 1.058786631
36.10535049 16.66272163 4.038491726
36.15417099 16.63908958 5.541085243
48.34737015 21.37591553 10.8707962
48.36581802 21.32616425 12.88872337
36.02765274 16.55799866 1.056480885
36.08460617 16.53799248 2.542211294
36.10617065 16.50395393 4.032031536
36.13935471 16.48233032 5.531288624
48.34855652 21.16973686 10.85447025
48.38377762 21.13730431 12.87451458
36.00937271 16.39165306 1.054109454
36.06809998 16.37256432 2.537191391
36.09437561 16.34861565 4.025040627
36.17481613 16.33774185 5.526780605
48.37483978 20.98409843 10.8438673
48.37533188 20.92834091 12.85356712
36.02688217 16.24772263 1.051847696
36.1041832 16.2359581 2.534352541
36.25961685 16.25422668 4.030858994
36.50409317 16.31439972 5.555500984
48.4758606 20.82745552 10.84744549
48.3680954 20.73069382 12.83406258
36.38177109 16.23374748 1.049183726
36.47014236 16.22595406 2.543470621
36.66057205 16.25702095 4.054359436
36.87453079 16.30465889 5.588760853
48.52668762 20.65146255 10.84174061
48.34729767 20.52845764 12.81170177
36.77891922 16.22550392 1.04633832
36.84019852 16.21511459 2.552712679
37.07130051 16.26086426 4.078530788
37.29267502 16.30245399 5.626846313
48.4889946 20.48624039 8.835419655
48.5249939 20.44558716 10.82557392
48.34925079 20.32521248 12.79378128
37.15776443 16.20764923 1.043506145
37.25337219 16.20188713 2.563049316
37.46087265 16.24596786 4.10078764
37.71875 16.30030823 5.665742874
48.48223877 20.2684021 8.820655823
48.49631119 20.21999359 10.80378819
48.3430748 20.11945534 12.77424908
37.55197144 16.19291115 1.040642738
37.67181015 16.19578743 2.573760271
37.86846542 16.22690392 4.124009609
38.09677505 16.27748108 5.699260235
48.46753311 20.05846596 8.805538177
48.51178741 20.03183746 10.79199696
48.34160614 19.91598129 12.75600052
37.94202042 16.18214035 1.037889361
38.08428192 16.19281769 2.584442139
38.2936058 16.22781754 4.149096966
38.50235367 16.27041245 5.736187935
48.3705368 19.829319 8.779042244
48.51177216 19.83839607 10.7774868
48.3360672 19.72168541 12.73794174
38.39523315 16.18359566 1.034913659
38.47088623 16.17771149 2.5941751
38.70232391 16.21996498 4.172941208
38.9858284 16.28058243 5.781229019
48.28936386 19.60707092 8.755073547
48.30725861 19.50942421 12.71399784
38.81320953 16.16918945 1.031979918
38.90752029 16.16976357 2.605449438
39.14414215 16.21298218 4.198839664
39.38746643 16.25807571 5.817187309
48.23661041 19.38597107 8.734865189
48.30893707 19.30874252 12.69711685
39.24023056 16.16352081 1.02913332
39.33329773 16.15495491 2.616311073
39.57702255 16.19976807 4.224043369
39.86554337 16.2683754 5.861902714
48.22777939 19.18127441 8.721308708
48.30483246 19.11652756 12.68000603
39.6571312 16.14300537 1.026180267
39.79153061 16.14865875 2.628293753
40.00765991 16.19128227 4.249351501
40.33930969 16.26547813 5.905660629
48.2205925 18.98778343 8.708760262
48.31793213 18.92076492 12.66609573
40.1253891 16.13757515 1.023127556
40.21360397 16.13511848 2.639181852
40.44137192 16.17248917 4.274531841
40.727108 16.22949791 5.939940929
48.23079681 18.79075432 8.698314667
48.30623627 18.71684456 12.64686584
40.58845139 16.12710381 1.020071268
40.6772728 16.1159668 2.65108943
40.89056396 16.15605164 4.300790787
41.1979866 16.21939278 5.983263493
48.22832108 18.57982635 8.685577393
48.28262329 18.50945854 12.62520409
41.04818344 16.11229515 1.017009735
41.15765381 16.10782623 2.663763523
41.3995018 16.14816666 4.331002712
41.65802765 16.2023735 6.025339603
24.22742653 10.26975727 5.159790516
48.28229904 18.31053925 12.60894585
41.51137924 16.10422707 1.014040709
41.84690857 16.13345337 4.357354164
42.15353012 16.2029171 6.071629524
24.27890968 10.18555737 5.161473274
48.28936386 18.12444687 12.59533215
42.01749039 16.09863663 1.010867715
42.34016037 16.13105965 4.386953831
48.20428848 18.0320034 6.721427917
24.34518433 10.10609818 5.165368557
48.26524734 17.91857338 12.57421112
42.51650238 16.08720016 1.007695794
42.86306763 16.1262455 4.418325901
48.16906357 17.82183456 6.708605766
24.46178055 10.0374794 5.176347256
48.25894165 17.71912003 12.55725193
43.00457382 16.06873703 1.004535079
43.38648987 16.1179924 4.449683189
48.17843628 17.62681198 6.700751781
24.54806709 9.958426476 5.182945251
48.26863861 17.52529716 12.54404449
43.53305435 16.05993843 1.001279712
43.59528732 16.04710007 2.72836566
24.37014961 9.838984489 3.08753252
24.34170341 9.80507946 4.112686634
24.57186127 9.858997345 5.180504799
48.25521088 17.32449913 12.52593327
24.26198387 9.741679192 1.040469408
24.32687569 9.743170738 2.059746981
24.33833504 9.722289085 3.081741095
48.21773529 17.24439621 6.687625408
24.60285568 9.761898994 5.179181099
48.2715683 17.17966461 10.55329609
48.23727417 17.12283707 12.50704098
44.64298248 16.04803658 0.9946187735
44.78673935 16.06040764 2.7613132
44.93301392 16.06413078 4.541786194
48.18695068 17.03785133 6.675794125
24.59568214 9.652915955 5.172394276
48.19802475 16.96063805 10.5272274
48.24659729 16.93016052 12.49436665
45.09010315 16.01207733 0.9916160107
45.20964813 16.00722122 2.771797419
45.50404358 16.05628204 4.57634306
48.14877319 16.83950996 6.663715363
24.44607735 9.500376701 5.145073891
48.1867485 16.77145958 10.51332951
48.23748398 16.74193764 12.47855568
45.6617775 16.01151848 0.9883262515
45.77539062 16.00434875 2.787365675
46.1072998 16.06374741 4.613431454
48.15551758 16.65551186 6.656588554
24.65061951 9.462162018 5.169361591
48.180439 16.5842514 10.50049686
48.21644211 16.55054474 12.46031284
46.21865845 16.00269699 0.9850580692
46.34929657 16.00021172 2.803182364
46.62327576 16.04085732 4.644289494
48.12731934 16.46130753 6.645815849
48.13891983 16.42105865 8.555131912
48.19124222 16.39285469 10.4903307
48.22281265 16.36786652 12.44827938
46.77098083 15.97926807 0.9816861153
46.89951324 15.97566605 2.817962408
47.23141861 16.04211998 4.681619644
48.165905 16.27783585 6.641922951
48.13295364 16.23445511 8.544780731
48.19300079 16.20882225 10.4792881
48.21617889 16.1719799 12.43287849
47.36977386 15.96580791 0.9781948328
47.51655579 15.976717 2.835190296
47.82359314 16.02498245 4.717476368
48.13894272 16.07517815 6.63111639
48.13084412 16.03969002 8.534629822
48.15324402 16.00328636 10.460289
48.19752502 15.97303772 12.41505241
47.9671402 15.94781303 0.9746969938
48.14061356 15.96599483 2.852425337
48.37026978 15.99054813 4.750086308
48.10354614 15.87069321 6.619534492
48.1489296 15.85119915 8.527529716
48.15621185 15.81078148 10.44921303
48.23077774 15.78954601 12.40878105
48.59575272 15.93468857 0.9711122513
48.72679138 15.94003487 2.868346453
49.08610535 16.00095558 4.794548988
48.12472153 15.68307209 6.614123821
48.1739502 15.66492558 8.521561623
48.4521904 15.70214081 10.49127483
48.77548599 15.75150776 12.51436615
49.26720047 15.92941952 0.9674091339
49.36724091 15.92550087 2.886078358
48.83136749 15.65716648 8.606440544
49.11412811 15.69456482 10.59945011
49.40722656 15.73421288 12.63885593
50.67593002 16.1368866 0.9619153738
50.75884247 16.11719704 2.929103613
50.74851227 16.07133865 4.899436474
49.12836075 15.58638573 6.706408501
49.5236969 15.65461826 8.696227074
49.75004578 15.67521572 10.70281982
50.09348679 15.73760605 12.77576828
50.68052673 15.93459702 0.959885478
50.7922554 15.92302227 2.926305771
51.0926857 15.97361374 4.917983532
50.21406174 15.65673351 8.786105156
50.4332962 15.67448616 10.81518459
50.71115494 15.70772839 12.89694691
51.19488144 15.88244057 0.9566562772
51.37002945 15.88784027 2.94203639
51.77249527 15.95494366 4.959695816
50.76989365 15.60774803 8.85618782
51.1463089 15.66722012 10.93222332
51.41739655 15.70766735 13.03794479
51.88778687 15.86488914 0.9528557658
52.06270218 15.86952972 2.9614079
52.39624786 15.9269495 4.997741222
51.4842453 15.60757542 8.949322701
51.81164932 15.65255547 11.04114056
52.1230011 15.69256115 13.1780014
40.74230194 12.68822956 0.9809120297
52.76490402 15.85942936 2.981261253
53.1696167 15.92406178 5.045883179
52.20556641 15.59424973 9.042886734
52.52958679 15.63704967 11.15884018
52.81399918 15.66881084 13.31476402
40.71154404 12.51514626 0.9794750214
52.90059662 15.56914234 9.132618904
53.25951004 15.6197443 11.27858353
53.62298203 15.67083645 13.47697544
54.48847198 15.91870022 0.939966023
54.60959244 15.91776657 3.035167694
54.66415405 15.88876915 5.138368607
54.01670456 15.6044035 11.40310287
54.3378067 15.64328098 13.61864471
54.88540268 15.80452824 0.9369469881
55.04897308 15.81421566 3.045990944
55.45093536 15.87342262 5.187278271
55.04930878 15.61003304 13.75948524
55.50851822 15.75563145 0.9333994389
55.54805756 15.56237888 11.65484905
55.85751343 15.60674 13.92176247
56.94010162 15.89221478 0.9274508953
57.00656891 15.86533165 3.103401661
57.12049103 15.86130333 5.291867733
56.10227966 15.53552628 9.551053047
56.3885498 15.56274986 11.79448032
56.73733139 15.6046772 14.09870148
57.2244873 15.74947166 0.9248590469
57.33153534 15.73252964 3.110608339
57.27436447 15.55745506 11.94151783
58.04973602 15.72409344 0.92062217
58.26527405 15.73274899 3.137744904
58.74983597 15.81700134 5.393466473
58.98841858 15.7198925 0.9160453081
59.08822632 15.71175861 3.161378622
60.91646576 15.86392021 5.531578541
60.8314476 15.67226028 0.9068757892
60.977211 15.67398071 3.216008186
61.70578766 15.63395691 0.902469039
71.16510773 17.52534676 0.8720216751
71.32907867 17.51248741 3.54770565
71.19523621 17.25900459 0.8699874878
71.38648987 17.25206566 3.545591593
71.44220734 17.09612656 14.38044453
71.50476837 17.06053734 17.16594315
71.18643951 16.9980545 0.8682165742
71.3190155 16.97843933 3.539680004
71.36473846 16.90555954 8.910925865
71.42477417 16.87016869 11.62859535
71.43631744 16.82431793 14.36749077
71.49446106 16.8016758 17.15049362
71.19122314 16.72685051 0.8663600683
71.30023956 16.70235634 3.535250664
71.32090759 16.67279053 6.211442471
71.39659882 16.64115334 8.906493187
71.37238312 16.60201073 11.61200333
71.43058777 16.56646919 14.35537243
71.4821167 16.52935028 17.13418007
71.17544556 16.45171547 0.8646192551
71.35211945 16.45505524 3.533390522
71.32455444 16.40239334 6.206025124
71.42751312 16.37673378 8.902116776
71.39157104 16.33579826 11.60516739
71.4208374 16.29473114 14.34218502
71.48029327 16.25965309 17.12037468
39.23047256 9.598399162 4.012758732
71.36388397 16.09327316 8.88805294
71.3787384 16.06336212 11.59403038
71.40237427 16.02167511 14.32768822
71.48131561 15.99094105 17.10744667
42.61839294 10.12141132 4.240356445
71.37724304 15.825984 8.882160187
71.37657166 15.79354095 11.58457851
71.40031433 15.75234795 14.31631374
71.47560883 15.72124863 17.09333801
71.16915131 15.63742542 0.859574914
42.68545532 9.968153954 4.241648674
71.32717133 15.54658413 8.869831085
71.36563873 15.52237225 11.57409382
71.41081238 15.48589325 14.30738163
71.45740509 15.44951916 17.076828
71.26467133 15.39921379 0.8577567339
42.75377655 9.842447281 2.594970465
42.64619064 9.794147491 4.235781193
71.35559845 15.29643345 8.866157532
71.3770752 15.25593472 11.566926
71.51326752 15.23728657 14.31487083
43.23242188 9.766437531 2.608374596
71.34523773 15.06966019 6.181158066
42.89598083 9.54383564 2.595615387
77.08558655 15.36524296 0.8325811625
42.74838257 9.157650948 4.230789661
42.8501091 9.053256989 0.94535923
42.58419037 8.963328362 4.216845036
41.63282394 8.660270691 2.547619581
42.76932144 8.830241203 4.226598263
75.50164032 14.29467773 17.85444069
41.73054504 8.515153885 2.549057722
42.70082474 8.661706924 4.219410419
41.85016251 8.381251335 2.551321268
42.94414902 8.536863327 4.233202457
41.71016693 8.196665764 2.545243979
42.74059296 8.346819878 4.217044353
43.70856857 8.359195709 2.607591629
43.74737549 8.188526154 2.607187986
90.33083344 15.08804321 0.7770492435
50.02407074 8.939222336 4.69950819
50.43161774 8.872350693 0.9137255549
42.86232758 7.730307579 2.576108694
49.63177109 8.701169014 4.670650482
48.75014114 8.041374207 2.75906229
49.58917999 7.798888683 2.783074141
49.58137894 7.62493372 0.9133660197
49.40382004 7.578359604 2.775839329
49.65213394 7.445724487 0.9126827121
50.26573181 7.316911697 2.800749063
50.38196945 7.150232792 2.803338528
51.58337784 7.095448494 2.840205431
56.54868698 7.457036018 0.8868196607
56.45872116 6.813414097 0.8863602877
56.557621 6.622409821 0.885833025
57.04624557 6.466701508 0.883949995
16.99039459 2.647544861 0.3085868955
68.40277863 7.005618095 0.8432093263
68.90000153 7.021073341 3.378426552
16.99068642 2.571903944 0.3087824881
68.92085266 6.769164562 3.378317356
68.90797424 6.527294159 3.377256393
17.06563759 2.29270339 0.3067118227
37.53329849 -4.819247246 2.451807261
37.52694321 -4.963948727 2.453989983
1.607574701 -63.42395401 2.212374687
-5.079711914 -39.66972351 2.06799674
-5.013049603 -39.61778259 3.483176231
-5.221015453 -39.66178513 2.075816393
-5.153380871 -39.58985519 3.489739895
-5.081050873 -39.58039474 4.909729958
-5.037629604 -40.16685486 6.415771961
-5.361845493 -39.64336395 2.083390951
-5.294267178 -39.57739639 3.497237921
-5.221936703 -39.56792831 4.917018414
-5.180344105 -40.14831543 6.422196388
-5.501759052 -39.60847855 2.090565681
-5.436593056 -39.59635544 3.506624937
-5.362370014 -39.54701614 4.923548222
-5.322760582 -40.12532425 6.428097248
-5.642847061 -39.59906387 2.098367214
-5.576721668 -39.56895065 3.513284206
-5.503288746 -39.53754425 4.931200504
-5.465037823 -40.10183716 6.433987617
-5.783985615 -39.59115219 2.106212616
-5.716049194 -39.52909851 3.519217491
-5.643518448 -39.51565552 4.937714577
-5.606992722 -40.07389069 6.439353466
-5.924499035 -39.57277679 2.113804817
-5.856751442 -39.51667786 3.526810408
-5.784408569 -39.5071907 4.945543766
-5.751608849 -40.0969429 6.45142889
-6.064680576 -39.54991531 2.12128973
-5.99762392 -39.50774765 3.534636736
-5.924332619 -39.48233414 4.951853752
-5.892696857 -40.05612946 6.455227852
-6.205112934 -39.53255463 2.128916264
-6.13872385 -39.50230408 3.542700052
-6.064978123 -39.4709053 4.95948267
-6.038921356 -40.10191727 6.4704175
-6.348425865 -39.5565834 2.137611389
-6.279012203 -39.48441696 3.550037146
-6.205195427 -39.45301819 4.966536522
-6.178268433 -40.03636932 6.471086502
-6.585125446 -38.85486603 0.7417110205
-6.503708839 -39.73962021 2.150437593
-6.41115427 -39.45264053 3.55612731
-6.360713959 -39.65310669 4.994562149
-6.321010113 -40.02573776 6.479010105
-6.6796875 -38.30173874 0.7541819811
-6.636732101 -39.70931625 2.157386541
-6.55179882 -39.44177246 3.563932896
-6.501952171 -39.64014816 5.00221777
-6.460259438 -40.06660461 6.493302345
-6.806086063 -38.25120544 0.7617253661
-6.778572083 -39.70191574 2.165343285
-6.685081959 -39.4270134 3.571101904
-6.635283947 -39.61735153 5.008517265
-6.601006985 -40.0273056 6.497576237
-6.938665867 -38.19567871 0.7696628571
-6.909325123 -39.64681244 2.171642542
-6.826129913 -39.42115402 3.579265356
-6.776523113 -39.60541916 5.0163517
-6.739692688 -40.05535507 6.510318279
-7.07998991 -38.23928452 0.7767556906
-7.05202055 -39.65040588 2.179902792
-6.967026234 -39.41281128 3.587305307
-6.911015987 -39.5975914 5.024176121
-6.87923193 -40.00323868 6.513006687
-7.189338207 -37.94192123 0.7866135836
-7.192605972 -39.62960815 2.187523603
-7.10541296 -39.37613678 3.593618631
-7.051662922 -39.5787468 5.031424522
-7.023215771 -40.00595856 6.523008347
-6.435016155 -28.8968792 0.8652662039
-7.257021427 -38.80420303 2.173398972
-7.193088531 -38.79637146 3.566206217
-7.175417423 -39.37504196 5.020719528
-7.168660164 -40.02397156 6.535109043
-6.520567894 -28.70745087 0.8723948598
-7.395576 -38.7926445 2.181119919
-7.32683754 -38.73509979 3.570899963
-7.255722046 -38.72706223 4.966621399
-7.31133604 -40.00988388 6.543014526
-6.619123936 -28.6530304 0.8784376383
-7.533308983 -38.77264786 2.188619852
-7.467580318 -38.74685287 3.580168724
-7.393465996 -38.70901871 4.973886013
-7.455123901 -40.00712967 6.552494049
-7.670930862 -38.75217438 2.196111679
-7.604319096 -38.71840286 3.586948633
-7.533146858 -38.71029663 4.983085155
-7.597739697 -39.99203491 6.560391903
-7.809128284 -38.73718262 2.203763485
-7.740292072 -38.6835289 3.593344688
-7.67019701 -38.68534851 4.989758492
-7.947921276 -38.72766876 2.211576223
-7.8795681 -38.67992401 3.601733446
-7.809688091 -38.68366623 4.998760223
-8.085783958 -38.70973206 2.219161987
-7.117715836 -28.50768661 0.9071998
-8.215984344 -38.68618011 2.226191759
-7.220678329 -28.49890327 0.912840724
-5.111382961 -13.41697025 4.589813709
-5.037559032 -12.97224617 5.000612259
-5.085292816 -12.96030331 5.001671791
-5.203848839 -13.34227657 4.580243111
-5.141085148 -13.01705551 5.022132874
-5.259468555 -13.38379669 4.594787121
-5.106967449 -12.32987595 4.832782269
-5.020674229 -9.783493996 0.6635224819
-8.791563034 -39.22754288 6.548399448
-5.209353924 -12.58834267 4.404359341
-5.158378601 -12.36550713 4.847207546
-5.055129051 -9.746308327 0.666967392
-5.031905651 -9.715886116 1.042491913
-8.93624115 -39.24316025 6.560935974
-5.266039371 -12.63720512 4.420796394
-5.204407215 -12.35700893 4.84922266
-5.092216015 -9.740908623 0.6690150499
-5.06801939 -9.704557419 1.04456532
-5.02155447 -9.656236649 1.41566062
-5.018502235 -9.766033173 1.795344949
-5.254685402 -12.3808012 4.860424042
-5.128864288 -9.622885704 0.30289644
-5.13015604 -9.753436089 0.6702419519
-5.10317421 -9.687173843 1.046664715
-5.057374001 -9.657016754 1.41776824
-5.056254864 -9.764490128 1.797655582
-5.03228569 -9.716658592 2.171013832
-5.011109352 -9.701426506 2.547740221
-5.164306164 -9.62152195 0.3045200109
-5.170976639 -9.771465302 0.671338141
-5.145267487 -9.715132713 1.048537254
-5.096256256 -9.665299416 1.420218229
-5.094896793 -9.768734932 1.800354719
-5.065991402 -9.70148468 2.171958923
-5.047206879 -9.689930916 2.548974514
-5.027781487 -9.674968719 2.927982569
-5.20223093 -9.623687744 0.3059478104
-5.210684299 -9.781446457 0.6727578044
-5.187261581 -9.740948677 1.050430298
-5.140098095 -9.705048561 1.423636079
-5.13268137 -9.766921043 1.802665949
-5.106217861 -9.717399597 2.176191568
-5.082657337 -9.6743927 2.549667835
-5.064945698 -9.671174049 2.930354595
-5.036100388 -9.606348991 3.302127123
-5.01106739 -9.555334091 3.678091288
-5.243439198 -9.645395279 0.3058949113
-5.252089977 -9.801141739 0.6737888455
-5.233302593 -9.790290833 1.052228212
-5.187672615 -9.766338348 1.427737236
-5.169242859 -9.757084846 1.804456115
-5.16546011 -9.855084419 2.192820072
-5.124328136 -9.699872971 2.55600667
-5.104166508 -9.680891991 2.935091734
-5.077672958 -9.633425713 3.311058998
-5.050947189 -9.572565079 3.685797215
-5.021324158 -9.492921829 4.05711031
-5.282160282 -9.651208878 0.3070332706
-5.300579071 -9.86206913 0.6731864214
-5.280033588 -9.841411591 1.054037094
-5.229953289 -9.791902542 1.430763841
-5.209855556 -9.772743225 1.807942033
-5.207305908 -9.87651825 2.197689772
-5.192288399 -9.891605377 2.585259676
-5.165541172 -9.832654953 2.964535475
-5.168133259 -9.977766991 3.386732101
-5.060145855 -9.504116058 4.063990116
-5.325356007 -9.682433128 0.3062582314
-5.273736954 -9.825187683 1.434046507
-5.253890038 -9.820069313 1.813428879
-5.242963791 -9.858503342 2.198557377
-5.228343487 -9.87556839 2.585984468
-5.213136673 -9.902661324 2.979706526
-5.202725887 -9.950162888 3.384342909
-5.557112694 -12.51414967 4.926080227
-5.362213135 -9.676161766 0.3082894087
-9.941203117 -36.39558792 0.9542041421
-5.299481869 -9.862960815 1.818774462
-5.282412052 -9.863927841 2.201829672
-5.262427807 -9.859734535 2.586600304
-5.251430511 -9.900150299 2.982460499
-5.239599228 -9.94984436 3.387546778
-5.594054699 -12.44340229 4.910737514
-5.401083469 -9.691680908 0.3086037636
-10.08921146 -36.47536087 0.9609825611
-10.28226376 -38.44643784 2.341651201
-5.323364258 -9.889155388 2.207014799
-5.297650814 -9.83955574 2.586773157
-5.290374279 -9.901391983 2.985893011
-5.280288219 -9.960658073 3.393303394
-5.636639118 -12.41057491 4.906237602
-5.444443703 -9.720459938 0.3080023229
-10.21517277 -36.42857361 0.9682376385
-10.42180729 -38.43610382 2.349642277
-10.35069752 -38.38776779 3.742018938
-5.340765476 -9.866140366 2.593441248
-5.32935524 -9.902492523 2.989327192
-5.322425365 -10.08980846 3.831991673
-5.354547501 -10.40050411 4.335626602
-5.489490032 -9.75690937 0.3068287075
-10.36001873 -36.48562622 0.9751289487
-10.56310654 -38.43510437 2.357945204
-10.49145794 -38.38475037 3.751017094
-10.41819572 -38.3661499 5.148979664
-5.384769917 -9.896457672 2.600663185
-5.371724129 -9.92287159 2.996164799
-5.369544983 -10.02621269 3.414231062
-5.358486176 -10.06945229 3.830765247
-5.389513969 -10.36676884 4.330178738
-5.522504807 -9.728510857 0.3104731441
-10.84028244 -39.17488861 2.390115738
-10.75743484 -39.07040787 3.806686878
-10.56035233 -38.37038422 5.15955162
-5.411856174 -9.929499626 3.000626087
-5.401922226 -9.986395836 3.409374237
-5.399722576 -10.07960224 3.837165117
-5.42718792 -10.35000229 4.329619408
-5.56707716 -9.750571251 0.3104349971
-9.474741936 -30.42923737 1.007249355
-10.98285389 -39.16453552 2.3983109
-10.8989048 -39.05611801 3.81515336
-11.40930176 -42.22753525 5.569473267
-10.91982365 -39.91782761 6.796550274
-5.453105927 -9.941795349 3.006113768
-5.433014393 -9.940705299 3.403274298
-5.929527283 -12.85516453 4.533998013
-5.469080448 -10.3577528 4.336137772
-5.605330944 -9.74932766 0.3120414317
-11.12882519 -39.17133713 2.407082081
-11.04371548 -39.05896759 3.824821472
-11.57410717 -42.23455048 5.582019806
-11.06716633 -39.91788864 6.808193207
-5.470600128 -9.921532631 3.402998686
-5.466129303 -9.99776268 3.824758053
-5.854632854 -12.28994656 4.896644592
-5.646638393 -9.753447533 0.3133170307
-11.27999592 -39.16643524 2.415919781
-11.18728352 -39.01682281 3.831925631
-11.72407055 -42.20331573 5.590085506
-11.21582699 -39.88486099 6.815865517
-5.514410019 -9.94686985 3.412048101
-5.49640274 -9.948298454 3.816327572
-5.682142735 -9.738235474 0.315933615
-9.382623672 -28.25844193 1.030561209
-11.42272282 -39.15450668 2.42411685
-11.32715607 -38.99317551 3.839844227
-11.88676834 -42.19740295 5.601412296
-11.35724735 -39.85272598 6.823136806
-5.564697266 -9.994724274 3.42614007
-5.535414696 -9.936547279 3.817554951
-5.943994999 -12.24478817 4.89418602
-5.714674473 -9.72756958 0.3180541098
-11.55609512 -39.13172913 2.431536674
-11.46236992 -38.98218918 3.848184824
-12.02736568 -42.19741821 5.611705303
-11.49985218 -39.8643074 6.836028099
-16.74866295 -67.17708588 13.154006
-5.572343349 -9.944890976 3.823256016
-5.969652653 -12.14140606 4.869262695
-5.765340805 -9.784337997 0.3153589666
-11.66991615 -38.97781754 2.435008287
-11.60611916 -38.97712708 3.857446194
-11.52133179 -38.90955353 5.278130054
-11.64973259 -39.87391281 6.849317551
-5.617957592 -9.977097511 3.835399866
-5.615582466 -10.06167793 4.272567272
-5.818116665 -9.84868145 0.3121149242
-11.81987667 -39.00167847 2.444423199
-11.74300098 -38.97300339 3.866328001
-11.6684742 -38.92147446 5.290060043
-11.79818344 -39.87520599 6.861515522
-5.642634392 -10.00683594 4.260886192
-5.857264519 -9.848484993 0.3136010766
-11.95609665 -38.99321747 2.452341795
-11.8835907 -38.95130539 3.874504566
-11.81620598 -38.93479156 5.302203655
-11.93001842 -39.83091354 6.866736412
-5.678417206 -9.987368584 4.259691715
-5.893395424 -9.834516525 0.3160832226
-12.0997448 -38.98472977 2.460709572
-12.02498627 -38.93301392 3.882950068
-11.9530735 -38.92961121 5.311917305
-12.07853031 -39.8311882 6.878933907
-5.718695164 -9.990404129 4.265063286
-5.923724174 -9.795131683 0.3204046786
-12.2429924 -38.97377777 2.469009638
-12.16718483 -38.91811371 3.891664028
-12.09714699 -38.88977432 5.319094658
-12.22133827 -39.80379105 6.88727951
-5.77347374 -10.06297398 4.290718555
-5.964557648 -9.802323341 0.3213175237
-12.39105701 -38.95098877 2.477354288
-12.31458092 -38.92608261 3.902022362
-12.23754692 -38.86651611 5.327533245
-12.39101505 -39.86525345 6.908970833
-5.765648842 -9.836065292 4.229191303
-6.019552708 -9.869579315 0.3178603947
-12.52605438 -38.93472672 2.485066891
-12.4551115 -38.90236282 3.910187006
-12.3813448 -38.85829926 5.337620735
-12.5294342 -39.84998703 6.918586731
-5.797039509 -9.799290657 4.223012447
-6.062097073 -9.890440941 0.3177039027
-12.66351795 -38.89691544 2.492477179
-12.59647942 -38.88203812 3.918622494
-12.51828194 -38.85116577 5.347330093
-12.67846012 -39.84805679 6.930803776
-18.61264229 -66.68444061 13.24283314
-5.842156887 -9.826309204 4.23549509
-6.105291843 -9.904870033 0.3180806339
-12.80900383 -38.89365768 2.501109362
-12.73602486 -38.85342789 3.926501989
-12.66128922 -38.83805084 5.357004166
-12.8204937 -39.81468964 6.938592911
-6.264284134 -11.55021381 4.74480772
-6.147669315 -9.915255547 0.3187438846
-12.95226669 -38.88014984 2.509399652
-12.87546444 -38.82432938 3.934373617
-12.80340958 -38.82054901 5.366261005
-14.77800274 -47.58631516 8.068127632
-6.506262779 -12.41950893 5.005108833
-6.184851646 -9.904177666 0.3209476769
-13.09510136 -38.86417007 2.517620564
-13.01762581 -38.80637741 3.943073034
-12.94278049 -38.79092407 5.374266148
-6.540687561 -12.3557148 4.992247105
-6.243944168 -9.980028152 0.3168824315
-13.23506737 -38.8360405 2.525420904
-13.16636658 -38.81506348 3.953718901
-13.08485985 -38.7723999 5.383516312
-6.29766655 -10.03240204 0.3145140111
-13.55081749 -38.87373352 1.110566139
-13.38124561 -38.83262253 2.534126043
-13.30858326 -38.79607773 3.962416887
-13.2297554 -38.76496887 5.394017696
-6.384171009 -11.28125095 4.687641621
-6.338751316 -10.0343256 0.3157680035
-13.69334126 -38.85395813 1.118159771
-13.52701092 -38.82673645 2.542762756
-13.44789505 -38.76496124 3.970273018
-13.37375641 -38.75314331 5.404101372
-6.424408913 -11.26108074 4.687211037
-6.384953022 -10.05539036 0.3156419396
-13.83183956 -38.8181839 1.125741243
-13.66990089 -38.80869293 2.550978422
-13.59695148 -38.77202225 3.980929852
-13.51976681 -38.74850845 5.415026665
-6.473213673 -11.27626228 4.697257042
-6.4411273 -10.11289024 0.312908113
-9.083796501 -20.13486099 0.3583541811
-14.67894268 -41.4679985 1.135568738
-13.81176186 -38.78627014 2.559048176
-13.73919678 -38.7514801 3.989622831
-13.65991592 -38.72021103 5.423429489
-15.8632555 -47.61957932 8.165466309
-6.501805305 -11.20915222 4.683018684
-6.476875782 -10.09309483 0.3156937361
-14.83633137 -41.46549225 1.143679857
-16.0227356 -46.614048 2.85750699
-13.80051708 -38.69334412 5.432038784
-6.739162445 -11.97337723 4.915143967
-6.534702301 -10.15399933 0.3127172589
-14.99020863 -41.4488678 1.151780605
-16.10649109 -46.54851532 4.582368851
-14.84632587 -42.09663391 5.817004681
-16.25156593 -47.72102737 8.211979866
-6.585504532 -10.1877203 0.3116789758
-15.14409256 -41.43170166 1.159879327
-16.27078247 -46.49975586 4.591125965
-15.01469517 -42.12506866 5.832807541
-21.64636993 -67.74281311 13.69863796
-7.13886404 -13.14533997 5.275727749
-6.630072594 -10.19817734 0.3122902215
-16.73919106 -46.58280182 1.176281452
-16.53584099 -46.54116058 2.886963367
-16.44700432 -46.49468994 4.603143692
-15.19799328 -42.20659256 5.854554653
-16.64193535 -47.8193779 8.258595467
-7.169291973 -13.06112576 5.257372379
-16.90624428 -46.54212952 1.185331583
-16.70916176 -46.52397537 2.89709115
-16.61908913 -46.47358704 4.614024162
-15.33555508 -42.11862183 5.857675076
-22.66607666 -69.60112 14.09174442
-7.191253185 -12.94717026 5.23012495
-9.122950554 -18.736763 1.139095068
-16.87548828 -46.48114395 2.906266212
-16.79385757 -46.46146393 4.62561655
-15.49831104 -42.12215042 5.870965481
-22.91187096 -69.53134918 14.10517311
-7.217989922 -12.85364819 5.2089324
-17.05264854 -46.47616577 2.916904211
-16.96870804 -46.44870377 4.637210846
-15.64823818 -42.07915115 5.879154682
-7.253264427 -12.7934742 5.19768858
-17.18331528 -46.34047318 2.921986818
-17.08024788 -46.27716064 4.635694504
-15.81789017 -42.13339615 5.897581577
-7.269532204 -12.68463802 5.171181202
-17.02699089 -45.22824097 2.889164448
-16.93912697 -45.18133545 4.565882206
-15.96787357 -42.08926773 5.905768871
-7.008934975 -11.57565498 4.845067501
-16.88381958 -44.15739059 2.858018637
-16.79562759 -44.10433197 4.496958733
-16.13038635 -42.11554718 5.921236515
-7.052977085 -11.56446648 4.847997665
-9.063137054 -17.34461975 1.153557777
-16.80124664 -43.31396866 2.835333347
-16.72372055 -43.29263687 4.447610855
-16.28820419 -42.09702301 5.932412624
-7.091655254 -11.53466606 4.845366001
-9.114296913 -17.28498077 1.156897902
-16.84638214 -42.90948868 2.829621315
-16.76662827 -42.87910843 4.428145409
-16.45411873 -42.10456085 5.946594238
-7.492204666 -12.74190998 5.215994835
-9.186595917 -17.29392433 1.160447001
-17.00491714 -42.88147354 2.838703394
-16.92152405 -42.83957672 4.437045574
-16.64576912 -42.19513702 5.970242023
-7.503751755 -12.60555553 5.18185091
-9.249976158 -17.27397919 1.163901448
-16.55632973 -40.90893936 2.770126104
-16.4715004 -40.8527298 4.296879768
-16.79594612 -42.14811325 5.978428364
-9.315717697 -17.26143646 1.167378902
-16.70018959 -40.85713196 2.777834892
-16.62832451 -40.84280777 4.307584286
-16.95347404 -42.09816742 5.987012863
-7.168725491 -11.16438961 4.758944035
-9.400653839 -17.29709435 1.171220899
-16.86145782 -40.83485794 2.787233353
-16.78589439 -40.80902863 4.317077637
-17.1153183 -42.08798218 5.99949646
-17.75098419 -43.08435822 2.888541937
-17.6778698 -43.07787323 4.504272461
-16.26244736 -38.91149521 5.650168896
-16.31343079 -39.27551651 7.184048653
-7.234913349 -11.07223988 4.744107246
-17.9726963 -43.24296951 2.90542841
-17.83644104 -43.06987762 4.515292168
