# .PCD v0.7 - Point Cloud Data file format
VERSION 0.7
FIELDS x y z
SIZE 4 4 4
TYPE F F F
COUNT 1 1 1
WIDTH 1268
HEIGHT 1
VIEWPOINT 0 0 0 1 0 0 0
POINTS 1268
DATA ascii
-10.07417679 -75.88334656 1.949320436
-7.250774384 -55.76903915 3.570791245
-7.424525738 -57.03923035 5.621267319
-9.865986824 -72.53321075 1.899574757
-7.608901024 -56.99833298 5.621217251
-10.60498714 -75.95951843 1.955131531
-7.951375008 -58.06859207 3.692848921
-7.814157486 -57.0363884 5.628191948
-9.795514107 -68.60895538 1.842810512
-8.155033112 -58.0680809 3.695619583
-9.102544785 -64.73740387 6.296301365
-10.49803448 -71.7195816 1.893498778
-8.295747757 -57.65788269 5.689186573
-8.632996559 -57.56931305 1.674546123
-8.539996147 -57.73033142 5.699886799
-8.757529259 -57.82210541 5.711734295
-9.014083862 -57.48155594 1.676561594
-5.318282127 -34.71073151 2.514314413
-8.873893738 -57.32997894 5.672884941
-9.210231781 -57.44183731 1.677659035
-5.158864975 -33.00271988 2.428614378
-5.377237797 -34.33263016 3.68422246
-9.406207085 -57.40143585 1.67873323
-5.287843704 -33.08695602 2.434547186
-5.494476318 -34.31551743 3.685109138
-9.599334717 -57.34458542 1.679534793
-5.410528183 -33.12931442 2.438352585
-5.620906353 -34.35302734 3.690758228
-9.796285629 -57.31071472 1.680686593
-5.534587383 -33.17711258 2.442450047
-5.683959484 -34.01885986 3.664153337
-10.00219059 -57.32735443 1.682627559
-5.618741989 -32.99423981 2.434722185
-5.804934978 -34.02815628 3.667382717
-10.1898241 -57.24091721 1.68292129
-5.724524975 -32.93898392 2.433541059
-5.949201584 -34.1664772 3.681864262
-10.13609028 -55.84805298 1.662400007
-5.884438992 -33.18206787 2.447706223
-6.042284012 -34.0179863 3.671415091
-10.3329916 -55.83983612 1.663872957
-5.99793148 -33.16520691 2.44852376
-6.165751457 -34.03773117 3.675631523
-10.52167606 -55.78770828 1.66463387
-6.098732948 -33.08121872 2.445889711
-6.282374382 -34.01981735 3.676590443
-10.71471882 -55.75848389 1.665748715
-6.182732582 -32.91259003 2.438889503
-6.377011299 -33.88802338 3.667628765
-10.9030056 -55.70504761 1.666463852
-6.308820248 -32.96327591 2.443206072
-6.558601379 -34.20174408 3.697604418
-11.1069622 -55.68038177 1.667706251
-6.286956787 -32.24464035 2.407853127
-6.742065907 -34.48215103 3.724872828
-11.30052567 -55.65301514 1.668815851
-6.382852077 -32.15591812 2.404943943
-6.833159924 -34.32945633 3.714163303
-11.47790813 -55.59566116 1.669353962
-6.539182663 -32.36024475 2.417215586
-6.953137875 -34.3494339 3.718452454
-11.66289711 -55.52787018 1.669787884
-6.656793594 -32.40087509 2.420943737
-7.091138363 -34.42428589 3.727715969
-7.495616436 -36.30282211 5.169406891
-11.85264874 -55.48290634 1.670577765
-6.776058197 -32.42035675 2.423673391
-6.837783813 -32.67712402 3.577067137
-7.673517227 -36.55713272 5.204565048
-7.629193783 -36.3175354 6.46422863
-12.04394913 -55.44509125 1.671471477
-6.887863636 -32.40426636 2.424566031
-6.982133865 -32.80479813 3.590898991
-7.748674393 -36.30303955 5.176977634
-7.748250008 -36.26731873 6.461057663
-12.24038982 -55.43002701 1.672722697
-7.02867794 -32.51841354 2.432241201
-7.029205799 -32.4903183 3.565888166
-7.844578266 -36.14964294 5.161875725
-7.864046097 -36.20320892 6.455705166
-12.43242455 -55.39474869 1.673634887
-7.210442543 -32.80926132 2.44914031
-7.140990734 -32.47132111 3.56686306
-8.014420509 -36.32715988 5.187889099
-7.208374023 -32.73356247 5.903109074
-12.61261845 -55.30815506 1.673699975
-7.173912048 -32.13947678 2.416003704
-7.280405998 -32.5723381 3.578435659
-8.109080315 -36.17110062 5.172514915
-7.319945812 -32.70801926 5.903560638
-12.8061142 -55.27935791 1.674693823
-7.301179886 -32.19200134 2.420496225
-7.431041241 -32.71739578 3.593935013
-7.929940701 -34.84703445 5.011800289
-7.237518787 -31.85285378 5.770497322
-12.99397659 -55.2265358 1.675283909
-7.557893753 -32.78821564 2.453408241
-7.62694025 -33.0479126 3.625859737
-7.787013054 -33.71592331 4.874857903
-7.344174862 -31.81952858 5.769672394
-13.19956493 -55.2469101 1.67705977
-7.653846741 -32.69750595 2.450471878
-7.700144768 -32.85826874 3.6118958
-7.944226742 -33.864048 4.897183418
-7.469223022 -31.86267281 5.781226158
-13.38917637 -55.20049667 1.677732348
-7.672902584 -32.2941246 2.431165218
-7.819471359 -32.86207199 3.615037918
-8.052074432 -33.80511093 4.89374733
-7.67740345 -32.24308014 5.847297192
-13.57862282 -55.15341949 1.678382158
-9.025532722 -37.27651978 2.694108486
-7.925949574 -32.81321335 3.613543272
-7.483668804 -31.02505875 4.550431252
-7.957485676 -32.9004364 5.958292484
-7.580407143 -31.00199318 2.366975069
-8.036343575 -32.80405045 3.615441799
-7.588642597 -30.99669266 4.550544739
-8.06141758 -32.83970642 5.953400612
-7.958539963 -32.06621933 2.424531937
-8.173566818 -32.87609863 3.624712706
-7.648226738 -30.79100037 4.528497219
-8.112401009 -32.59632111 5.918726444
-8.286324501 -32.88316727 2.469306946
-8.466972351 -33.54744339 3.68725419
-7.716724873 -30.64619827 4.513881207
-8.186242104 -32.42419434 5.895830154
-8.405140877 -32.88104248 2.471069098
-8.583159447 -33.52529907 3.688284159
-7.766392708 -30.39101791 4.485797882
-8.371219635 -32.67801666 5.942030907
-8.540441513 -32.91751862 2.474970579
-8.67103672 -33.3968544 3.679875374
-7.8327384 -30.22548866 4.468758106
-8.240114212 -31.71925735 5.791732311
-8.650848389 -32.90439987 2.476081133
-8.725333214 -33.14701462 3.660654068
-8.13576889 -30.93756294 4.562000275
-9.812848091 -37.11719513 6.673871994
-8.036676407 -30.22520065 2.336471081
-8.690471649 -32.57820892 3.612962723
-8.277702332 -31.06346703 4.581532478
-8.685660362 -32.51754761 5.931484699
-8.158881187 -30.26812935 2.340498686
-8.162129402 -30.24961281 3.408057928
-8.300273895 -30.73585701 4.544227123
-8.702644348 -32.14995956 5.876895428
-10.1850996 -37.07053375 2.702393532
-8.250696182 -30.17098999 3.40384984
-8.218271255 -30.04539299 4.461138725
-8.91629982 -32.48809814 5.937302113
-10.28621769 -36.94635391 2.698004007
-8.350306511 -30.1323452 3.40322876
-8.269014359 -29.8369503 4.438729763
-9.706846237 -34.83301926 6.325407028
-9.888896942 -35.10074234 2.602268457
-8.460276604 -30.12972832 3.405853033
-8.390192986 -29.87643623 4.44762373
-9.056190491 -32.1438446 5.891909122
-9.911762238 -34.7362709 2.585002422
-8.577060699 -30.14964676 3.410523176
-8.587202072 -30.17262459 4.489029408
-9.187402725 -32.18579483 5.904226303
-8.557636261 -29.73997688 2.321358442
-8.690680504 -30.15764427 3.414152384
-8.743969917 -30.32504845 4.512358189
-10.11959934 -34.91828537 6.357145786
-8.787717819 -30.14028358 2.344461679
-8.7085886 -29.84654617 3.389128685
-8.917934418 -30.52996254 4.542422295
-11.02602863 -37.49513245 6.785590172
-8.832449913 -29.89022636 3.395990849
-9.045969009 -30.57828522 4.552719116
-9.725328445 -32.7733078 6.017386913
-8.990208626 -30.04192162 3.412618399
-9.118242264 -30.44395256 4.539871693
-9.81778717 -32.67668152 6.007328987
-10.29218483 -33.85232925 3.759268284
-9.24179554 -30.47624588 4.548216343
-10.85942078 -35.61577225 6.496544361
-9.193886757 -29.97827721 3.412905216
-9.329161644 -30.39256477 4.54184866
-10.0225029 -32.5504837 5.998334408
-9.33200264 -30.05979156 3.423322916
-9.361564636 -30.13846207 4.513779163
-10.13041306 -32.50571442 5.996917725
-9.837374687 -31.2723999 3.536149979
-9.461465836 -30.09792137 4.512927532
-9.76171875 -30.68299294 3.485985756
-9.867448807 -30.9908905 4.631359577
-10.18111038 -31.91385078 5.911233902
-9.826961517 -30.53138733 3.47543788
-10.00154686 -31.04281425 4.642536163
-10.34088039 -32.03169632 5.936758518
-11.81734467 -36.43783188 8.013586998
-9.770824432 -30.02076149 3.432277203
-10.24986935 -31.43296051 4.69708252
-10.36312294 -31.73677254 5.894035339
-11.71785355 -35.72977448 7.878020287
-10.09681797 -30.6468029 3.492393255
-10.13775444 -30.75203705 4.614479065
-10.602211 -32.08558273 5.957992554
-11.84386063 -35.69955444 7.880364895
-10.11411476 -30.3587513 3.469452381
-10.40351486 -31.18576241 4.67478466
-11.64643383 -34.766716 6.409333706
-11.77290916 -35.09698868 7.765984058
-10.20861435 -30.29870605 3.467259645
-11.64988804 -34.43115234 5.096613884
-10.85117912 -32.09814072 5.972661018
-11.6604166 -34.38779068 7.629609585
-10.28961563 -30.20076561 3.461622477
-11.90465546 -34.74383545 6.41932869
-12.04927731 -35.11718369 7.787271023
-10.42140293 -30.24720764 3.469185114
-10.8554554 -31.45266533 4.723547935
-12.0537262 -34.78750229 6.433608532
-10.90785217 -31.27953148 3.566990137
-10.99462795 -31.50413895 4.735116482
-12.20592785 -34.83797836 6.449114799
-11.1684227 -31.66636276 3.605927229
-10.65505695 -30.23566246 4.576267242
-11.69270706 -32.76257324 3.710053205
-10.79059601 -30.28762245 4.58781004
-10.6384325 -29.84091568 5.627744675
-10.94610786 -30.40861702 3.49759078
-11.00470066 -30.54932022 4.626574993
-12.6366272 -34.90771866 6.482515812
-11.86989403 -32.55870438 3.69880271
-11.30027771 -31.02179718 4.692801952
-11.17323399 -30.64972496 5.77590847
-11.4409132 -31.0748558 4.704785347
-10.86939335 -29.53530121 5.595330715
-11.047822 -29.73311615 4.535517693
-11.0709486 -29.76081467 5.639604568
-11.8254137 -31.46047974 3.608823776
-12.43417931 -33.01394272 4.967545986
-11.49988842 -30.5674057 5.781870365
-11.94532394 -31.45233345 3.611804485
-12.57769871 -33.04970551 4.977794647
-11.74510098 -30.88749504 5.842551708
-11.79736519 -30.76542854 3.551983595
-11.43705177 -29.835186 4.563889503
-11.76585674 -30.63302231 5.806454659
-12.13281345 -31.31832123 3.606752634
-11.48826599 -29.66957855 4.547374249
-11.86565876 -30.58058929 5.804460526
-14.29068851 -36.38483429 4.080565929
-12.95304489 -33.02671051 4.991593361
-11.96374321 -30.53907967 5.804011822
-13.54874325 -34.44381714 7.766946316
-14.41250229 -36.32910156 4.079864979
-12.31578636 -31.15557861 4.751914501
-11.93640137 -30.18985748 5.751452923
-13.6805439 -34.43061447 7.773963451
-13.78660488 -34.45380402 3.909862518
-12.50021744 -31.30324554 4.776800156
-12.50987625 -31.29158783 5.945403576
-12.28219414 -30.70392036 7.006198406
-14.58215618 -36.03969193 4.061951637
-13.04371548 -32.31178665 4.914911747
-12.59894371 -31.2055912 5.938081741
-13.86512852 -34.21231842 7.748174191
-14.29525566 -35.01078415 3.970485687
-13.09070206 -32.11578751 4.894947052
-13.02717876 -31.92820358 6.068418503
-13.8625412 -33.87924957 7.688472271
-14.00677872 -33.99718094 3.880218506
-12.95684719 -31.49570274 4.819078445
-12.69551277 -30.84367943 5.891153336
-13.99437809 -33.86837006 7.69618988
-12.77797508 -30.80188751 3.585564375
-13.63630295 -32.77309036 4.993729591
-12.85956001 -30.93704796 5.914489269
-14.4528141 -34.61867523 7.863749981
-12.94934464 -30.89745903 3.598686457
-14.48801994 -34.4384346 5.219906807
-12.90420055 -30.73719788 5.888192654
-14.49588776 -34.37779236 7.824067593
-14.43798447 -34.0267334 3.896385431
-12.63637543 -29.85929298 4.620563984
-12.43945885 -29.3880806 5.664727688
-14.56773567 -34.22237396 7.801810741
-14.59794521 -34.07635498 3.905518532
-12.76176071 -29.86938667 4.627529621
-12.61684895 -29.50662994 5.692667961
-13.63803387 -31.60309982 3.677244425
-12.8163681 -29.7193203 4.613288403
-12.74262428 -29.5330658 5.704189777
-12.92516994 -29.72609901 3.504531384
-13.18207169 -30.27793503 4.692969799
-12.8777914 -29.56574059 5.717233658
-12.79999065 -29.1815033 3.45710969
-13.13007736 -29.88978958 4.647154331
-13.98524284 -31.74096489 6.099405766
-15.11798477 -34.19890213 7.839520454
-12.92867279 -29.20182037 3.462973595
-13.20513535 -29.78587532 4.639136791
-13.10405254 -29.53049278 5.726233006
-13.49569225 -30.17160225 3.558768988
-13.41522026 -29.97564507 4.670351028
-13.22428131 -29.52745438 5.733346462
-13.23239613 -29.35149765 3.484954596
-12.67548275 -28.12144279 4.428307533
-14.16204357 -31.27709579 6.043820858
-13.34710693 -29.33752632 3.487692595
-13.5586462 -29.75344849 4.652565479
-14.1933918 -31.0813961 6.017748833
-13.3322258 -29.0493679 3.464385271
-15.53236008 -33.66959381 5.183674812
-14.88031769 -32.25601578 6.229914665
-13.35673523 -28.84796143 3.449290514
-13.04399776 -28.16057777 4.450619221
-15.04141426 -32.31061935 6.24808979
-13.51733875 -28.91898155 3.460363865
-13.01596642 -27.85908127 4.415835857
-15.23095894 -32.40806961 6.274281025
-15.6378355 -33.02639771 3.856948137
-13.17467976 -27.94545364 4.433261871
-15.33272362 -32.33676529 6.270737171
-16.44000244 -34.39096451 3.992063999
-13.27898026 -27.91878128 4.43551445
-15.46820164 -32.33428192 6.279259682
-13.74657249 -28.65842819 3.447699785
-13.32239532 -27.76897621 4.421154976
-15.61151123 -32.36050797 6.292435646
-16.396101 -33.71903229 3.937660456
-13.31052113 -27.52209091 4.393336773
-15.73415279 -32.33037567 6.296281338
-15.70906067 -32.07068253 3.784193754
-13.42356682 -27.50313759 4.396978378
-15.85410881 -32.29447556 6.299183369
-14.5822401 -29.57239342 3.54863739
-13.42031193 -27.26667404 4.370807648
-14.94859695 -30.23258209 5.946282864
-14.37685966 -28.92552185 3.490690231
-13.63684464 -27.46153259 4.403302193
-15.07759666 -30.23101425 5.954761028
-14.38783741 -28.70695877 3.473958254
-14.19639683 -28.31459236 4.52569437
-16.20727539 -32.15841293 6.303745747
-15.73062801 -31.04311371 3.704419136
-14.31901455 -28.31579018 4.532173634
-16.32507324 -32.11722183 6.305968285
-15.84558868 -31.01892281 3.706627607
-14.40093327 -28.25047302 4.529289246
-15.76090622 -30.79554367 6.081029415
-16.16009521 -31.3576355 3.744338512
-14.42413425 -28.05184746 4.508799076
-15.88887119 -30.78378296 6.088198662
-16.17032433 -31.10837936 3.725266933
-14.52854538 -28.01871681 4.510674
-15.19740391 -29.23121452 5.822092056
-16.24563789 -30.99555588 3.719200134
-14.5649538 -27.85941315 4.495237827
-15.20832253 -29.01446342 5.792442322
-16.38178444 -31.00794792 3.72510767
-14.67356968 -27.83444214 4.498290539
-15.39485836 -29.12235451 5.820636749
-19.06361961 -35.64645004 4.183452606
-15.50017071 -29.11593819 4.681707859
-15.60402584 -29.28049469 5.85750246
-16.13002205 -30.05747414 3.642067194
-16.19706154 -30.15337181 4.831706524
-15.92865086 -29.63178635 5.92957592
-16.52997589 -30.53517151 3.693826437
-16.29461861 -30.08786201 4.829865456
-16.77754593 -30.91423798 6.168925285
-17.28414536 -31.633955 3.806806326
-16.31594658 -29.88706779 4.809285164
-16.85945702 -30.81399918 6.160829067
-5.015217781 -9.722685814 0.9456999898
-16.40867996 -29.83992195 3.635508776
-16.5840168 -30.12337303 4.84942627
-16.92622757 -30.68778992 6.14808321
-5.034793854 -9.696936607 0.5915381312
-5.040918827 -9.731366158 1.301236391
-18.18318558 -32.70952225 3.923410177
-16.07691193 -29.00012016 4.700426579
-28.18085289 -49.67051315 1.662891388
-17.28180885 -30.92758942 2.537082195
-17.62374496 -31.4820919 3.807724237
-16.92448807 -30.23069382 4.879680634
-16.74543571 -29.89437294 6.024885178
-28.37507439 -49.61333847 1.662437797
-17.32870674 -30.75517273 2.529963017
-18.83281517 -33.31736374 3.994666576
-16.99121284 -30.10952568 4.870326519
-16.89092255 -29.8992157 6.036190987
-28.56277084 -49.56383896 1.662083268
-17.42168427 -30.68717384 2.52865386
-16.9581356 -29.86856461 3.658322811
-16.95178413 -29.81993294 4.83701086
-28.79355812 -49.5671196 1.662695408
-18.86634636 -32.91273117 2.661622763
-17.28424454 -30.19010162 3.695412397
-17.18933296 -30.00279045 4.869886398
-28.99427414 -49.49906921 1.662041187
-18.98675346 -32.84848404 2.661055803
-18.46688652 -31.93309021 3.874322891
-17.2597065 -29.87804413 4.860459805
-29.20312119 -49.44390106 1.66160655
-19.05252457 -32.69297028 2.655137539
-18.55515671 -31.82239151 3.869202614
-17.41835022 -29.9012661 4.871878147
-29.41178894 -49.40666962 1.661457181
-19.15732765 -32.61597824 2.653677702
-18.57765579 -31.61582756 3.854236364
-29.62460518 -49.39422226 1.661718607
-28.16196632 -47.15670013 3.513763905
-18.72840691 -31.63395309 3.861432552
-34.12602615 -56.32676697 1.787257671
-20.25452805 -33.92182541 2.736796141
-18.71069145 -31.36454391 3.840151787
-34.38677216 -56.316082 1.787626743
-20.32780075 -33.78292465 2.731836557
-17.9140873 -29.84010696 3.692820549
-28.57612228 -46.76577377 3.504058123
-19.56689262 -32.264328 3.94212985
-34.82610703 -56.15931702 1.785883665
-29.30135536 -47.5656395 3.556095123
-19.70836067 -32.24636459 3.946300268
-18.71464729 -30.4758873 2.54515624
-20.13259125 -32.67385864 3.995490313
-35.36093521 -56.17034531 1.787097335
-28.87570381 -46.19943619 3.48395443
-20.49544716 -33.00997162 4.035340309
-29.07379723 -46.16049957 3.486251354
-20.24006462 -32.36663818 3.976417303
-32.81520844 -51.41124725 1.701940417
-29.00059891 -45.70152664 3.463483572
-29.87039185 -46.98256302 5.466766834
-32.92998123 -51.20272827 1.698602319
-29.66775131 -46.38294601 3.508887291
-30.05655479 -46.91625977 5.469181061
-32.51514435 -50.19276428 1.68072772
-29.51933098 -45.81168365 3.479382753
-30.56472588 -47.33860779 5.521459579
-33.46624756 -51.23229599 1.699998975
-29.62768745 -45.61821747 3.472710848
-30.73407555 -47.22447586 5.519659042
-33.4547348 -50.83609009 1.693216801
-29.68177414 -45.34482956 3.461224794
-30.89379692 -47.11347198 5.517744064
-32.91320038 -49.67726135 1.672561526
-30.54272079 -46.30685043 3.523688555
-30.48741341 -46.1791954 5.430957317
-30.05422401 -45.106884 1.589973569
-31.05857277 -46.74438095 3.554719448
-31.14357376 -46.80622101 5.504778862
-30.00718307 -44.70806503 1.583057165
-31.14428902 -46.52675247 3.546504736
-31.36365509 -46.78430176 5.512120247
-30.19399071 -44.65246201 1.582360148
-30.6753521 -45.50426865 3.489521742
-30.69099236 -45.46482086 5.385650158
-30.42187119 -44.65518951 1.582712412
-30.8549614 -45.43135834 3.489977598
-31.68292999 -46.56233597 5.508603573
-30.53655243 -44.49470901 1.580087781
-31.33514786 -45.78849792 3.51659894
-31.79003143 -46.37620544 5.499113083
-30.83150864 -44.5904808 1.582111239
-31.31718445 -45.43044662 3.499773979
-32.11768341 -46.50434875 5.522254467
-30.88204765 -44.47114563 3.446460724
-32.2252121 -46.31869125 5.512887955
-39.85347366 -56.56654739 1.800570846
-31.02191734 -44.36195755 3.444448948
-32.53014755 -46.42711639 5.533683777
-31.32889175 -44.33889389 1.578306079
-31.76417542 -45.0908699 3.493772507
-32.82202148 -46.49754715 5.551141739
-31.88703918 -44.78907013 1.586744547
-32.14104462 -45.28707886 3.510859966
-32.62458801 -45.89051819 5.49778986
-32.07783508 -44.72916794 1.585886717
-32.10174942 -44.90829849 3.49268508
-32.84416199 -45.86152649 5.504901886
-31.87697792 -44.13730621 1.575325847
-32.29559708 -44.8506546 3.494238138
-33.10409164 -45.88612747 5.517723083
-32.00302887 -43.97686768 1.572621346
-32.58863068 -44.91013718 3.503300428
-33.20747375 -45.68112564 5.506965637
-32.22988129 -43.96739578 1.572646379
-32.2406311 -44.12358475 3.459851742
-33.86255264 -46.23218918 5.575547218
-32.61837006 -44.17084503 1.576543093
-32.5151062 -44.17522812 3.468177557
-33.9802742 -46.05944824 5.567856312
-32.91675568 -44.25105667 1.578183413
-32.69028473 -44.09327698 3.468262911
-33.50366974 -44.7215538 1.586924911
-33.07569504 -44.30234909 3.486202717
-34.85115814 -46.56510544 5.642464161
-33.91632843 -44.94184875 1.591102839
-33.13354111 -44.06458282 3.476652861
-35.15532684 -46.63106918 5.660443306
-34.09436798 -44.85482788 1.589663267
-33.23778534 -43.88856506 3.470939875
-35.40913773 -46.62927628 5.671314716
-38.8745079 -50.65758514 1.695708752
-33.41607285 -43.80849075 3.471224546
-40.423172 -52.26917267 1.725269437
-33.63489532 -43.77956009 3.474735022
-35.73825836 -46.39324951 5.66840744
-40.65440369 -52.19362259 1.724024057
-33.95051575 -43.87187958 3.485893011
-35.97394943 -46.36500168 5.67666769
-39.64793396 -50.56672668 1.694439054
-34.69384003 -44.4986496 3.530743361
-36.37384796 -46.54138184 5.707070351
-35.96275711 -45.62943649 1.604381561
-34.95471573 -44.51284409 3.537173748
-36.39241409 -46.23839188 5.685871124
-35.68195724 -44.9643898 1.592317462
-35.66908264 -45.08686066 3.579017878
-37.17237854 -46.87965012 5.766880512
-35.82543945 -44.82720947 1.589881063
-35.98462677 -45.16043854 3.58937335
-37.43755341 -46.87776566 5.778505325
-35.94935226 -44.66638947 1.587000608
-36.23910522 -45.1566124 3.594882488
-39.45985031 -49.01657104 6.023173809
-36.2816391 -44.75793076 1.588717818
-36.78759003 -45.50754929 3.622986317
-39.68516159 -48.94755173 6.028247833
-37.26005554 -45.63776016 1.604822278
-37.12708664 -45.60010147 3.634770632
-40.11487961 -49.14042282 6.061393261
-37.48152924 -45.58560562 1.603891969
-39.15523529 -47.7247467 3.776023388
-40.81072235 -49.6294632 6.127846718
-43.43179703 -52.31371689 1.726814389
-39.33411789 -47.60607529 3.774710655
-41.13653946 -49.67090988 6.145504475
-39.98516846 -47.90008545 1.646181583
-39.59276581 -47.58118439 3.779426575
-40.22184753 -47.84531403 1.645165443
-40.74177933 -48.5970192 3.85103178
-41.16086197 -49.01276398 6.0994277
-40.92634583 -48.33149719 1.654017806
-40.94734192 -48.49990082 3.85133028
-52.08897781 -61.35668945 7.47900486
-42.20794296 -49.47297668 1.674825907
-40.98267365 -48.20565796 3.838938475
-50.9470787 -59.61484528 7.30257988
-42.53659821 -49.50748444 1.675398588
-41.147789 -48.06227493 3.836270571
-41.97309494 -48.54391861 1.657731891
-41.43767166 -48.06087112 3.842814684
-42.16270828 -48.44042206 1.655762672
-50.99612427 -58.4809494 7.224154949
-42.30413437 -48.28248978 1.652786851
-48.79246521 -55.69324875 4.352102757
-42.24579239 -47.90253067 1.645745277
-49.79641342 -56.37915039 7.019784927
-48.82051849 -54.79959869 1.771517634
-50.14607239 -56.33813477 7.033115864
-49.91816711 -55.78803253 4.382187366
-50.50628662 -56.3453064 7.050393581
-48.4434166 -53.63871384 1.749998331
-50.66775894 -56.13327026 7.043001652
-48.85807037 -53.71891785 1.75127387
-51.16209412 -56.37204361 4.436887741
-50.85541534 -55.95006561 7.038910866
-48.94671631 -53.4456749 1.746084571
-51.63732147 -56.47679901 4.452544212
-51.12928772 -55.85962296 7.045426846
-49.2420311 -53.39415741 1.744924664
-51.13929749 -55.57574844 4.400990963
-51.37942886 -55.44921112 4.400959492
-51.98339844 -55.99973679 7.095517635
-49.6100502 -53.05212402 1.738199115
-51.69355392 -55.39993286 4.406089306
-53.52686691 -57.23960876 7.2551651
-49.81868362 -52.92494202 1.735626101
-51.05860901 -54.35527039 4.345030785
-53.87026596 -56.76417923 1.805283308
-51.21647263 -54.16546249 4.340325356
-53.0143013 -55.94343948 7.140559673
-49.84629059 -52.23167038 1.722412944
-52.06880188 -54.58473206 7.001079559
-50.76621628 -52.81522369 1.732721567
-52.96279907 -55.2167778 4.42768383
-52.00576401 -54.14585114 6.967648506
-55.71235657 -57.47676849 1.817221522
-52.85437393 -54.63739395 7.042397022
-50.84577179 -52.17567062 1.72039485
-51.93664169 -53.42512512 4.324567795
-51.30706787 -52.28095245 1.721941233
-54.93632889 -56.07182693 4.511823177
-60.70901108 -61.27320099 1.885012984
-53.03252029 -53.78908539 4.366453171
-60.80178833 -60.92391586 1.87816608
-54.24905396 -54.51472092 7.101385117
-55.24470901 -54.75892258 7.1666255
-53.38545609 -52.67339325 4.325891018
-55.54179764 -54.6709671 7.175157547
-55.44107437 -53.45792007 7.087723732
-67.74100494 -64.60507965 1.940902472
-57.09645844 -54.64928055 7.250243187
-67.86064911 -64.27277374 1.934196472
-54.32021713 -51.76912308 4.30877161
-56.41065216 -53.63282776 7.147548676
-54.53284836 -51.61181259 4.30703783
-54.67164993 -51.38588333 4.30055666
-56.76943588 -53.24735641 7.139416218
-55.13053513 -51.47166824 4.315359592
-57.12294006 -53.20487595 7.154211044
-55.30405807 -51.27619553 4.311070919
-55.54207611 -51.13909149 4.310890675
-55.72927094 -50.95556259 4.307483196
-71.02774811 -62.75632477 1.898681164
-71.09499359 -62.37991714 1.890968561
-61.24178314 -54.00363922 4.573490143
-61.50279236 -53.85469055 4.573474407
-33.63076782 -28.8056736 4.344666481
-33.58530807 -28.54946518 1.280471563
-33.63060379 -28.66129494 2.806489229
-39.4965744 -26.7010231 2.873034
-39.57872391 -26.56772423 2.869678974
-39.82115555 -26.52780342 2.874330759
-39.63431168 -26.3576622 4.513507366
-39.84041214 -26.35365677 2.867683172
-39.68966293 -26.197649 4.506980896
-33.27685928 -21.99729729 2.518302917
-39.58766556 -25.93846512 4.485805988
-65.40301514 -41.93452835 1.4737854
-33.44007874 -21.93739128 2.520102501
-32.68182373 -21.4113884 3.831151247
-33.64933395 -21.89718246 2.52391696
-32.78058243 -21.31399155 3.830863476
-64.4968338 -40.74142456 1.450307965
-33.30104065 -21.52667046 2.499688148
-33.30481339 -21.47920227 3.8699615
-58.67427826 -36.86260986 1.384145856
-33.41213226 -21.43436432 2.498827934
-32.32793045 -20.71981239 3.770325184
-53.19803619 -33.2514801 1.322735906
-33.56563568 -21.36753273 2.500124454
-32.14167404 -20.45137596 3.744031906
-52.83971405 -32.78155899 1.313448429
-39.05655289 -24.52871323 2.772675037
-32.08197021 -20.26174736 3.729511499
-52.81681824 -32.51687622 1.307550669
-34.22538757 -21.44322968 2.520507097
-32.1958313 -20.17724037 3.730953455
-39.15070343 -24.16073608 1.169030666
-32.95104218 -20.52218819 2.449645042
-32.48610687 -20.2047596 3.748922586
-39.29711914 -24.06258202 1.166253805
-33.02122116 -20.41585732 2.447181702
-32.77000427 -20.21877098 3.765764475
-39.44333267 -23.9636898 1.163451433
-33.02377319 -20.2620697 2.441023827
-32.84785461 -20.11024857 3.763842106
-40.08237076 -24.15003395 1.165268898
-32.35029221 -19.7157402 2.401179314
-35.4331131 -21.4561367 3.988445044
-41.23284531 -24.62541389 1.171722054
-32.39341354 -19.58972168 2.39722991
-33.73178864 -20.31195641 3.825641632
-41.20944214 -24.42093849 1.167127252
-33.34306335 -19.98267746 2.438172579
-32.61686707 -19.51893806 3.716473103
-41.25299454 -24.25533485 1.163154125
-33.32098389 -19.81586647 2.430871248
-32.2446785 -19.1573658 3.674456596
-21.40381622 -12.8362627 8.023260117
-60.00556183 -34.5952301 1.327519298
-33.10662079 -19.54160881 2.414163589
-33.14475632 -19.51425171 3.746264219
-21.39754486 -12.76733017 7.090756893
-21.49815369 -12.79000759 8.038918495
-34.42427826 -20.07361412 1.093705416
-32.74594116 -19.18822098 2.390406132
-32.97115326 -19.26546478 3.722095966
-40.11951065 -23.19674873 5.972719193
-21.39025497 -12.72509098 5.292425632
-21.39481735 -12.70030975 6.178524017
-21.53624153 -12.74555492 7.117292404
-60.52641296 -34.33427811 1.319422364
-33.06492233 -19.21515465 2.399955034
-33.2989006 -19.29580116 3.742566824
-21.40951347 -12.66988945 4.412624359
-21.41117096 -12.63887405 5.286180496
-33.17288971 -19.13138962 2.399469137
-33.66800308 -19.36168861 3.767455339
-21.36413574 -12.58418941 3.534646988
-21.43835449 -12.5930481 4.409058094
-21.36873245 -12.52097988 0.9710842967
-21.38418198 -12.56097698 1.822967887
-21.39990616 -12.53815937 2.676121712
-21.42078781 -12.51800156 3.53476429
-21.37219048 -12.4264164 0.9688686132
-21.38617134 -12.4653511 1.819200277
-21.43180084 -12.45862675 2.673444986
-21.43168449 -12.36215305 0.9671249986
-21.44234657 -12.39913082 1.818055868
-33.79743576 -18.87210274 2.405761242
-33.6893158 -18.76536179 3.734923363
-33.89368439 -18.77172279 2.404338837
-33.74998856 -18.64668083 3.731753111
-34.61968994 -18.99256706 2.432535172
-33.93932724 -18.59507751 3.739799023
-34.65301895 -18.86387253 2.428320646
-33.50162506 -18.21824646 3.693419218
-34.73164749 -18.75102997 2.425956488
-33.74494171 -18.1948204 3.706211567
-34.71554184 -18.58977699 2.419142723
-33.88361359 -18.1166153 3.709913015
-34.76473618 -18.46218109 2.415421486
-33.96871185 -18.010746 3.708993912
-34.81352997 -18.28396225 3.773240566
-6.752115726 -4.236507416 2.441111565
-41.73900223 -21.56891441 4.357656956
-6.727043152 -4.194830418 2.431493282
-6.783560276 -4.164361954 1.627710342
-6.807251453 -4.119439602 2.437652588
-6.785188198 -4.1167202 1.360045791
-6.819182873 -4.094413757 2.43699646
-6.823010445 -4.09561491 1.626506329
-6.834004879 -4.072183609 2.437224627
-6.824629784 -4.068768978 1.624804258
-6.844646931 -4.049454212 2.436626673
-6.836207867 -4.05500555 1.359718561
-6.836981297 -4.04693222 1.624428034
-6.848101616 -4.023449421 2.434316635
-6.850857258 -4.032772064 1.359390736
-6.846194744 -4.022203445 1.623576045
-6.873273373 -4.024572372 1.894202709
-6.844886303 -3.993041515 2.430264711
-6.850899696 -4.003894329 1.357850313
-6.86075449 -3.999902725 1.623384476
-6.873419762 -3.995657444 1.891827464
-6.859375954 -3.970673323 2.43048501
-6.859247684 -3.988689661 1.093979836
-6.861742496 -3.979952574 1.35721612
-6.866167545 -3.973481178 1.622087479
-6.882484436 -3.970810175 1.890900612
-6.877366543 -3.949826002 2.431556702
-6.87979126 -3.959212303 1.357183337
-6.864747047 -3.942638874 1.619876027
-6.901049614 -3.9487288 1.891387939
-6.892253399 -3.926114798 2.431739092
-6.884340286 -3.942345142 1.092868328
-6.886827946 -3.933562756 1.356242776
-6.868124008 -3.915442944 1.618357182
-6.911224842 -3.92579937 1.890778184
-6.891658306 -3.898519516 2.428569317
-6.900431156 -3.920700788 1.092470765
-6.908392906 -3.91427803 1.356505156
-6.889098167 -3.89738965 1.619069815
-6.907326221 -3.895330906 1.887820363
-6.891483784 -3.869756222 2.425367355
-6.909120083 -3.895802021 1.091747046
-6.911598682 -3.886973381 1.355259538
-6.910552502 -3.87802124 1.619746208
-6.906936646 -3.866487741 1.885441303
-6.909165382 -3.848697186 2.426428795
-6.925065517 -3.874032021 1.09134388
-6.914698124 -3.859683275 1.354013205
-6.922813416 -3.854642153 1.619320273
-6.931928158 -3.84852457 1.887106657
-6.923183441 -3.826030731 2.42663455
-6.966405392 -3.833969831 2.714449883
-6.94645977 -3.854533672 1.091178656
-6.932382584 -3.838631153 1.353966475
-6.925837994 -3.827345371 1.617794156
-6.953231335 -3.828886747 1.888189793
-6.94073391 -3.804811954 2.427689314
-6.933869362 -3.791680098 2.701942682
-6.940175056 -3.823291063 1.089806199
-6.949492455 -3.818706036 1.353948832
-6.934258938 -3.802365541 1.616925359
-6.961694241 -3.803805828 1.887248755
-6.94016695 -3.77602911 2.424482346
-6.932860851 -3.764173985 2.698361397
-86.79621124 -37.00870514 1.266205311
-6.944316864 -3.797955275 1.088947535
-6.962862968 -3.797167301 1.353628516
-6.949429989 -3.781619072 1.616964221
-6.962242126 -3.776898861 1.885185361
-6.934752464 -3.756910563 2.149066687
-6.938977718 -3.748500586 2.421308041
-6.953272343 -3.745510817 2.700702667
-6.964990139 -3.779490948 1.088806868
-6.961917877 -3.768280983 1.352076769
-6.959022045 -3.758540869 1.61634326
-6.955753326 -3.737103224 2.150555849
-6.955786705 -3.728368282 2.42238903
-6.932819366 -3.708795786 2.691659212
-6.965771198 -3.751380444 1.087752819
-6.964550018 -3.740940809 1.350823641
-6.956192017 -3.718983889 1.879872918
-6.969410419 -3.705478907 2.422583103
-6.931984901 -3.68018961 2.688045025
-6.919185162 -3.695747375 0.8236406446
-6.959032536 -3.720297575 1.086380243
-6.954129696 -3.708395004 1.348525524
-6.966056347 -3.704655409 1.613499045
-7.024882317 -3.718222618 1.888427734
-6.979329109 -3.68108201 2.421923876
-6.958058834 -3.662347555 2.69182682
-6.945608139 -3.678271532 0.8230721951
-6.948451042 -3.687810898 1.084850192
-6.975052357 -3.688533306 1.348762393
-6.990657806 -3.686188459 1.614588261
-7.025588036 -3.690003395 1.886324763
-6.989161968 -3.656652451 2.42126298
-6.969660282 -3.638688803 2.691660166
-6.962213039 -3.65817976 0.8224849701
-6.991595268 -3.676810503 1.085618019
-7.00841713 -3.674919367 1.350070119
-7.011516571 -3.666125298 1.615236163
-7.028024197 -3.662539244 1.884508848
-6.984343052 -3.626506805 2.417201519
-6.993828773 -3.619898796 2.694940329
-6.945212841 -3.641828299 0.3000674248
-7.010084152 -3.657268047 1.085383654
-7.012539387 -3.648247957 1.348959684
-7.015651703 -3.639446497 1.613916516
-7.020647049 -3.632732391 1.881288886
-7.004444122 -3.607507706 2.419118881
-6.993952751 -3.593153 2.691845894
-7.014098644 -3.630608797 1.084481835
-7.018419266 -3.622303486 1.347996712
-7.043317318 -3.623313665 1.615463018
-7.043181896 -3.613157511 1.88263166
-7.017671585 -3.584385872 2.419301033
-6.99626255 -3.565902472 2.689210415
-7.027338028 -3.607547045 1.083972335
-7.031653881 -3.59920764 1.347625732
-7.030575752 -3.590172768 1.61217916
-7.054567814 -3.589229822 1.882247925
-7.034478664 -3.562587976 2.420329332
-7.007535934 -3.542086124 2.689034939
-7.036766529 -3.583003283 1.083303094
-7.059729099 -3.581716061 1.348437071
-7.036282539 -3.564188004 1.611073613
-7.071428776 -3.567352057 1.882722378
-7.036575317 -3.535226583 2.417960882
-7.036894321 -3.524995565 2.6937778
-7.040499687 -3.556310177 1.082396984
-7.069096088 -3.557049036 1.3477633
-7.0530653 -3.54238081 1.611271501
-7.067822456 -3.537781 1.88004005
-7.038567066 -3.507882357 2.415592194
-7.057125568 -3.504379749 2.696055651
-7.053494453 -3.53311801 1.081880569
-7.059681892 -3.5254004 1.345609784
-7.069782734 -3.520488977 1.61146605
-7.082666874 -3.515119553 1.880223155
-7.051465034 -3.484591722 2.415765285
-7.055444241 -3.47568202 2.692429066
-7.070161819 -3.511250257 1.081517339
-7.07072401 -3.501422167 1.345081329
-7.083156109 -3.495906115 1.611188889
-7.093719959 -3.491030693 1.879830599
-7.068418026 -3.461337805 2.416749239
-7.059574604 -3.447766781 2.690243006
-67.27846527 -25.38699722 1.070130467
-7.077829838 -3.484636784 1.080728054
-7.085434914 -3.478760719 1.344845414
-7.084775925 -3.468439102 1.609641671
-7.112591743 -3.468341589 1.880545855
-7.081163406 -3.437916517 2.416916609
-7.075475216 -3.426891804 2.691563368
-7.092020035 -3.463190794 1.080315232
-7.101500988 -3.457945108 1.344787836
-7.089585781 -3.443571091 1.608561277
-7.121172428 -3.444713116 1.879896045
-7.08232975 -3.411761522 2.414575815
-7.093144417 -3.406583071 2.693371773
-7.098618031 -3.438988209 1.079589963
-7.10999155 -3.434373856 1.344138861
-7.105551243 -3.422689199 1.608779192
-7.137140751 -3.423694372 1.880387545
-7.087090015 -3.386920214 2.413080931
-7.112587929 -3.386825562 2.695667744
-7.122166157 -3.412100315 1.343781829
-7.121456623 -3.40172863 1.608994007
-7.121281147 -3.391493559 1.876020789
-7.099150181 -3.364637852 2.413276672
-7.097160816 -3.354934931 2.688633919
-7.124277592 -3.382103682 1.342438936
-7.131096363 -3.374345303 1.608237505
-7.117991924 -3.340474129 2.414634943
-7.099846363 -3.323850632 2.685881376
-7.139769077 -3.349419594 1.607547641
-7.135462284 -3.319945574 2.416092396
-7.111707211 -3.30147481 2.686208487
-7.142278194 -3.323796511 1.606243134
-7.118082523 -3.286279202 2.409486771
-7.147834301 -3.285776377 2.692872524
-7.115400314 -3.257681847 2.406261921
-14.93185234 -5.816858292 0.8368638158
-68.87999725 -23.11784172 3.531441689
-14.53263187 -5.517438412 0.8311405778
-69.08310699 -22.90407753 3.529213667
-14.45514488 -5.43736887 0.8294475079
-68.27140045 -22.39640617 3.487809181
-14.44908714 -5.382918835 0.8280428052
-68.50657654 -22.20785522 3.487437963
-14.47533607 -5.338521004 0.8267264962
-68.17714691 -21.77445984 5.959842205
-67.58181763 -21.33423615 5.902558804
-67.77175903 -21.13352203 5.904852867
-67.89057922 -21.00667191 3.426117659
-67.85397339 -20.90013695 5.899034023
-67.79364014 -20.62520409 5.882544041
-68.31783295 -20.61539268 3.423812866
-67.95845795 -20.41589546 5.883026123
-68.09578705 -20.19806862 5.881463051
-68.06946564 -20.02989388 3.39552474
-68.09073639 -19.95273209 5.86988306
-67.49968719 -19.53334808 5.814145088
-71.27915192 -20.40924644 3.499533892
-67.56098938 -19.29649353 5.807142735
-67.06334686 -19.00407219 3.330035448
-68.14550018 -19.20017052 5.838971138
-67.60922241 -18.89841652 3.341586828
-68.15933228 -18.94885063 5.828462601
-53.11670685 -14.90080547 6.646594048
-67.16536713 -18.52941322 3.315768719
-67.21899414 -18.29288483 3.308760166
-57.75735474 -15.61929417 2.945769787
-54.15102768 -14.62410069 4.764825344
-66.64729309 -17.6246357 3.268621206
-54.15642548 -14.42430973 4.756268978
-57.97940445 -15.24552822 2.938629866
-53.24053192 -14.00807953 4.680836678
-53.39004135 -13.89362717 8.567552567
-57.70839691 -14.97555161 2.921313763
-53.14837646 -13.79847622 4.665842533
-53.50101471 -13.73247623 8.572248459
-57.50230408 -14.72340679 2.906480789
-52.95285797 -13.55533695 4.642967224
-53.17189407 -13.41148376 4.650318623
-68.86470795 -16.9467659 3.307073593
-53.4799614 -13.286973 4.664103031
-41.15462494 -10.26477242 8.256641388
-67.17107391 -16.30514526 3.23632884
-52.29960251 -12.83089828 4.570603848
-41.14917755 -10.17103767 6.739062309
-67.41697693 -16.12637138 3.236946821
-52.20894623 -12.61851788 4.555748463
-41.17998123 -10.08525181 5.242136955
-53.10380554 -12.67861748 8.457158089
-13.48962593 -3.904668331 0.3105664551
-41.15314102 -9.986539841 3.751298666
-53.1860466 -12.50184059 8.457620621
-41.13405228 -9.84979248 0.7993384004
-51.82038116 -12.15164661 4.511371613
-55.63984299 -12.83332062 8.799649239
-51.94167709 -11.98813629 4.511972427
-39.47841644 -9.239593506 2.201487303
-52.0429306 -11.81981945 4.511147499
-55.5567131 -12.40962601 8.764349937
-39.50771713 -9.063932419 0.7867860198
-39.51721191 -9.103784561 2.197808266
-52.17685699 -11.65778637 4.51267004
-52.85702133 -11.65779018 8.36578083
-39.56923676 -8.970610619 2.194606066
-52.85622025 -11.46525383 8.354810715
-39.61240768 -8.828295708 2.190840721
-52.40017319 -11.32274628 4.512562275
-52.47548294 -11.26351547 6.397105694
-52.68358231 -11.22971916 8.318837166
-52.63635254 -11.17872906 4.52135849
-52.68913651 -11.04915142 8.309536934
-52.50377655 -10.96258831 4.504026413
-51.95974731 -10.79425335 6.324136257
-52.67444229 -10.85541916 8.296907425
-52.42523193 -10.75783443 4.490595818
-52.77588654 -10.68357468 8.300914764
-51.56329346 -10.41875839 4.422399044
-53.05997086 -10.5444231 8.330938339
-71.13837433 -13.87520027 3.26360774
-51.92672729 -10.30777359 4.440692425
-51.7121048 -10.19570637 6.271384239
-52.94032669 -10.34111214 8.304141998
-55.67668152 -10.86485767 2.718835592
-52.00121689 -10.14317036 4.438635349
-51.96652222 -10.06343079 6.289957523
-55.53202438 -10.6129818 8.661937714
-55.80015564 -10.69610405 2.716502666
-52.48992538 -10.05045795 4.465621948
-55.70529556 -10.4526844 8.676386833
-55.99292374 -10.46671391 0.7296409607
-51.96648407 -9.753647804 4.420594215
-52.85505295 -9.754871368 8.261731148
-55.86616516 -10.24459362 0.7240208983
-56.39749146 -10.38545704 2.722785711
-52.09979248 -9.58921814 4.422348022
-52.84187698 -9.572314262 8.250448227
-55.92209625 -10.05352116 0.7181951404
-55.56656265 -10.04640865 2.687400579
-52.01202393 -9.387982368 4.408715248
-53.53761673 -9.49434185 8.338751793
-55.60227585 -9.853049278 2.681763411
-51.86437607 -9.178041458 4.39098978
-53.18844604 -9.247649193 8.279705048
-84.96813965 -14.18361568 0.6641717553
-51.87504959 -8.984778404 4.383955956
-52.10953903 -8.770393372 6.24443388
-52.79785538 -8.799028397 8.205031395
-37.62291336 -6.501948357 3.385510445
-51.66886902 -8.51927948 6.1900177
-52.810215 -8.612206459 8.19731617
-83.52098083 -13.0782423 0.6407856941
-37.63658142 -6.369690895 3.381170988
-51.77448273 -8.350091934 6.192839622
-83.56085968 -12.80136776 0.632486701
-52.17536545 -8.3051548 4.376132488
-53.47007751 -8.412924767 6.361854553
-54.05604172 -8.418072701 8.353514671
-38.33166122 -6.204375267 3.418664932
-51.74233246 -7.985953331 6.173645496
-53.98328781 -8.225273132 8.334406853
-38.33150101 -6.074807644 3.413626194
-53.69509125 -7.99508667 8.284861565
-37.19421005 -5.789127827 3.33060503
-37.16776657 -5.653674603 3.323722363
-42.1021843 -6.232100487 5.151367188
-37.17845917 -5.523139954 3.319404125
-42.07361603 -6.079181671 5.142026901
-37.81866455 -5.468658924 3.357895851
-39.28274155 -5.596486092 4.847275734
-41.91876221 -5.851512909 6.612715721
-82.91679382 -10.73835564 3.492742777
-38.25481796 -5.385843277 3.382402658
-39.10448456 -5.429733753 4.822729111
-37.79465485 -5.198162079 3.346145153
-38.60839844 -5.235646725 4.765827179
-37.84143829 -5.069675922 3.344288588
-37.10464478 -4.935626984 4.605434418
-41.26100159 -5.335624695 6.501198292
-37.28384781 -4.883119583 3.301940203
-38.82185364 -4.991977692 4.77675581
-41.29261017 -5.193061829 6.499001026
-37.71661377 -4.796171188 3.326173544
-38.81455612 -4.854135513 4.77039957
-41.59305954 -5.084719181 6.534329414
-37.70444107 -4.661886215 3.320431471
-38.85953903 -4.72844553 4.7697258
-38.32837677 -4.621120453 6.077281475
-36.48206711 -4.411375523 3.233581781
-39.77435303 -4.678262711 4.857818127
-37.65713501 -4.423165321 5.978827953
-36.86792755 -4.318605423 3.25469327
-38.74945068 -4.444399357 4.747474194
-37.02837753 -4.233850956 5.886492252
-36.86597824 -4.188620567 3.249830723
-37.88988113 -4.23237896 4.654336452
-37.20616531 -4.118785381 5.905347824
-64.2869339 -6.498697758 2.817152977
-36.91470337 -4.069567204 3.248608351
-37.8699646 -4.097345829 4.647054195
-37.24339676 -3.990895033 5.904897213
-36.90139008 -3.945147276 3.24326992
-39.17187881 -4.076298237 4.774618626
-37.1828537 -3.861590147 5.891348839
-63.45125198 -5.947856426 0.5514164567
-37.00953293 -3.823989153 3.245793343
-39.26789856 -3.952935934 4.779303074
-37.25028992 -3.742516518 5.895419121
-62.94196701 -5.686452389 0.5466305017
-37.06554413 -3.6982162 3.244859934
-39.19143295 -3.809283257 4.766226768
-37.26843643 -3.612920761 5.892504215
-62.11646271 -5.40581131 0.5431871414
-37.40975189 -3.592844248 3.263008356
-39.5987587 -3.700440168 4.802265167
-37.23078918 -3.479394913 5.882007599
-61.71276855 -5.16018343 0.5382050276
-41.36139679 -3.731944084 3.519354582
-39.17638016 -3.526206255 4.753973007
-37.32909393 -3.355141878 5.890164852
-61.39194107 -4.922902584 0.5329549313
-37.84239197 -3.358453512 3.282267094
-38.97920227 -3.376248598 4.728871346
-36.27827835 -3.152409554 5.741185665
-38.72295761 -3.254519224 7.460175037
-60.90986633 -4.688651085 0.5287750959
-37.67927933 -3.22237587 3.267120123
-37.40846634 -3.151926041 4.565405846
-36.45619202 -3.041960955 5.760676384
-38.65448761 -3.121513844 7.44299078
-57.89590836 -4.298570156 0.535390079
-37.12158585 -3.057949305 3.225888729
-37.35055923 -3.024064779 4.554956913
-37.05919266 -2.953917265 5.838103771
-37.11370468 -2.902867556 7.17233181
-57.14509201 -4.044527531 0.5322327614
-37.20723724 -2.926084518 3.226773024
-37.35652924 -2.886968136 4.550517559
-39.133255 -2.924735546 6.115188599
-38.22398376 -2.822017908 7.357608795
-56.93197632 -3.833642721 0.5270761251
-37.08478546 -2.789571762 3.214270115
-40.36120987 -2.898194313 4.847781658
-39.46565628 -2.79674077 6.154889584
-38.06577301 -2.680665255 7.325061321
-56.38999557 -3.618388176 0.5237987041
-37.19076157 -2.671306372 3.216965199
-37.96665955 -2.653481722 4.60234642
-37.35780334 -2.571251869 5.86352396
-38.33406448 -2.565615654 7.366087914
-56.17533112 -3.411656141 0.518755734
-38.54680634 -2.600945234 3.30094409
-37.98458862 -2.52800703 4.599630356
-37.5933609 -2.45673728 5.890852451
-38.24975586 -2.427998781 7.34638834
-38.1679039 -2.450739861 3.271709919
-38.19725418 -2.403462648 4.616232872
-37.71596527 -2.329797029 5.902613163
-38.13933945 -2.290057421 7.322313786
-38.1972847 -2.318362713 3.26911521
-36.715065 -2.216775417 4.463152409
-37.96491241 -2.206376314 5.931519032
-38.44415665 -2.166584969 7.369434357
-38.33192062 -2.189355373 3.273365259
-35.45479965 -2.047652245 4.332665443
-37.01495743 -2.04425478 5.798130035
-37.05392075 -1.991186261 7.126571178
-34.99295807 -1.954916596 3.052757025
-35.76531601 -1.932645321 4.359393597
-37.64731979 -1.932095408 5.879029274
-36.69557571 -1.852268457 7.060537815
-51.91605377 -2.31464386 0.511054635
-41.55867004 -2.007257462 3.472947359
-35.42888641 -1.799108267 4.321554184
-39.30970383 -1.840130568 6.099002838
-37.19604111 -1.735123396 7.141370296
-41.45862961 -1.866997719 3.461940765
-35.62717056 -1.679617524 4.337107658
-38.80998611 -1.692526698 6.026756287
-37.56785965 -1.618632793 7.200423241
-41.44192505 -1.729092717 3.456346989
-38.76141739 -1.562814832 6.015769005
-37.35780334 -1.490522981 7.160196304
-40.76235199 -1.573165774 3.407934904
-40.7166481 -1.520401835 4.835114479
-38.66088486 -1.432733655 5.997842789
-37.34455872 -1.359747648 7.153410435
-45.98698807 -1.527382731 0.5230797529
-40.82660294 -1.431652427 3.407434702
-35.41345596 -1.316143632 4.303851604
-37.26179123 -1.283311844 5.804915905
-39.72034836 -1.250001073 7.55365324
-40.88921356 -1.315401077 0.5479239225
-35.49964523 -1.238592148 3.061602354
-35.53248596 -1.193417311 4.311606884
-37.2892189 -1.153289437 5.804286957
-39.71812057 -1.111142397 7.548614502
-40.72238541 -1.171645045 0.5444328189
-40.64580536 -1.204438686 1.965820789
-35.41303635 -1.114121795 3.052083969
-35.31873322 -1.068301558 4.286405563
-37.23095322 -1.022804976 5.792190075
-40.68701172 -1.043668628 0.54061836
-40.64267731 -1.076761127 1.961681247
-39.87664795 -1.015561819 3.333507538
-35.41695023 -0.9574324489 4.292556286
-37.56069183 -0.9057635069 5.832695484
-39.04769897 -0.8482841253 7.425995827
-40.72322845 -0.9017276168 0.535913229
-40.7371254 -0.9349939227 1.959908605
-39.82918549 -0.8763777018 3.32606101
-35.49692917 -0.8335846066 4.296521664
-40.07844925 -0.7659816146 6.166407108
-38.95533752 -0.7122470737 7.405942917
-40.52295303 -0.7603695989 0.5326793194
-39.87503433 -0.7371301055 3.324586868
-35.44909286 -0.7098711729 4.28788662
-38.20711517 -0.638836503 5.911057949
-40.72182083 -0.5613013506 7.701591492
-40.41819 -0.6197339296 0.5288695693
-44.02601242 -0.5662638545 3.583860397
-35.53815079 -0.5852594376 4.292802334
-38.23031235 -0.5050985217 5.910019875
-37.42251968 -0.4580913782 7.13738203
-40.27301407 -0.4872696996 0.5255604982
-43.77746582 -0.4229539633 3.563541412
-35.27252197 -0.4644281566 4.262791157
-37.48398209 -0.3818618059 5.806007862
-37.38404846 -0.3343994319 7.127090931
-40.43327713 -0.3445484936 0.5200299025
-42.75398254 -0.2848703563 3.494008541
-35.84830093 -0.3320625424 4.315682888
-37.54005432 -0.2564588487 5.809750557
-37.4535141 -0.2024050504 7.134974003
-40.56702805 -0.2011584044 0.5146331787
-43.83552551 -0.116188772 3.55774951
-36.16698456 -0.2069683522 4.3434062
-38.12279892 -0.1131998301 5.883741856
-37.48308563 -0.07079353184 7.136157036
-40.55031204 -0.05993758142 0.5102266073
-43.82284927 0.03663117811 3.552253962
-36.3060112 -0.07744268328 4.353264332
-37.33954239 0.001106429147 5.775206089
-37.56739807 0.0624426119 7.146672726
-40.62524414 0.0763213858 0.5054043531
-43.61225891 0.1768381596 3.534555435
-35.98494339 0.04100742191 4.317993641
-37.26736069 0.1296447664 5.76179409
-37.3911972 0.1821558774 7.113353729
-40.6895256 0.2199028283 0.5004051924
-41.28604889 0.2635256946 3.38366437
-35.8465271 0.1626605988 4.300728321
-37.04430771 0.2465217412 5.728514671
-40.29752731 0.3497924209 0.4986534417
-41.35383606 0.4099303484 3.383573294
-36.5195694 0.3039281666 4.363156796
-37.05052567 0.3762884736 5.725703239
-40.32885742 0.4916029572 0.4938973188
-36.046978 0.3675527573 3.046664238
-37.47830582 0.4666261971 4.45324707
-37.05430603 0.5060359836 5.722621441
-40.41392136 0.628651619 0.4889548123
-36.3240509 0.4979350567 3.060437441
-36.46530914 0.5571634769 4.350531578
-37.42607117 0.6511086226 5.768568516
-40.2684288 0.7638326287 0.485486418
-36.30124283 0.6239905357 3.055254221
-37.08682251 0.7117703557 4.407597065
-37.52819061 0.7801213861 5.778812885
-40.19041443 0.9010735154 0.4815268815
-36.19624329 0.746171236 3.044972181
-37.61851501 0.8599597812 4.456004143
-37.43353653 0.9069230556 5.762763977
-40.16586685 1.040389419 0.4771620631
-43.53948593 1.232875586 3.498479843
-36.2367897 0.9220772982 4.317760944
-37.29686737 1.030935884 5.7412076
-40.02499771 1.173552394 0.4737048447
-44.48491669 1.434917212 3.552823782
-36.16698837 1.045201302 4.307501316
-37.4151535 1.16813457 5.753571033
-42.96606827 1.505550742 3.454069376
-36.92947388 1.215607882 4.37821579
-37.10146332 1.280799627 5.708670616
-44.43824768 1.743688583 3.540969372
-40.1352272 1.540068984 4.686151981
-36.97938919 1.403262496 5.689279079
-39.16662216 1.540269732 0.4670309424
-39.16753387 1.567122936 3.210488558
-38.12839127 1.55161798 4.487689495
-37.02310562 1.535835147 5.691923618
-39.15827942 1.670049429 0.4628359079
-42.53554153 1.92108798 3.414821386
-38.35437012 1.700671554 4.506109238
-37.08810043 1.670253038 5.697432995
-38.64824295 1.771989703 0.4626263976
-39.97477341 1.891311765 3.252710581
-38.39312363 1.83801198 4.506392479
-37.24204636 1.805127382 5.714906216
-37.03739929 1.783893824 0.472120434
-37.54062271 1.846348286 3.099106073
-38.17776108 1.949954629 4.48228693
-37.31398392 1.941414356 5.721409798
-36.88817978 1.902465224 0.4691349268
-36.94389343 1.932343125 3.058760643
-37.94966125 2.066198826 4.45685482
-40.68094635 2.33378911 6.163538933
