# .PCD v0.7 - Point Cloud Data file format
VERSION 0.7
FIELDS x y z
SIZE 4 4 4
TYPE F F F
COUNT 1 1 1
WIDTH 1314
HEIGHT 1
VIEWPOINT 0 0 0 1 0 0 0
POINTS 1314
DATA ascii
30.7341671 18.10929298 4.267190933
25.34459686 14.78928375 4.711833477
26.21135902 15.34677505 5.948005676
29.55783653 17.43815231 7.864397526
30.51015091 17.78415108 1.727071643
30.54486084 17.82172966 2.981463194
26.95862961 15.64441109 3.835540056
25.73835373 14.90953636 4.766512871
29.1165638 17.001091 6.5097785
29.82429504 17.45331001 7.914931774
30.38299561 17.53747749 0.4827852249
30.48620224 17.6236515 1.726967454
30.62850952 17.72655678 2.985445261
26.27729988 15.09434891 3.754278421
24.88201714 14.26458263 4.628136158
29.12096024 16.86470795 6.501056194
29.89739227 17.35556602 7.919896126
30.41485023 17.41913223 0.4855717719
30.47863388 17.47385406 1.727387667
30.88278961 17.73415184 3.001695871
27.03185844 15.43144035 3.835590363
24.87667084 14.14294147 4.621396542
29.24658394 16.80917549 6.516666889
29.5648365 17.01892662 7.828948975
30.5249691 17.34059143 0.4877540767
30.43290138 17.30913162 1.726615191
30.96298599 17.64306831 3.005587578
26.15949821 14.78033257 3.733338594
26.16362381 14.80348396 4.813901424
29.14017105 16.60669327 6.486463547
29.68181801 16.94929123 7.844685078
30.60077667 17.24850273 0.4901230037
30.94316673 17.48504829 3.002258301
26.0946846 14.62444401 3.722412109
26.13093376 14.66052055 4.802822113
25.69408417 14.42097282 5.804780006
27.17396164 15.31925297 7.237999439
30.72439957 17.19382477 1.737024307
30.60478973 17.14722252 2.976288319
26.0952301 14.50205135 3.718713284
26.02245331 14.47360802 4.780212879
25.76381302 14.34147644 5.810323715
27.0340786 15.10877419 7.194010735
30.5125618 16.90950012 0.4974997044
30.676754 17.02201843 1.736287713
31.17015266 17.32733917 3.014796495
26.17940331 14.42914867 3.724457026
25.9437809 14.30568695 4.762302399
25.88694191 14.28713989 5.825924873
27.09857178 15.01386738 7.198082924
30.52398682 16.7665329 0.5008057952
30.86838722 16.98272705 1.743012786
29.85718536 16.42017555 2.919270992
26.34866905 14.3992424 3.739588022
25.99028587 14.20572567 4.763370991
25.89490318 14.17113018 5.819572926
27.19893646 14.94612885 7.21124506
30.60628319 16.67188454 0.5032871962
30.37753487 16.55716896 1.7285887
29.91719627 16.31599808 2.921885729
25.56842613 13.8273983 3.648668528
23.43162537 12.60964775 4.366844177
25.93652344 14.0749836 5.819850445
26.96323776 14.68370819 7.145219803
30.71436501 16.59170532 0.5055443048
30.52023506 16.5049572 1.733760476
36.95272827 20.19408226 3.421789646
25.59687042 13.72538853 3.648400545
23.48451042 12.53696728 4.370109081
26.62129402 14.34733009 5.944797039
27.23604202 14.71553612 7.199206352
15.22073078 7.708832264 1.259862781
29.98575974 16.07847786 2.923559666
24.13150215 12.78235531 3.481584549
23.38084602 12.36995029 4.349321842
26.09160042 13.92977428 5.834908009
27.1830883 14.56631184 7.177059174
15.23841858 7.648852348 1.260825515
31.24068069 16.65283585 3.011420488
25.86693764 13.64775085 3.671950579
23.36441612 12.25342751 4.341919422
26.19245338 13.86694241 5.846828938
27.15427017 14.42540932 7.160229683
37.49652481 19.94634247 0.4549675882
15.29780483 7.612181187 1.263094544
30.41223335 16.04821205 2.950923681
24.42745018 12.72636509 3.508304596
23.54652786 12.24834347 4.364756107
24.28611755 12.68106461 5.471664906
27.36759377 14.42080879 7.200282574
37.49200439 19.77290344 0.4589623511
15.32561016 7.557816029 1.264394045
30.53033829 15.97493744 2.957836628
24.42577553 12.61418915 3.505039454
23.64216614 12.19411182 4.37446928
24.30869865 12.58303928 5.469161987
27.56750107 14.40729809 7.237167358
37.61307526 19.66882515 0.4618630707
15.37251854 7.513914585 1.266299367
30.80233955 15.98547745 2.975712776
15.53437519 7.623578548 2.513920546
23.49269867 12.00477791 4.34707737
24.3809948 12.51260281 5.476299763
27.59084892 14.29522038 7.232792854
37.53873062 19.45833397 0.4664543569
15.40173054 7.460255146 1.267665386
14.23792458 6.839611053 1.798368335
15.52187061 7.546564102 2.51064229
24.10298538 12.23117733 4.43477726
24.46002007 12.44560337 5.484780312
28.33251953 14.57581711 7.396071434
14.25595093 6.785191059 1.799012542
24.6578331 12.40825367 3.521853924
23.75930405 11.93696594 4.378142357
24.53887558 12.37820339 5.493275166
28.04796028 14.29419136 7.319949627
15.42432308 7.333791733 1.269311905
14.20687866 6.694978714 1.794917226
24.81964493 12.38425255 3.536882639
24.1617794 12.04611683 4.434327126
24.2456913 12.11084461 5.430573463
27.4545784 13.84967709 7.172332764
15.47764683 7.29304266 1.271464109
14.27198029 6.665984631 1.79893589
30.4160347 15.24411964 4.153289795
25.38109779 12.58614445 4.613559246
24.34091759 12.05322647 5.442393303
27.68154526 13.84803104 7.215739727
15.47599602 7.223220825 1.271908641
14.40772533 6.673781395 1.807971478
15.06680965 7.029016495 2.45311451
24.88913727 12.21393013 4.534766674
24.84414101 12.21051121 5.532167435
27.73212624 13.75162888 7.218215466
16.06633568 7.461844921 1.290907621
14.45696545 6.635504246 1.810892582
15.04832363 6.952527523 2.449399233
25.00637245 12.1648035 4.547830582
24.74243927 12.04713917 5.506402969
28.02880287 13.78415966 7.277762413
27.78905869 13.42568684 0.567310214
15.75108147 7.231531143 1.281529069
14.62845516 6.660228729 1.822478175
15.74720001 7.247693539 2.524860144
25.04914474 12.08200073 4.549964428
27.31097794 13.27073956 5.989362717
29.01795769 14.17430687 7.497357845
27.85778618 13.34441948 0.5695218444
15.78286076 7.178375244 1.283059716
14.65996265 6.611924171 1.824172258
15.71373367 7.164620399 2.519571066
16.26905251 7.45927906 3.22830677
28.14800644 13.58739471 6.142119408
28.92426109 14.00471497 7.466861725
15.80594158 7.124227047 1.284300804
14.67400455 6.557904243 1.824674487
25.42220688 12.0574379 4.597245216
28.22414398 13.50275707 6.149662495
32.14347839 15.52283478 8.200052261
15.12308311 6.711274147 1.26337111
14.77290344 6.543542385 1.831163168
14.82080746 6.579586029 2.418145895
15.65448189 7.009703159 3.13080287
28.30283356 13.42537308 6.158092976
29.02007294 13.80634594 7.471148491
28.16587639 13.13813972 0.5757422447
15.06363106 6.615638256 1.262036681
14.86345196 6.527595997 1.837098718
14.87868023 6.543929577 2.423009396
15.72426891 6.976442814 3.138579369
29.42713737 13.86629009 6.364393711
28.84991455 13.59444427 7.423044682
28.17884445 13.02206898 0.5785650611
15.05566978 6.546212196 1.262330413
15.08768654 6.574111462 1.852458477
16.23452759 7.151927948 2.570431471
15.73186684 6.911932945 3.137088299
26.54543304 12.30482864 5.812022209
27.28985596 12.69211197 7.055915356
28.27037811 12.94478893 0.5808125138
15.40820026 6.653858185 1.274012566
15.90184116 6.908664227 1.90944159
15.16031647 6.553369999 2.450993776
15.74810505 6.851837635 3.136925936
15.20711994 6.598009109 3.66241622
27.36980438 12.61354542 7.066049099
15.90190315 6.827311039 1.290191531
15.86067581 6.81997776 1.906080842
15.15742111 6.486549377 2.449235678
14.37101173 6.111823082 2.929166794
15.16910267 6.513850689 3.651758671
27.62547112 12.62072372 7.116506577
15.85486984 6.736234665 1.289306164
16.26130295 6.945070267 1.933885217
15.24923038 6.465732574 2.457880974
14.34519196 6.037561417 2.923039675
15.20166206 6.464440823 3.65447998
29.02884102 13.18297482 7.429525852
14.56975365 6.046095371 0.6855426431
15.69193745 6.590443611 1.284754395
16.0124855 6.752927303 1.91590476
15.28542995 6.417706966 2.46045351
14.53352261 6.066399097 2.948803902
15.35264015 6.468556404 3.679374695
30.04697037 13.54189777 7.653382778
14.79584312 6.087499142 0.6855601668
15.90174961 6.619270325 1.292054296
15.68362904 6.528710842 1.892341375
15.49176884 6.447043896 2.481585979
15.39218521 6.42184639 3.683459282
29.49162292 13.14911175 7.518106461
15.67622375 6.445825577 1.285521746
15.77257156 6.503680229 1.898233175
15.15689182 6.223659515 2.443647623
14.98243713 6.150719643 3.010883331
15.41019154 6.364850044 3.683530092
29.59994888 13.07483482 7.534536839
15.73326302 6.396476269 0.682333529
15.00787544 6.072025299 1.26486671
15.21910381 6.179217339 1.858919263
15.53178406 6.346732616 3.090213776
15.4226284 6.305312157 3.682598352
29.53068924 12.91696358 7.510596275
15.75555992 6.343448162 0.6837226152
14.91402626 5.965297699 1.26249063
15.03334141 6.029178619 1.845524669
15.06553078 6.056260586 2.431189537
15.54772854 6.28842926 3.09031105
15.4997921 6.27914238 3.694009542
29.58984375 12.8258543 7.51640892
14.80025673 5.853585243 1.259449363
14.87458801 5.896390438 1.834070563
15.19631004 6.052586079 2.444218874
15.23970222 6.084952831 3.042615891
15.4814291 6.205392838 3.687382936
15.06230259 5.90984726 1.268434763
14.7544632 5.779456615 1.825342655
15.25716114 6.019514561 2.449698687
15.1301899 5.971171379 3.024281502
15.21926689 6.024303436 3.635351419
14.96733856 5.804141045 1.266038895
14.97853661 5.821277618 1.840852499
15.80383492 6.201288223 2.5080235
15.21166992 5.944461346 3.034223557
15.14714527 5.924874306 3.618688107
15.38582802 6.045475006 4.274368286
14.63723755 5.592009068 1.256148458
14.69471169 5.629411221 1.820642114
15.66227245 6.068972588 2.491364956
15.38122177 5.953333855 3.057073832
15.17172623 5.869457245 3.620161772
15.39468098 5.982013702 4.272222519
31.69569588 13.00255585 0.595033288
14.58288574 5.507136345 1.255044818
14.60698605 5.526535511 1.814243793
15.41204643 5.902927399 3.059571028
15.66375732 6.023892403 3.709007263
15.38240147 5.912539005 4.265552998
31.70310402 12.88068581 0.598067224
14.62049198 5.465974808 1.256863832
14.62627316 5.477333069 1.815406442
15.28156567 5.772455215 2.447719097
15.55956364 5.906724453 3.07938695
15.80369473 6.023481369 3.732260704
15.39736462 5.858505249 4.265291214
31.76148987 12.78106022 0.6008009911
14.60659695 5.402445316 1.257038116
14.58127594 5.400351048 1.812067866
15.52624416 5.81828928 2.473263025
15.4472456 5.796847343 3.060961008
15.92208958 6.012800694 3.751499176
33.6276741 13.45306873 0.5930866599
14.58692265 5.336726665 1.257032752
14.51758099 5.315885544 1.807432771
15.44583416 5.722921848 2.463526726
15.47458649 5.748049736 3.063133001
27.37836838 10.88087463 5.879312038
29.81936455 11.95678616 7.508870602
33.76295471 13.36482143 0.5959203839
14.77823925 5.351615429 1.263934255
14.49788094 5.244784355 1.805890203
15.62551117 5.732475281 2.481927156
16.31683731 6.036162853 3.184770823
27.45340729 10.79461956 5.888063908
30.00638199 11.90172672 7.543162346
31.43808174 12.25333118 0.6123244166
15.39505672 5.561993122 1.868763566
15.79880333 5.741246223 2.499692678
16.29135895 5.958526134 3.179059505
27.48984718 10.69744682 5.889960289
30.15294456 11.84069443 7.569095612
31.47641373 12.14051151 0.6153172255
14.75677967 5.221576691 1.264619827
15.203619 5.419407845 1.85519743
15.51305008 5.557640553 2.467747211
16.26920128 5.882668018 3.1738801
29.04111862 11.23329926 6.172828674
30.18563461 11.73114491 7.569488049
14.76135921 5.163234711 1.265469193
15.13872528 5.330656528 1.850536704
15.59969997 5.530094147 2.476175547
16.24304771 5.805542946 3.1681602
16.05322075 5.740656853 3.761674166
28.11028099 10.74804592 7.096835613
14.78423023 5.112467766 1.266919971
14.87194824 5.160324574 1.831720948
15.55369282 5.447864532 2.47026968
16.14134407 5.697927475 3.151421309
16.08326912 5.6877141 3.764535189
29.9816761 11.40181828 7.510170937
14.7438755 5.036230087 1.266328216
15.00949287 5.155497551 1.841309547
15.56449413 5.389159203 2.47053957
16.08685493 5.61042881 3.141652584
29.10082436 10.90339279 6.169215679
30.23776245 11.38439178 7.560950756
14.738451 4.974413395 1.266876459
14.93589687 5.065378666 1.836092591
15.48638916 5.294967651 2.461227655
29.04977798 10.76528263 6.155063629
16.17337036 5.471316814 0.7073005438
14.7457943 4.91783762 1.267848253
15.48923206 5.233636856 2.460695028
28.47170067 10.39430046 4.947846413
28.51272011 10.43465805 6.051293373
30.22665596 11.13597488 7.545517445
37.48706818 13.7193346 0.6052860618
14.77053642 4.871139526 1.269358993
15.31331062 5.092784882 1.862536669
15.4881258 5.17091465 2.459762812
28.65979576 10.35946941 4.972495079
28.55151558 10.33533096 6.053994179
37.44205093 13.55898476 0.6091145873
31.46600533 11.27036572 1.815499306
15.34518051 5.043689251 1.864774942
15.52654171 5.126819134 2.463161707
31.24913216 11.25160027 5.347405434
29.01964188 10.40906906 6.136113644
30.47421074 10.9961071 7.58855772
37.45493698 13.41397572 0.6128528714
31.50257111 11.15840626 1.81831038
16.0410614 5.25234127 1.913641214
15.50457191 5.056258202 2.460030079
29.25089836 10.3574667 5.052915573
28.59858513 10.13060188 6.054204941
30.4965229 10.88292313 7.587380886
37.57949448 13.31152153 0.6160820127
16.07269669 5.197130203 1.915900946
15.4916029 4.989461899 2.457897186
28.36728668 9.90420723 4.921310425
28.70081139 10.0498724 6.068584919
37.90832138 13.33223629 3.448890209
15.49985027 4.927843571 2.458044052
29.02555656 10.03949928 5.01447916
28.70506859 9.937358856 6.065218925
30.32941246 10.57088375 7.537905693
38.08466721 13.24727631 3.461445332
28.2498436 9.635011673 4.898898602
28.75505447 9.8478899 6.070536613
30.4032402 10.48428059 7.548812389
29.57075691 9.991681099 3.972007275
28.3324585 9.553699493 4.908361912
30.15421104 10.25164509 6.323403358
30.11674881 10.07391262 4.029582977
28.43718338 9.480093002 4.921088696
30.09422874 10.11070538 6.30829668
30.26120186 10.00736332 4.043956757
28.35162544 9.337253571 4.906219959
30.08367538 9.988417625 6.302352905
31.49822044 10.32957745 4.175899506
28.2374382 9.185108185 4.887272358
30.12829971 9.886281013 6.306603909
30.11067772 9.716814041 4.025571346
28.39904976 9.131590843 4.908427238
30.23945808 9.807635307 6.323107719
30.22046089 9.637376785 4.036354065
31.60974312 10.14240932 5.37181282
30.25738144 9.68986702 6.322426796
31.70322037 10.02466583 4.194683552
31.73934937 10.06394577 5.388168812
30.44439507 9.636673927 6.352925777
31.85378456 9.958837509 4.209941387
30.56620026 9.565940857 6.371733189
31.5950737 9.748002052 4.181233406
29.83285522 9.199072838 6.234284401
31.61852074 9.63958931 4.1829319
29.7366581 9.057171822 6.213507652
29.84902573 8.973757744 6.230530262
29.8843708 8.864583969 6.233581543
48.2812233 11.96341133 0.7088603377
48.27165604 11.78067112 0.7137647867
42.74028397 9.886777878 2.274105787
42.73675919 9.727540016 2.276977777
42.67258835 9.561628342 2.277602911
43.7123642 9.477876663 2.320464849
42.97349548 9.144268036 2.297659874
43.4193306 9.096968651 2.316327095
43.20293045 8.859546661 0.7651531696
42.86507034 8.812066078 2.299954414
42.81111145 8.614168167 0.7697139978
42.71514893 8.6216259 2.297818899
42.80106735 8.455345154 0.7740775347
41.88497925 8.283368111 2.271582842
41.85565186 8.116456032 2.273836374
42.847332 8.144869804 0.7830169797
42.03530502 8.001926422 2.283388138
42.36968231 7.926230431 2.298345327
42.30214691 7.758366108 2.299175262
42.86885071 7.718774319 2.322728634
43.09262848 7.607550621 2.334086895
43.03357697 7.440135479 2.335330486
43.11525726 7.300088406 2.34166193
43.28294373 7.175707817 2.351136208
48.30648804 7.939061642 2.536458731
48.2502861 7.75500679 2.538300514
48.70716858 7.661809444 2.558817387
48.59867477 7.468143463 2.558829784
49.05296707 7.33640337 0.8424147367
48.33372879 7.2491045 2.553135633
49.20174789 7.219175339 2.588903189
48.51136398 6.931556702 2.567658901
48.26839066 6.728345871 2.562577963
48.23130417 6.550243378 2.565273046
49.5702095 6.527898788 0.8688323498
49.23836136 6.311376572 0.8731318712
48.29087448 6.206420898 2.575884104
48.49719238 6.064107418 2.587688446
49.75494385 6.032833576 0.8843473792
48.41609573 5.880259514 2.588861942
48.89670944 5.773822308 2.61099577
48.63817596 5.565845013 2.605612755
48.80889511 5.415445328 2.616293907
55.23079681 6.011816502 0.9179810286
48.93751526 5.258690357 2.625451326
55.66751862 5.869339943 0.9248201847
55.75107956 5.919070721 2.886309624
55.0900383 5.448569298 2.871350765
55.26219559 5.233856678 0.9411616325
54.94081497 5.237345219 2.87070179
55.24451447 5.027133942 0.9471948147
54.64375305 5.011301041 2.864439249
55.34341431 4.852270603 0.9530014396
54.60021591 4.814091206 2.867810726
54.87411118 4.649389267 2.883330584
54.6641655 4.435649395 2.880409002
55.01053238 4.275907516 2.89882946
55.0280304 4.084030628 2.904695034
62.54017639 4.269071579 1.014424801
55.26096344 3.707137346 2.924449682
61.56032181 3.800498247 3.179911137
40.4680481 2.047408104 2.364177465
62.00755692 3.354771137 1.038847446
40.47791672 1.906280756 2.368525743
41.98416901 1.840426207 0.9619683623
40.44894409 1.769656658 2.371179581
41.96551132 1.69222784 0.966372788
40.41396713 1.625834227 2.37381506
41.95608902 1.760459304 3.906311035
41.9648056 1.792056084 5.387228012
41.95878983 1.823116302 6.878111839
41.92290878 1.859977603 8.37831974
62.54714584 2.745545387 1.060741663
40.37049103 1.481854558 2.376132011
40.3384819 1.338835359 2.378917933
40.33789444 1.197749496 2.382963657
61.72278976 2.049698114 1.077012777
40.33282089 1.056481242 2.386856556
68.63860321 1.397089481 1.139817715
50.84717178 0.454924047 1.059280992
50.75159836 0.2752049863 1.064291954
51.05929947 0.1041761339 1.071533203
50.8706398 -0.08592350036 1.076315999
50.08110809 -0.2646080554 1.077039838
51.48270035 -0.2082035691 2.883220673
50.01100159 -0.4399963617 1.08211565
51.20681763 -0.3904954791 2.877536058
50.18027115 -0.6135078669 1.088622212
51.13612747 -0.5695173144 2.880220175
50.88892365 -0.7869495153 1.098470807
51.26462936 -0.7474627495 2.891096115
50.77498245 -0.9643226862 1.103370309
51.34456253 -0.926253438 2.900032997
50.7703743 -1.15029788 1.109229088
51.15404129 -1.113450885 2.898148298
50.64517212 -1.326356053 1.11403954
51.16874695 -1.291962504 2.904460907
50.77133942 -1.504533172 1.120481491
51.42860031 -1.473308682 2.9209795
50.66290283 -1.680027723 1.125399351
50.91178894 -1.861494541 1.132725835
51.76671219 -1.829127789 2.946421623
62.31322861 -2.282950163 1.216617584
62.18402481 -2.497152567 1.222678423
62.61903763 -2.94557333 1.239763141
62.25771332 -3.151237011 1.244156837
62.39491653 -3.326076984 3.432970285
62.47315598 -3.558260918 3.444032431
61.28266144 -3.779869556 1.258467555
62.4152565 -4.040408134 1.27389884
61.38937378 -4.20351553 1.272885442
62.28601074 -4.192515373 3.458016872
62.38437271 -4.464420319 1.287505865
62.71885681 -4.703086376 1.297350407
62.22146988 -4.901724815 1.30078721
62.06267929 -5.119853973 1.306956649
117.2015991 -19.64232063 2.130194426
33.16648865 -6.778634071 2.364860535
33.14652252 -6.900370121 2.369037151
33.0865593 -7.042404652 1.196009278
33.11235428 -7.019530773 2.372559786
33.08780289 -7.128434181 2.376068354
33.07551575 -7.245642662 2.380434513
33.06084824 -7.362472057 2.38471055
33.0398941 -7.478090286 2.388705015
33.02441025 -7.594832897 2.39298749
65.93141174 -17.72162056 1.763523579
65.97201538 -17.96502686 1.772503138
44.70056534 -12.42435074 3.067589998
42.13783264 -11.92066669 2.943914175
42.8133812 -12.29454994 1.438271999
42.64193344 -12.41633892 1.441714883
25.24720955 -7.69716835 2.088293314
65.20311737 -18.75269508 1.796637774
25.19815445 -7.77831316 2.090049267
41.7318306 -12.4835844 1.439090371
25.15076637 -7.859744549 2.091900349
25.90294075 -8.01682663 4.019326687
25.31276131 -7.999687672 2.104653358
65.11684418 -19.47604942 1.822424054
25.14041519 -8.050806046 2.10025382
65.07842255 -19.71086121 1.830766201
24.85798454 -8.064294815 2.089832544
65.55399323 -20.1087513 1.847892165
24.51823997 -8.05913353 2.076326847
42.72515106 -13.3356657 4.593014717
43.21959686 -13.72064304 1.492337465
24.44827461 -8.126727104 2.076738358
24.52044678 -8.12603569 2.97654891
25.40029526 -8.362269402 3.988357544
92.72199249 -28.73740578 2.311772108
24.77870178 -8.31844902 2.098548651
24.48849869 -8.204909325 2.978703737
23.5480423 -7.903095245 3.760625124
24.88310432 -8.449121475 2.108726025
24.48612976 -8.301961899 2.984064817
23.50288391 -7.983463287 3.761235476
24.05896759 -8.295490265 2.069497108
24.44145393 -8.38627243 2.985663176
25.12661171 -8.573178291 3.973478556
24.29798698 -8.461816788 2.086613655
25.16864395 -8.705071449 3.056598663
24.26661682 -8.403260231 3.870750427
24.38563156 -8.582484245 2.095721483
24.93188477 -8.727107048 3.040781021
24.08459091 -8.439124107 3.853939533
75.36934662 -24.99790955 2.080584764
24.49936485 -8.712360382 2.106292486
24.6711235 -8.744639397 3.022999287
24.82055664 -8.764608383 3.954203129
23.75955391 -8.572490692 2.071050167
24.25072479 -8.70425415 2.990363359
24.78744125 -8.854125977 3.956917524
23.71541786 -8.649707794 2.073045492
24.51868248 -8.884950638 3.02025795
24.72332001 -8.928786278 3.955366611
23.6463871 -8.718536377 2.073695183
23.64260864 -8.691041946 2.945879221
23.56958199 -8.784469604 2.073922157
23.64340973 -8.782837868 2.951386929
24.71688461 -9.117738724 3.96799469
57.71666336 -20.48148918 1.819536686
23.73618126 -8.927755356 2.087252855
23.60798073 -8.862636566 2.95361042
24.45815659 -9.126590729 3.941440344
24.96307945 -9.46270752 1.237364173
23.88697243 -9.06704998 2.099797726
23.17200089 -8.801252365 2.918742895
23.76506996 -8.981295586 3.858336926
24.80744934 -9.5872612 0.3231106699
24.73424911 -9.475948334 1.236662269
23.99599648 -9.197918892 2.110348463
23.10026169 -8.862342834 2.917296648
24.10769081 -9.186998367 3.909014702
24.81851768 -9.68846035 0.3254152536
24.67016983 -9.550254822 1.239104629
23.93470955 -9.270329475 2.11154747
23.02695847 -8.92706871 2.915983438
24.46081734 -9.403888702 3.961635113
12.32944393 -5.161438942 3.319985151
24.75763893 -9.764233589 0.3290552199
24.69068336 -9.654295921 1.243103743
13.2359066 -5.581571102 1.522289753
22.99858665 -9.007265091 2.918837547
24.51868057 -9.519981384 3.976112604
12.30419922 -5.203227043 3.319681168
24.92004967 -9.838484764 1.251190543
13.17345524 -5.613853931 1.521500945
24.12077141 -9.502203941 3.028903723
24.93919754 -9.770567894 4.038304329
12.31768322 -5.258636475 3.32738924
24.69722939 -9.860824585 1.250882983
13.19358444 -5.675635338 1.525320649
23.86393738 -9.509309769 3.011096716
24.61291695 -9.756227493 4.003243923
12.2274065 -5.277175426 3.313720226
56.74190521 -21.72044373 1.860848069
23.72416878 -9.584164619 2.119021893
23.80391693 -9.586328506 3.011591434
12.19254684 -5.315147877 3.311495066
56.47185898 -21.83396721 1.863745093
13.14667988 -5.76266861 1.52786696
23.67943573 -9.629943848 3.005479097
24.45853615 -9.893928528 3.997386932
12.15994263 -5.346577168 3.309037685
56.24108124 -21.97187042 1.867772698
13.19878101 -5.834346294 1.533419013
23.56645393 -9.681804657 3.000718594
24.38759041 -9.964561462 3.99529767
12.29978085 -5.460835934 2.871815443
12.15697384 -5.393638134 3.31323123
56.15214539 -22.16225815 1.874512672
24.11890602 -10.01116848 2.155291319
23.63798141 -9.802497864 3.013317823
24.05816269 -9.937778473 3.959148169
12.27802277 -5.501559734 2.872408628
56.23252106 -22.41730881 1.884563923
24.16332817 -10.12440681 2.162662268
23.47992325 -9.836647034 3.004320383
24.56987381 -10.22791767 4.033998489
12.11389637 -5.488333225 2.848798752
56.53563309 -22.759655 1.899051547
24.22938538 -10.24174786 2.171070814
23.42791557 -9.910536766 3.005323648
12.08549881 -5.523443699 2.848037481
64.98283386 -26.27339554 2.07452178
24.5984745 -10.48273373 2.197143316
23.72849846 -10.12128162 3.039810896
23.87586975 -10.15084171 3.956475258
12.0543375 -5.559799194 2.847033501
64.66870117 -26.411129 2.078192472
25.07024002 -10.76734734 2.229300976
23.90899277 -10.28274632 3.062759161
24.71920776 -10.57684517 4.07601881
11.99731159 -5.585944176 2.841615915
64.67869568 -26.68924904 2.088823557
13.22948265 -6.163957596 1.55123806
23.73902512 -10.31655216 3.053012848
11.97983646 -5.629772663 2.843198061
65.86526489 -27.44235992 2.123366356
24.37805367 -10.70183754 2.200060368
23.74849701 -10.42113781 3.060396671
12.39716721 -5.859180927 2.444924831
12.15847969 -5.7518363 2.878535271
24.77840042 -10.96333122 2.228418112
23.15170097 -10.27581882 3.009343386
12.33360863 -5.883749485 2.440321445
12.17239857 -5.806685925 2.885433197
64.6979599 -27.49825668 2.1197927
24.86863518 -11.10119343 2.238878012
13.77934074 -6.537117481 2.113562584
12.32699585 -5.931183338 2.443358183
12.10193634 -5.827446461 2.877805948
64.77085114 -27.79274368 2.131418943
24.84750938 -11.19392967 2.242884636
23.02649307 -10.41738987 3.009822845
12.3257103 -5.980895519 2.447138309
12.13193798 -5.889078617 2.887554169
24.99000359 -11.36039352 2.256800652
12.48643684 -6.112931728 1.995972753
12.36362743 -6.049593449 2.456441402
13.68541813 -6.586371422 3.161905766
74.60405731 -32.50259018 2.3595016
13.16367054 -6.4650774 1.564323306
12.44969082 -6.148680687 1.995772958
12.40944481 -6.119543076 2.466670513
13.7053051 -6.650795937 3.170604229
13.11780357 -6.375006676 4.097324371
13.10919666 -6.49604845 1.563926697
12.44950581 -6.199836731 1.999135613
12.28502846 -6.11775732 2.453873158
12.29520798 -6.094902515 3.409815311
13.0749321 -6.410772324 4.093086243
74.38141632 -33.02220154 2.378432512
13.03632641 -6.51880455 1.562430739
23.24555206 -10.88997555 3.05611968
12.34135723 -6.1925807 2.465600729
11.99759769 -6.033247948 2.882981777
12.29838943 -6.146903038 3.416004658
13.03555107 -6.447837353 4.089749813
12.74187946 -6.444727421 1.547702432
12.23522186 -6.197697163 2.455253839
12.18780518 -6.150087833 3.397879362
12.12990761 -6.112620354 3.866548538
12.78928185 -6.531012535 1.065229058
12.90888214 -6.571022511 1.560491562
12.60098839 -6.420789242 2.024291039
12.238307 -6.249822617 2.459792614
11.94113159 -6.107981682 2.882536888
11.71382523 -5.994532108 3.301707983
12.14526844 -6.169506073 3.876725435
13.0422945 -6.683975697 1.571352959
12.2103157 -6.288412094 2.460108519
11.83410931 -6.110553265 2.868486404
11.74961758 -6.058924675 3.314793825
12.1229105 -6.210158348 3.877362013
73.75738525 -33.98152542 2.412573576
13.05476856 -6.74409008 1.574996829
11.38865566 -5.984855652 1.911699772
12.17676163 -6.324456215 2.459675074
11.88601208 -6.182989597 2.882398605
12.93687534 -6.633954048 3.576160669
12.10397911 -6.252294064 3.878906965
11.69356251 -6.058423519 4.247298717
73.9473877 -34.37709808 2.428796768
13.028759 -6.78710413 1.576335311
11.3689146 -6.023691177 1.912975192
12.11414719 -6.347309589 2.455250502
11.86367989 -6.222727776 2.883280039
12.14536572 -6.321351051 3.895927429
53.57828903 -25.38185883 1.985485315
11.38711739 -6.079771042 1.918030143
11.4371109 -6.091032982 2.366020203
11.85380554 -6.268075466 2.886389494
12.05856705 -6.333178997 3.880174637
12.61531448 -6.706686497 1.556989074
11.40506935 -6.13602829 1.923093438
11.4097414 -6.126711845 2.366237164
12.70384789 -6.690596581 3.543923616
12.06048012 -6.384760857 3.887184858
12.59127998 -6.748945713 1.558386087
11.39203548 -6.178255558 1.925098062
11.40207958 -6.171414852 2.369199276
11.87836838 -6.379424095 2.900587559
12.36775112 -6.589666843 3.476941824
11.83658409 -6.320158482 4.318179131
12.38253498 -6.719611645 1.070678711
12.66732311 -6.840776443 1.566085339
11.36347961 -6.215681076 1.925730824
13.03324986 -6.983316422 2.600328922
11.29058743 -6.158643246 2.801007271
12.60277653 -6.753810406 3.534461021
12.01672459 -6.468985081 3.889439583
11.77069473 -6.34227705 4.306154728
12.01883888 -6.600016117 1.064367294
12.48217869 -6.80718708 1.557582378
11.36541843 -6.267436981 1.92943728
11.38349152 -6.261994839 2.374953747
11.22013569 -6.173576355 2.793195724
12.63601017 -6.825637341 3.548192501
11.87948132 -6.458384514 3.860942602
12.15477085 -6.719088078 1.069634676
11.36808681 -6.317280769 1.93307519
11.35284424 -6.298483849 2.37498951
11.26924992 -6.244740963 2.806786299
12.65397835 -6.888034821 3.55836153
11.89590073 -6.514224529 3.871525049
11.56053448 -6.343445778 4.257805824
52.4222374 -26.20438957 2.01236558
12.4721384 -6.9066329 1.562618375
11.35175037 -6.355750084 1.934649467
11.38661861 -6.360893726 2.383652925
11.16221237 -6.239404202 2.792172909
12.12736797 -6.688214302 3.448785067
11.90152645 -6.565219879 3.879375458
11.53858471 -6.379948616 4.258171082
52.25885391 -26.33942986 2.016939402
12.51389599 -6.980610847 1.56815052
11.35679436 -6.404587269 1.93840301
11.42724705 -6.427042007 2.393332481
10.56008816 -5.996857166 2.68862319
12.97297668 -7.147360325 3.640850782
11.8918848 -6.611643791 3.883651733
11.45810509 -6.390841007 4.241295815
28.70326996 -14.97480392 2.585079432
11.37757969 -6.466231823 1.944127798
11.40852642 -6.469669819 2.395134687
10.46836281 -5.999985695 2.676922083
12.97085476 -7.205014706 3.647278786
11.21349239 -6.336601734 3.713806391
44.33908844 -22.88772964 1.84648931
12.45810795 -7.066748619 1.57087338
11.3837738 -6.521050453 1.948406219
10.9945116 -6.317595959 2.341103792
10.50963879 -6.067826271 2.689243555
10.38202763 -5.991888046 3.081822872
11.217659 -6.389495373 3.721733093
27.59206963 -14.67566967 2.528991222
11.34436512 -6.550917149 1.947876215
11.04822731 -6.392061234 2.352849722
10.39937401 -6.058783531 2.673923731
11.14574528 -6.402635098 3.709454775
12.2071228 -6.912981987 4.491734982
12.34615135 -7.116284847 1.569617271
11.29598427 -6.576107025 1.946427345
11.16718388 -6.499858379 2.373936176
10.43852997 -6.121398926 2.685477734
11.66047859 -6.720003128 3.376399279
11.08956432 -6.423151493 3.701283932
12.36131477 -7.039944649 4.546318054
27.36025047 -14.79333115 2.527260303
11.19604778 -6.574924946 1.939669132
11.12184048 -6.523356915 2.371531963
10.43062592 -6.163041115 2.688761234
12.6064043 -7.244288445 3.592683792
11.12658024 -6.487708569 3.717311144
12.27557373 -7.050910473 4.528468609
27.29543877 -14.88043213 2.529801369
11.19302559 -6.620114803 1.942700863
11.08961391 -6.555755615 2.371212244
10.37680817 -6.18142271 2.683688402
12.57401848 -7.28586483 3.592453718
11.13449001 -6.540450096 3.726090908
12.3845253 -7.159684658 4.570039272
27.50283623 -15.11409283 2.550135374
11.20196247 -6.676545143 1.947347999
11.21331215 -6.670695782 2.393446445
10.39932728 -6.24095583 2.692828417
11.46436501 -6.775458813 3.351345062
11.10301971 -6.575759888 3.724860907
27.14480019 -15.04929161 2.533904076
11.20180321 -6.728518009 1.951085091
10.99118519 -6.607461929 2.366152763
10.49085617 -6.334312916 2.714467525
12.1179018 -7.16379261 3.504011869
11.06380081 -6.60453701 3.721261024
11.62481117 -6.880682945 4.354335785
27.51296616 -15.35736561 2.564096928
11.38337803 -6.871004581 1.973421693
10.86306953 -6.586764812 2.351823807
10.6195755 -6.44571209 2.74283123
12.07592392 -7.192941189 3.50082469
12.5110321 -7.403103828 4.112348557
11.67478752 -6.955454826 4.377369881
28.0777092 -15.91945648 0.3892842233
12.27813911 -7.407737255 1.583469152
11.59053707 -7.028710842 1.998566508
10.95103836 -6.679146767 2.368626833
10.6017046 -6.483561039 2.744541883
11.41636944 -6.900126934 3.35888052
11.73963928 -7.054420948 3.914666176
11.61216927 -6.974550724 4.366249561
27.99263954 -16.006073 0.3935747147
28.09575653 -15.95030499 1.502818346
12.25941753 -7.455457687 1.585502505
12.12843513 -7.370016098 2.058919191
10.45502949 -6.466559887 2.301415205
10.67508793 -6.572285175 2.763422012
11.33163929 -6.9087286 3.346362352
11.51606178 -6.97818327 4.34517765
28.03508568 -16.05023384 1.506555796
12.60605335 -7.700268745 1.611425638
12.05014801 -7.385095596 2.054872274
10.44838142 -6.512268543 2.304885626
10.63140202 -6.59914732 2.760694027
11.32416916 -6.955522537 3.350980043
11.64200211 -7.112523079 3.904098749
11.62784767 -7.091797829 4.388422966
12.66285896 -7.788049698 1.618376136
11.57044983 -7.179190159 2.008257151
10.83155727 -6.766818047 2.36494112
10.60950661 -6.635189056 2.761766911
11.24918079 -6.966038704 3.340321541
11.64048958 -7.164046288 3.911145926
11.34572697 -6.992576599 4.309227467
12.13774014 -7.616148472 0.6205809116
12.20039749 -7.589070797 1.591018796
11.42255497 -7.150652409 1.996466517
10.54445839 -6.659062862 2.327462435
11.24145889 -7.01264143 3.344935656
11.70034885 -7.249038696 3.93476367
11.22330952 -6.974933147 4.27897501
12.08980942 -7.644817829 0.6225165725
12.12740612 -7.617000103 1.105091691
12.13846016 -7.610311985 1.590084672
10.91230583 -6.921108723 1.946135402
10.49040031 -6.674790859 2.323691607
11.91052914 -7.443396568 3.015236616
11.1882 -7.031862259 3.338889122
11.87872028 -7.396905422 3.990091801
11.2541666 -7.042552948 4.296819687
12.10283947 -7.707543373 0.6236181855
12.08640957 -7.649512291 1.106232285
12.08873367 -7.63800621 1.589949846
10.93046474 -6.978487968 1.951580644
10.46482563 -6.708402634 2.32431078
11.65084839 -7.353837013 2.972449303
11.3587265 -7.17696476 3.384315729
12.7947464 -7.955929279 4.245457172
11.18158436 -7.0537467 4.282454014
12.0389595 -7.66544199 1.58980751
10.90452576 -7.016488075 1.952725172
10.42182827 -6.732227802 2.322378397
11.13175392 -7.117266178 2.880673647
10.8882513 -6.969281673 3.28340292
11.53189087 -7.314960957 3.912188053
11.14955044 -7.08696413 4.280757904
10.8881979 -7.057390213 1.954725146
10.3898592 -6.76445055 2.322293997
11.54200935 -7.401955605 2.963928223
10.87700272 -7.0128932 3.28719902
11.54474926 -7.37501955 3.923394203
11.12809753 -7.128564358 4.282832623
11.43705654 -7.435379028 1.555919409
10.50216579 -6.890052319 1.91716671
10.54848766 -6.902607918 2.350233078
11.75585747 -7.57656002 3.010232925
10.80306816 -7.023596764 3.276916265
11.51382351 -7.413301468 3.923152208
10.99840641 -7.106561184 4.250452995
11.65806866 -7.615699768 1.573890924
10.34747219 -6.847400665 1.903960466
10.42751694 -6.882072926 2.336804152
11.71341324 -7.60666275 3.008219719
10.68880653 -7.005784035 3.256641865
11.45465374 -7.430112362 3.914447308
10.94781303 -7.128539085 4.242913246
11.0698576 -7.328509808 1.537205458
10.26691532 -6.851271629 1.899061561
10.56096935 -7.007707596 2.36121726
11.1324892 -7.325852394 2.903847933
10.65079498 -7.035989285 3.254588604
11.46404743 -7.491290569 3.92527771
10.96412563 -7.188626289 4.256540298
10.23909664 -6.882995605 1.899680376
10.33101082 -6.925397873 2.331701756
12.55157852 -8.20621109 3.180491447
10.62566948 -7.071041107 3.255215883
11.41201878 -7.514538288 3.918946743
10.85714531 -7.180327415 4.231588364
37.92974091 -23.48449707 0.3023561239
10.83258438 -7.294818878 1.527192712
10.26265717 -6.944907665 1.905905604
10.50641632 -7.076922894 2.362556458
10.92238235 -7.309278965 2.8756423
10.65457821 -7.137690544 3.268450975
11.36333656 -7.539458752 3.913531065
10.85478783 -7.229688168 4.239389896
37.91593933 -23.65581894 0.3065983057
10.84616852 -7.353975296 1.531108141
10.2259798 -6.97148037 1.905589223
10.51023579 -7.128639698 2.367805719
11.76090717 -7.856498241 3.042187214
10.77264977 -7.257421017 3.302594185
12.19489956 -8.082449913 4.150886059
37.89113998 -23.82108688 0.3109827936
10.87830734 -7.424596786 1.536328435
10.13626766 -6.966186047 1.899457693
10.3367157 -7.074698925 2.346354008
11.12611771 -7.533682346 2.92645216
10.75182629 -7.295860291 3.304425478
11.38800621 -7.661036968 3.936451197
37.88955688 -24.00103188 0.3150802553
10.85881901 -7.464547634 1.538020253
10.13368511 -7.012775898 1.902877569
10.31494427 -7.110662937 2.34773612
11.04009342 -7.534776211 2.91587472
10.70394993 -7.318114281 3.29994154
11.6011076 -7.842450142 4.00370121
11.32989693 -7.666782379 4.417722225
37.88888168 -24.18229866 0.3191741705
10.94831276 -7.570906639 1.54728353
10.78143406 -7.457389832 1.978336215
10.19469929 -7.086878777 2.334196329
10.93056965 -7.521043777 2.90071106
10.88143444 -7.478879452 3.348838806
11.59022808 -7.893807888 4.009498119
11.4198246 -7.77473402 4.455855846
37.87989807 -24.3683548 0.3235831261
11.20952988 -7.786471367 1.568742752
10.76515865 -7.499074936 1.980534673
10.16671944 -7.121016026 2.334859133
10.93295193 -7.577400684 2.907473803
12.18087864 -8.322497368 3.662483454
11.88625431 -8.12915802 4.100475311
11.81121063 -8.069452286 4.591789246
37.86231995 -24.5406189 0.3278976381
11.10048008 -7.772964954 1.564309835
10.93845463 -7.6579175 2.003830194
10.17686749 -7.176159382 2.341120958
10.89423752 -7.606113434 2.906000614
12.1412344 -8.356624603 3.660954237
11.89046097 -8.188752174 4.110413551
11.4896307 -7.929374695 4.497763634
37.83383942 -24.70667648 0.3323486149
11.02723122 -7.780976772 1.56235218
10.98737526 -7.741225243 2.01341033
10.26761341 -7.281695843 2.35977149
10.62238884 -7.49008131 2.859070539
12.10149765 -8.390572548 3.659420729
11.83812046 -8.213699341 4.104590416
11.51059437 -7.997596741 4.514184952
37.85195541 -24.90278816 0.3362456262
11.03857613 -7.841686726 1.566341877
10.92957783 -7.758308887 2.011113882
10.21990871 -7.301624298 2.357281208
10.58237839 -7.516562462 2.857228041
10.55126476 -7.48235321 3.298453569
11.92943573 -8.327819824 4.139127254
11.32977581 -7.940899849 4.465229988
37.84218979 -25.08210373 0.3404853046
11.07492256 -7.918591976 1.57213223
10.96267605 -7.83252573 2.019015789
10.26443291 -7.379516602 2.36899519
10.51394081 -7.524958611 2.849813223
10.44663525 -7.467909813 3.280467749
11.90638638 -8.371319771 4.141661644
37.79631424 -25.23890305 0.345154345
11.04355717 -7.952860832 1.573150039
10.85937405 -7.8203969 2.011600733
10.35037231 -7.48440361 2.387192011
10.28566074 -7.431457996 2.810929775
10.38364315 -7.479044437 3.272366524
11.88481712 -8.415801048 4.14466095
11.26816463 -8.01228714 4.464555264
21.44934082 -14.81921482 0.538859427
21.53142166 -14.7790966 1.430626988
11.06414127 -8.020471573 1.577881932
11.15336704 -8.062565804 2.049073935
10.49748325 -7.629549503 2.414994001
10.25927067 -7.465098858 2.811664343
10.31905556 -7.488755226 3.263856173
11.79581833 -8.417367935 4.12860918
11.23962879 -8.049343109 4.46501255
21.42411613 -14.90929794 0.5415016413
21.46772575 -14.84428978 1.433091402
10.89508915 -7.965600491 1.569048524
10.02729511 -7.377732754 2.346982718
10.23111534 -7.497560501 2.812068701
10.30563164 -7.530982494 3.267632961
11.78225613 -8.466747284 4.133923531
11.1947403 -8.07588768 4.460142612
37.64657974 -25.70358849 0.3592919409
21.46572113 -14.94973373 1.437423706
10.86862469 -8.002441406 1.570406556
11.3096714 -8.274931908 2.075647593
9.969567299 -7.38989687 2.342897177
10.15487766 -7.498745441 2.802948952
10.25091743 -7.546536922 3.261486769
11.67703056 -8.456957817 4.113193989
37.52654266 -25.81267929 0.3647919595
44.84096909 -30.47112083 2.154283285
10.77699852 -7.996380329 1.567059517
10.623559 -7.883279324 2.001946688
9.908557892 -7.399568081 2.33828187
10.11342335 -7.522165298 2.800713062
10.21473503 -7.57643795 3.260167122
11.69777107 -8.531417847 4.128817558
44.8487587 -30.71258354 2.164270163
10.68721294 -7.990869999 1.563813925
10.61062622 -7.927942753 2.004724741
9.8497715 -7.412790298 2.334241629
10.09663296 -7.56167078 2.803403139
10.20094013 -7.618401051 3.263939857
37.31210709 -26.04711914 0.3754574656
44.92733002 -30.98003387 2.17557168
10.76523972 -8.096855164 1.572775841
11.22186852 -8.389169693 2.079375982
9.89070034 -7.487104416 2.345395327
10.0599699 -7.588041306 2.802145481
10.201231 -7.667248249 3.270825624
37.3333931 -26.25131035 0.3793644607
44.46561432 -30.89614296 2.170621395
10.98008919 -8.2960186 1.591831207
20.5496006 -14.71131039 3.161067724
9.775276184 -7.459641457 2.332172871
10.20011139 -7.717941761 3.277785778
37.06652832 -26.25943565 0.3864040077
44.52589798 -31.16342735 2.18187952
10.96074677 -8.338728905 1.59381783
20.14989853 -14.54508305 3.123175383
9.740670204 -7.485868931 2.331684828
44.27639008 -31.22024345 2.183451414
10.9412384 -8.381399155 1.595805287
20.10685921 -14.61856651 3.12650609
9.743693352 -7.537611008 2.337187767
36.98404694 -26.58365822 0.3955539465
43.92663956 -31.20642853 2.181792021
10.26557922 -7.972228527 1.549130321
20.020895 -14.6625967 3.124855995
9.735027313 -7.58160162 2.34087038
36.97170258 -26.77630615 0.4000344574
43.76429749 -31.33168411 2.18649888
10.05913544 -7.884534359 1.537168026
20.0224514 -14.77201748 3.133877039
9.742933273 -7.639706612 2.347494841
36.63933563 -26.73459625 0.4076351821
43.55781555 -31.41415977 2.189304113
10.02808952 -7.91497612 1.538061261
20.25610352 -15.03880215 3.169843674
9.764751434 -7.705329895 2.356150866
43.5538559 -31.63851929 2.198638678
10.10791779 -8.023474693 1.547291875
20.23570824 -15.12990379 3.176091909
10.32341194 -8.148258209 2.451395273
43.43754959 -31.79546738 2.204840422
10.05075169 -8.038460732 1.546420574
20.14582062 -15.17735863 3.174594402
10.2270031 -8.136713982 2.441631556
43.90080643 -32.36778259 2.23009634
9.936410904 -8.009579659 1.541037679
20.9663105 -15.87452126 3.281373501
10.19701099 -8.171760559 2.44258976
37.1784668 -27.89912224 0.4188623428
9.911103249 -8.041275024 1.542220116
20.94378281 -15.96359825 3.287407398
10.23227882 -8.248241425 2.453631639
36.93881607 -27.92241669 0.425445497
9.903824806 -8.088672638 1.544951916
20.8902607 -16.03050423 3.289776564
36.72694397 -27.9744873 0.4319259524
11.97366142 -9.657819748 1.707437277
20.83441544 -16.10681725 3.292818069
37.69039917 -28.89833641 0.4271284044
11.90283203 -9.673167229 1.706207871
20.80394363 -16.20180511 3.298953772
37.65657806 -29.07760239 0.4317776263
11.8864851 -9.725308418 1.708982468
20.68458939 -16.2256031 3.293901443
37.70025635 -29.31592178 0.4357071817
11.86672115 -9.775051117 1.711510301
20.66103554 -16.32019997 3.300470352
37.70606232 -29.52711487 0.4400101006
11.81007862 -9.797147751 1.711171985
20.60844421 -16.39326859 3.303546906
37.73152542 -29.75446129 0.4441476762
11.78682518 -9.844288826 1.713447571
37.73048782 -29.96282578 0.4485432208
37.75373459 -30.19114685 0.4527366161
37.72702408 -30.38177681 0.4573853016
37.70679474 -30.58909798 0.4622088671
37.72370911 -30.81615448 0.4665035009
37.73166656 -31.03744888 0.4708918035
5.822630882 -5.483594894 2.310771465
37.74634171 -31.26542854 0.475240916
5.800303936 -5.498951912 2.309981346
37.73344421 -31.4724865 0.4798337519
5.381412983 -5.197688103 2.204765797
37.727314 -31.6861515 0.4843843579
37.707798 -31.88996124 0.4890540838
5.381443501 -5.259673595 2.214360714
37.71350098 -32.1157074 0.4935387075
37.71811676 -32.34183884 0.4980475605
37.70472717 -32.55426407 0.5027108788
5.445957661 -5.40892601 2.246604681
37.71531296 -32.799366 0.5074375868
15.89029121 -14.23874378 2.118317604
5.411058426 -5.427928448 1.737518787
37.71344757 -33.02413559 0.5120466352
15.63200378 -14.13533401 1.387193084
15.46701527 -13.97580719 2.088916302
5.389066219 -5.441634178 1.73722446
5.393057346 -5.429066658 2.242492437
37.71807861 -33.25578308 0.5166248083
15.41224384 -14.04191113 1.382739067
15.3801384 -13.99470329 2.087665796
5.416923523 -5.497553825 1.745749593
4.659131527 -4.840846062 2.048906088
15.44942284 -14.24803162 0.6785042286
15.21456337 -13.96535015 1.379057646
15.2811861 -14.00276375 2.085371256
5.391710281 -5.508662224 1.744921803
4.653470039 -4.865454674 2.052038431
15.32431412 -14.23359585 0.6812756658
15.12874413 -13.98827171 1.37987709
15.10985565 -13.94769096 2.076871634
5.072177887 -5.274633408 1.455432177
5.398723602 -5.549028397 1.750020146
4.190543175 -4.496531487 1.930290341
4.567912102 -4.813925266 2.252906084
15.14835548 -14.17363644 0.6843697429
15.18321896 -14.12365627 1.385810494
15.03248501 -13.97277069 2.076337576
5.047802925 -5.284446239 1.454970837
5.353233814 -5.540902138 1.745399117
4.182932377 -4.514198303 1.932079911
4.588616848 -4.858170509 2.264424086
15.04648304 -14.17745495 0.6869319677
15.03924084 -14.09084225 1.384127975
14.89956474 -13.94882107 2.07100606
5.027185917 -5.295889854 1.454867363
5.281662464 -5.511293411 1.736247659
4.173135757 -4.531293392 1.933494329
4.598100185 -4.894477844 2.272666931
14.90291691 -14.14351177 0.6897493005
14.9121542 -14.07175064 1.383072615
14.51402092 -13.70102024 2.043751717
5.016952515 -5.319509506 1.456426859
5.278844357 -5.541428566 1.739426494
4.75041008 -5.07059288 1.869349122
4.16704464 -4.552962303 1.936156869
4.955828667 -5.228514671 2.638164043
14.76788044 -14.12066555 0.692576468
14.5396471 -13.83790779 1.372307658
14.4072094 -13.70103359 2.040767908
5.005905151 -5.340918541 1.457751155
5.267636776 -5.565953255 1.741303444
4.172280312 -4.590466976 1.741430283
4.18205452 -4.592050552 1.944477439
5.486120224 -5.734992504 2.572355032
14.54640102 -14.01408958 0.6958287358
14.40204906 -13.80582619 1.370681047
14.29986286 -13.69527626 2.037398577
5.000703812 -5.367609024 1.459874153
5.229043007 -5.564476967 1.73803401
4.201234818 -4.635186195 1.954024553
5.42688036 -5.716640949 2.559388876
4.921460152 -5.261143684 2.638547182
14.46880436 -14.03132343 0.6980520487
14.48156548 -13.96845055 1.377856255
14.62362194 -14.05292416 2.761854649
5.214113712 -5.58397913 1.739062667
4.475699425 -4.913397789 1.818333387
4.177841187 -4.640634537 1.95178771
5.380879879 -5.709584236 2.550681829
4.903918743 -5.27479744 2.63814044
14.45835209 -14.11410809 0.6999476552
14.39667892 -13.97872162 1.378160596
14.26987839 -13.84446144 2.046535492
14.55973148 -14.08775711 2.761583328
5.207287788 -5.609173298 1.74139905
4.461566925 -4.928944111 1.818984032
4.163850307 -4.653107166 1.951957941
5.35895586 -5.722126961 2.549525023
4.886995792 -5.290520668 2.638310432
14.35332298 -14.11029053 0.7024089694
14.32877827 -14.00861073 1.379347324
14.06683636 -13.75009441 2.034638166
4.951321602 -5.41607523 1.461613894
5.21418047 -5.64861536 1.746469617
4.450293541 -4.947096348 1.820310831
4.164447308 -4.681445122 1.956665039
5.341911793 -5.74072504 2.55030489
4.880019665 -5.315216541 2.642277002
14.39578056 -14.24709415 0.7040874958
14.29971504 -14.0785923 1.38234055
4.956660271 -5.454344749 1.465379119
5.199564457 -5.670326233 1.747808337
4.428058624 -4.956671715 1.819299102
4.416346073 -4.939734459 2.032241821
5.299552441 -5.737924576 2.543041706
4.870721817 -5.339466572 2.645737886
14.36669064 -14.31361198 0.7060984969
14.258605 -14.13766289 1.384845614
14.49106121 -14.32907772 2.085117102
4.929646969 -5.462984085 1.464735985
5.195053101 -5.701403141 1.751036048
4.399281502 -4.958693504 1.816557288
4.472678185 -5.020056248 2.0528543
5.22725153 -5.707274437 2.525783062
4.867770672 -5.368071556 2.651336432
14.33585453 -14.37872028 0.7081195712
14.19707394 -14.16844368 1.386093259
13.96976376 -13.93701649 2.044572353
4.915087223 -5.481482506 1.465659261
5.22110033 -5.757694244 1.759593368
4.402320862 -4.990069866 1.821270943
4.47610569 -5.050780773 2.058368206
5.21681881 -5.729784489 2.52841258
4.727544308 -5.27000618 2.604241848
14.19144535 -14.33653736 0.710755825
14.16956902 -14.23567677 1.388982177
13.93861103 -13.9992857 2.047938824
4.953511238 -5.548091412 1.473783612
5.209807873 -5.781258106 1.761440873
4.385038376 -5.002671242 1.821238041
4.583804131 -5.182015896 2.094137669
5.245226383 -5.790267467 2.544408321
4.795215607 -5.363756657 2.636998653
13.94355869 -14.11968613 1.383606076
13.74690819 -13.91438961 2.037050724
4.832243443 -5.467781067 1.460056543
5.170165062 -5.779871941 1.758186102
4.762956142 -5.388972759 1.914955258
4.519456387 -5.153112888 2.080968142
5.26956749 -5.849260807 2.559502363
14.03352261 -14.3833456 0.7154485583
13.9050951 -14.18031693 1.386200428
13.66722679 -13.93431282 2.036275148
4.857204914 -5.52520895 1.466647506
4.081582069 -4.775462627 1.757690549
4.501611233 -5.166110992 2.080816507
5.316122532 -5.929852486 2.582231045
13.93753529 -14.38494968 0.7177696824
13.97821808 -14.3437252 1.393437624
13.59995365 -13.96113014 2.036310434
4.866829395 -5.56688261 1.470995188
4.273141861 -4.991827965 1.596592069
4.093583584 -4.814152241 1.764412522
4.492233276 -5.187143326 2.083114386
5.367269993 -6.013939381 2.606368542
13.81163788 -14.3567276 0.7202191353
13.93116856 -14.3923893 1.395506144
13.65746593 -14.1083231 2.04785347
4.837563992 -5.571370125 1.469897389
4.047140598 -4.796938896 1.757192492
4.96845293 -5.674718857 2.22602582
5.193603992 -5.883324146 2.554233313
4.371460438 -5.088170052 2.499445677
13.69608784 -14.33760929 0.722595036
13.63923073 -14.20222569 1.386818886
13.95144749 -14.48718929 2.08143425
4.834013939 -5.600669861 1.472432971
4.248589039 -5.025619507 1.598668575
4.046158791 -4.823339462 1.760855317
5.090916157 -5.826724529 2.267248869
5.194161415 -5.918883324 2.561202765
4.376033783 -5.122031212 2.507715225
13.64103413 -14.36790085 0.7244876623
13.54454041 -14.19316864 1.386308908
13.91857433 -14.54065609 2.0842278
4.84903574 -5.645021439 1.477327585
4.261055946 -5.063830376 1.604125023
4.122616768 -4.92267704 1.782853365
4.998672962 -5.769762039 2.24587059
