# .PCD v0.7 - Point Cloud Data file format
VERSION 0.7
FIELDS x y z
SIZE 4 4 4
TYPE F F F
COUNT 1 1 1
WIDTH 1262
HEIGHT 1
VIEWPOINT 0 0 0 1 0 0 0
POINTS 1262
DATA ascii
-18.50022888 -22.50261879 4.479729176
-22.7244091 -29.1745472 6.709400177
-17.57920647 -21.1862278 6.158025265
-12.11368847 -12.22534466 0.8127478361
-12.09271431 -12.22769356 1.360360742
-12.01198101 -12.20335388 1.903531909
-12.07974339 -12.34266281 2.464604855
-22.40255356 -28.36488914 5.341372013
-22.91049385 -29.23250389 6.738584042
-23.86394501 -30.79932022 8.381955147
-12.15165329 -12.18362617 0.8154262304
-12.14723015 -12.21096992 1.363054276
-12.06307507 -12.18180943 1.90646863
-22.33225441 -27.94573593 4.084591389
-24.10299492 -30.75391388 5.703987598
-23.08863258 -29.27625656 6.765311718
-17.69132805 -21.02130318 6.151372433
-12.19392776 -12.14361477 0.8181426525
-12.18179893 -12.16405201 1.3651371
-12.14382172 -12.20508099 1.912192345
-22.49511337 -27.97424126 4.099777699
-22.31286812 -27.77258682 5.286048412
-23.19914818 -29.21497726 6.772445202
-17.73875237 -20.92632103 6.145161152
-12.23040867 -12.10001087 0.8208352327
-12.22177124 -12.12050343 1.367430687
-12.16850853 -12.13826752 1.912556291
-22.72404671 -28.08989143 4.124783039
-22.24960327 -27.45928955 5.255191326
-23.43983269 -29.33942604 6.815696239
-24.4319973 -30.9294529 8.481582642
-12.25437069 -12.0380888 0.8239053488
-12.26261711 -12.08335018 1.369695067
-12.21391106 -12.10781574 1.914963245
-22.94675446 -28.20437431 4.149226665
-21.55483627 -26.20176315 5.08526516
-23.66432762 -29.44799805 6.85529232
-24.61775398 -30.96780205 8.513734818
-12.29265022 -11.99763775 0.8265018463
-12.29770088 -12.03779507 1.371777296
-12.24690533 -12.05900478 1.916216135
-24.98090172 -31.00667953 4.456614971
-21.81185913 -26.38020325 5.126024246
-23.27221489 -28.63279915 6.71940279
-22.51988792 -27.5844841 7.747590542
-12.32960987 -11.95543575 0.8291220665
-12.31449032 -11.96575737 1.373286843
-12.28753853 -12.0216732 1.918188214
-23.62346458 -28.76603508 4.23380518
-21.69780922 -26.00629616 5.085269451
-23.31433868 -28.47255135 6.707655907
-22.66079521 -27.57862091 7.76733923
-12.36525726 -11.91147995 0.8317665458
-12.3479557 -11.92328644 1.375256777
-12.32350445 -11.9776268 1.919731736
-22.37403107 -26.72619438 4.029816628
-21.74458504 -25.87302971 5.079990387
-23.56436157 -28.61950302 6.754696369
-22.81013298 -27.59505653 7.79141283
-12.39619255 -11.86569691 0.8343500495
-12.39601803 -11.89724541 1.37772584
-12.34909248 -11.92353058 1.920409203
-21.57669258 -25.3615284 3.896666288
-21.84232903 -25.81505585 5.085902214
-23.69330025 -28.59750175 6.76863718
-22.97251511 -27.61869812 7.818437576
-12.41994095 -11.80521011 0.8373094201
-12.42680836 -11.84645176 1.379651308
-12.38575935 -11.88097477 1.922033072
-21.59776306 -25.19631386 3.890650511
-21.55704689 -25.21302032 5.009667873
-22.65212822 -26.86731529 6.454267025
-23.02961349 -27.48788834 7.809169292
-12.46300507 -11.7724638 0.8396810889
-12.45734501 -11.7956028 1.381562471
-12.42567539 -11.84322739 1.923963308
-21.70575523 -25.15703964 3.898087025
-21.64913177 -25.15080261 5.014722347
-22.90327835 -27.02157211 6.50237751
-24.12047386 -28.84942245 8.153716087
-12.50867748 -11.7125206 0.3009401858
-12.49550724 -11.72491646 0.8423445821
-12.48995876 -11.74795055 1.38353312
-12.46313477 -11.80209255 1.925672293
-21.80567741 -25.10591316 3.904289484
-21.64863586 -24.95665932 4.999914646
-23.02661514 -26.98994064 6.514744759
-25.10303688 -30.03456879 8.458576202
-12.5362339 -11.65850544 0.3046963513
-12.53711987 -11.69028664 0.8447321653
-12.52933025 -11.70998478 1.38571167
-12.49695015 -11.75596428 1.92705214
-21.88356018 -25.02353668 3.907138824
-21.79141998 -24.96703529 5.015959263
-22.75035095 -26.39126968 6.416743755
-23.62720871 -27.70687294 7.927112579
-12.57274151 -11.61257744 0.3079386652
-12.56571198 -11.63769436 0.84747082
-12.56387234 -11.66540718 1.387732863
-12.51776218 -11.69189262 1.927246332
-21.91362572 -24.87446594 3.902741194
-21.87000656 -24.88619614 5.018261909
-22.99873924 -26.53870773 6.46393919
-23.61903954 -27.48309326 7.895950317
-12.61275291 -11.57619381 0.3105435669
-12.591506 -11.57701397 0.850438714
-12.59586334 -11.61750698 1.38966763
-12.56510735 -11.66508675 1.92988193
-22.04061699 -24.86133575 3.913130045
-21.91336632 -24.74705887 5.012417793
-23.01155663 -26.35391045 6.446303844
-23.69969368 -27.38591957 7.895031929
-12.64669037 -11.53164768 0.3136481345
-12.63256836 -11.5420742 0.8527942896
-12.63097858 -11.56956005 1.391741753
-12.59811878 -11.61389351 1.93112576
-22.2237072 -24.91529655 3.931544304
-22.1259861 -24.85244179 5.043234348
-22.77380753 -25.8135643 6.359486103
-23.18975639 -26.45812035 7.695032597
-12.67805958 -11.48379612 0.3169446588
-12.67349243 -11.50700283 0.8551415205
-12.66489315 -11.52472782 1.393726826
-12.63579178 -11.57388878 1.932886362
-22.55686569 -25.1823082 3.972961187
-22.54294777 -25.2357502 5.116999626
-23.34524345 -26.40340042 6.494433403
-22.79659462 -25.71430206 7.537106037
-12.70561695 -11.43108082 0.3205317557
-12.70114899 -11.45415306 0.8578269482
-12.69501781 -11.47500515 1.395584702
-12.66618347 -11.52413082 1.933990002
-22.75869942 -25.26597977 3.994433165
-22.18772507 -24.56044388 5.027999401
-23.70404243 -26.69312668 6.570847034
-22.84532928 -25.58541489 7.527378559
-12.73652458 -11.38310719 0.3238019943
-12.73813725 -11.41406441 0.86024791
-12.73809814 -11.44282246 1.397854805
-12.6987114 -11.47752666 1.935295939
-22.82965851 -25.17093277 3.996214151
-22.3955574 -24.65558434 5.057632446
-23.71108055 -26.50068855 6.55188036
-24.15196037 -27.16692162 7.934089184
-12.77926922 -11.35098934 0.3260535896
-12.7629137 -11.35790539 0.8629683852
-12.76929283 -11.39933395 1.399693727
-12.73223305 -11.43243599 1.936698675
-22.95881844 -25.16371346 4.007167816
-22.95284462 -25.2175045 5.160056114
-22.87841606 -25.17995071 6.307500362
-22.95612144 -25.35785294 7.514122009
-12.81099224 -11.30443478 0.3292007148
-12.79739285 -11.31925201 0.8652553558
-12.79155064 -11.33982277 1.401281238
-12.76822186 -11.39526653 1.93841207
-23.67814445 -25.93101501 4.105575085
-22.54952049 -24.48996162 5.062041759
-22.95999336 -25.10836411 6.310778141
-23.12744141 -25.39557648 7.545152664
-12.83885288 -11.25305557 0.3326357603
-12.83383465 -11.27888584 0.8676447868
-12.84022713 -11.31525135 1.403720737
-12.79774189 -11.34523296 1.93946588
-24.42954254 -26.72849083 4.2082057
-22.64670181 -24.44343376 5.069191933
-23.12310028 -25.13555717 6.334887981
-23.04568481 -25.09518623 7.493266582
-12.87502384 -11.21268559 0.3353587687
-12.87100697 -11.23519611 0.8701658249
-12.86200142 -11.25563431 1.405280948
-12.83673286 -11.30783463 1.941380858
-23.03339958 -24.69902229 3.992296696
-22.74419022 -24.37869644 5.075061321
-23.95290947 -26.03952408 6.536107063
-23.27252197 -25.20555878 7.542428017
-12.90120888 -11.15960503 0.3388677537
-12.91078186 -11.19935131 0.8724457026
-12.89451313 -11.21023178 1.407185197
-12.86916924 -11.2575922 1.942631483
-23.0885582 -24.58599854 3.991966963
-27.00322533 -29.75000191 5.938323975
-23.5523262 -25.31097031 6.409139633
-23.43607521 -25.2304039 7.570776939
-12.94440746 -11.12848186 0.3409743011
-12.92612553 -11.13668156 0.875136435
-12.93420792 -11.17420387 1.409320116
-12.89836216 -11.21215153 1.943756223
-23.25047302 -24.61150932 4.00740242
-22.9624939 -24.29735947 5.093017578
-23.29444885 -24.79606628 6.322769165
-23.57973671 -25.22796059 7.59257412
-12.98006344 -11.08780956 0.3436672688
-12.96430302 -11.09908772 0.8774247169
-12.96386719 -11.12547684 1.411121249
-12.93807411 -11.17600918 1.945751786
-23.30378151 -24.49640656 4.006855965
-23.00078583 -24.17408943 5.088179111
-23.50984001 -24.88814926 6.360567093
-23.52782822 -24.9719162 7.551313877
-13.00933361 -11.039217 0.3468434513
-13.00067806 -11.05502605 0.8798996806
-12.99082279 -11.07355309 1.412828088
-12.96776199 -11.12718868 1.946854949
-23.23842812 -24.23085213 3.988991022
-23.04595757 -24.04239655 5.08351469
-23.62277985 -24.84678459 6.37133646
-23.63123322 -24.91772842 7.560306549
-13.03461742 -10.98589802 0.3503011465
-13.03853798 -11.01719856 0.8821691871
-13.02958679 -11.03243065 1.41495955
-13.01296806 -11.09385014 1.949273705
-23.2870369 -24.10319901 3.987500668
-23.62337494 -24.59482574 5.187720299
-23.47628784 -24.46632004 6.313474178
-24.15963745 -25.39491081 7.703984261
-13.07095623 -10.94652462 0.3528630733
-13.07373238 -10.97614193 0.8844860196
-13.06861687 -10.995965 1.417055488
-13.02854633 -11.0276947 1.949132085
-23.3703804 -24.02884483 3.991527081
-23.28983879 -23.99253082 5.106871605
-23.57446861 -24.40789795 6.320662498
-24.20011711 -25.25683784 7.692504883
-13.10713387 -10.90703964 0.3554156125
-13.09615803 -10.91945457 0.8870729208
-13.09365177 -10.94229031 1.418682694
-13.06506634 -10.98802185 1.950864792
-23.98836136 -24.62055397 4.073163033
-23.35917282 -23.90093803 5.107913971
-23.42969131 -24.04524612 6.264923573
-23.99774933 -24.81503677 7.604151726
-13.13934898 -10.86281681 0.3582508564
-13.12843132 -10.87514019 0.8894227743
-13.13360977 -10.90716839 1.420801163
-13.10518837 -10.95290375 1.952922344
-23.38843918 -23.69656372 3.978143692
-23.68221855 -24.12425804 5.16005373
-23.4497509 -23.89156532 6.252216816
-24.03082848 -24.67180061 7.590983391
-13.18282223 -10.83237267 0.3602008522
-13.16431522 -10.83538342 0.8916788101
-13.15947628 -10.85491848 1.422445655
-13.13130283 -10.90062237 1.95374167
-23.67405891 -23.87210274 4.011491776
-23.73433495 -24.00985909 5.157595634
-23.56842422 -23.86076736 6.265059471
-24.06688309 -24.53322983 7.578940868
-31.15984917 -33.39570999 11.43646336
-13.198102 -10.76797581 0.3642758131
-13.20260429 -10.79858971 0.8938717246
-13.19146347 -10.81033802 1.424289346
-13.16858387 -10.86218739 1.955556989
-23.81337166 -23.86574936 4.023644924
-26.94702339 -27.75920486 5.787005901
-24.02920723 -24.24846268 6.365641594
-24.33265305 -24.67765999 7.639192104
-31.34811783 -33.38171768 11.46831799
-13.23613071 -10.73118591 0.3665937185
-13.23049068 -10.74939728 0.896270752
-13.23094463 -10.77488804 1.426379681
-13.19679451 -10.81287289 1.956575632
-23.76515007 -23.63146019 4.008859158
-24.24573517 -24.27700615 5.234050751
-24.10051346 -24.15590858 6.366061211
-25.79787827 -26.2811203 8.07427597
-31.44292259 -33.252285 11.46542454
-13.27273846 -10.69274139 0.3690000176
-13.25815868 -10.70014668 0.8986573219
-13.27029228 -10.73931122 1.428462148
-13.22862053 -10.76810074 1.957919955
-24.26073074 -24.05312157 4.072047234
-24.14082527 -23.97166634 5.200378418
-24.19029999 -24.08597755 6.371268272
-25.60144615 -25.84951782 7.988490582
-31.52477646 -33.10760498 11.45792103
-31.11343193 -32.68602371 12.93474293
-13.30401897 -10.64809513 0.3717813194
-13.28043079 -10.64474106 0.9011362195
-13.29918766 -10.69137859 1.430189013
-13.25768089 -10.72019672 1.959026933
-24.10201073 -23.68693733 4.041524887
-24.18926239 -23.85311317 5.197348118
-24.72996712 -24.55542755 6.490755558
-25.68082428 -25.75440025 7.989075661
-31.23786736 -32.59620285 12.94401646
-13.33900738 -10.6079216 0.3742643893
-13.32839012 -10.61975384 0.9030797482
-13.31619644 -10.62968826 1.431509376
-13.30329323 -10.69204712 1.961595058
-26.41872978 -26.25824928 4.36371994
-24.0876503 -23.55693245 5.164771557
-24.47963333 -24.07666016 6.40959549
-24.77322197 -24.48188972 7.684274673
-31.82384872 -32.98210144 11.49320126
-31.30394173 -32.43625641 12.92856026
-13.36470318 -10.55704975 0.3774062097
-13.3606596 -10.57636452 0.905328393
-13.36543274 -10.60597038 1.433913827
-13.33328629 -10.64548302 1.962794662
-25.82972336 -25.37327003 4.271570206
-24.56927109 -23.9518528 5.24725771
-24.36264992 -23.76122284 6.362684727
-31.89928627 -32.83051682 11.48378181
-13.39671421 -10.51368237 0.3800590634
-13.39404392 -10.53441048 0.9075404406
-13.39110661 -10.55480289 1.435517192
-13.35787487 -10.59278965 1.963526964
-26.39778709 -25.85145187 4.343863487
-24.83744621 -24.09022331 5.287423611
-24.52152634 -23.77297974 6.385518074
-31.3022995 -31.80256462 9.646201134
-13.4403677 -10.48377228 0.381846875
-13.41281414 -10.47577095 0.9100199938
-13.43359566 -10.52321529 1.437686801
-13.38874722 -10.5476141 1.964816451
-26.28676796 -25.5340271 4.319877148
-24.85980034 -23.93966866 5.279311657
-24.66401291 -23.76444817 6.404177666
-31.495327 -31.7961731 9.67637825
-31.90644646 -32.36125183 11.41341782
-31.70276642 -32.1970253 12.968297
-13.46677113 -10.43420315 0.3848589659
-13.45767689 -10.44719982 0.9119853377
-13.45359516 -10.46589279 1.439087629
-13.43121719 -10.51592922 1.967124462
-26.01325226 -25.03273582 4.273155212
-25.06447983 -24.00073433 5.306880474
-24.7886467 -23.73430443 6.4183321
-31.61689568 -31.7056675 9.684664726
-32.10359192 -32.35448074 11.4488554
-13.49163628 -10.38308239 0.3879533708
-13.49053669 -10.40497208 0.9141670465
-13.4865427 -10.42356682 1.440924287
-13.46174717 -10.47056198 1.968394041
-25.74960709 -24.54870987 4.228105068
-24.62178612 -23.31759262 5.208425522
-25.67913055 -24.58353043 6.623197079
-32.6513176 -32.66607666 9.970797539
-31.95833015 -32.02421951 12.9908514
-13.52556896 -10.34236717 0.3903752565
-13.52987671 -10.37011719 0.9162170887
-13.5126667 -10.37368393 1.442523241
-13.49340534 -10.42661858 1.969767332
-25.48420334 -24.06832886 4.183076382
-25.96556091 -24.6768856 5.457082272
-25.8862896 -24.64006615 6.657212734
-32.7682457 -32.56255341 9.976890564
-32.20700455 -32.00361252 11.41493797
-13.55800819 -10.30006218 0.3928819597
-13.55307293 -10.31725979 0.9185485244
-13.54994583 -10.34040451 1.444464922
-13.52088833 -10.37812519 1.97078383
-25.37129784 -23.77427101 4.16002655
-25.68001175 -24.17412376 5.389279366
-25.97263718 -24.55784225 6.661200047
-31.88618469 -31.33633041 9.682482719
-13.59295464 -10.26062965 0.3951912522
-13.58211517 -10.27503967 0.9206219316
-13.58906746 -10.30524063 1.446501493
-13.5515337 -10.33727932 1.972148657
-25.56463051 -23.81762886 4.179491997
-25.65253258 -23.96696091 5.37168932
-25.57310295 -23.93788338 6.546220303
-31.43634224 -30.60166168 9.518923759
-31.21290016 -30.42767906 10.99203205
-13.62446022 -10.22137356 0.3974838853
-13.61562252 -10.23394489 0.922739625
-13.62000275 -10.2610569 1.448253036
-13.58664322 -10.29755688 1.973837256
-25.682621 -23.77553749 4.188418388
-25.24211502 -23.3433094 5.281220913
-28.23673439 -26.73926735 7.184632301
-31.67672157 -30.6487236 9.563874245
-31.15244865 -30.13861656 10.93737602
-13.65234661 -10.1743784 0.4002404511
-13.64895916 -10.19275475 0.924847424
-13.63861942 -10.20350456 1.449575663
-13.62695885 -10.26364517 1.975980759
-25.79125595 -23.7225647 4.196043015
-25.28930283 -23.22536087 5.2784729
-28.29467583 -26.60919571 7.180242538
-31.39706039 -30.19224739 10.99138832
-13.61633873 -10.05832291 0.4073464572
-13.61573887 -10.0793972 0.9280744791
-13.61635685 -10.10180473 1.449480057
-13.64966106 -10.21042061 1.976605535
-26.10907364 -23.89870834 4.232658863
-25.51479721 -23.30400085 5.309895992
-28.36395073 -26.49220657 7.178736687
-32.15290833 -30.73167801 9.651908875
-31.66978645 -30.27484703 11.05511761
-13.65309715 -10.0216713 0.4094194472
-13.64169693 -10.03091621 0.9302639961
-13.64242172 -10.05320644 1.451046109
-13.62344646 -10.10427952 1.9730196
-26.28026199 -23.91155243 4.248873234
-25.62721252 -23.2570343 5.319640636
-31.64435768 -29.88841248 7.960018635
-31.75484085 -30.14862823 11.05245686
-13.68889236 -9.980208397 0.411767751
-13.66743946 -9.982387543 0.932441175
-13.67372322 -10.0104084 1.452789068
-13.64682102 -10.05265141 1.97372365
-26.20036888 -23.6515522 4.230429649
-25.88347435 -23.36557579 5.35674715
-29.00623131 -26.80659103 7.298419952
-32.24557877 -30.38922501 9.625565529
-31.33184814 -29.46842957 10.87158012
-13.71988487 -9.9375 0.4141918421
-13.70720005 -9.945133209 0.9345046878
-13.70895195 -9.971902847 1.45466423
-13.69039536 -10.02288914 1.976171255
-26.31297684 -23.60082817 4.238599777
-25.80880165 -23.10682297 5.330370426
-29.07857513 -26.69028282 7.297576904
-32.90854263 -30.88595772 9.79501152
-31.46669579 -29.39012146 10.88566017
-13.75345898 -9.897600174 0.4164226353
-13.7449255 -9.909532547 0.9364615083
-13.73218918 -9.916965485 1.45615077
-13.72210503 -9.976617813 1.977537751
-26.41750908 -23.53251839 4.2453022
-25.89240265 -23.02809715 5.334707737
-31.75211334 -29.34980011 7.924230099
-33.03282166 -30.78494644 9.803405762
-31.58547401 -29.30481911 10.89575577
-13.77582264 -9.846055031 0.4193755984
-13.77425289 -9.865110397 0.9385416508
-13.76569176 -9.87682724 1.457957745
-13.76271057 -9.943652153 1.979736328
-26.33029366 -23.26949501 4.226122856
-26.2246666 -23.21323013 5.385979652
-31.9980793 -29.39931107 7.963556767
-34.00200653 -31.59510422 10.06145191
-13.81182003 -9.808867455 0.4214038551
-13.8089323 -9.826385498 0.9405249953
-13.80181217 -9.83946991 1.459852576
-13.7839222 -9.890307426 1.980277419
-26.48443031 -23.26274109 4.240045547
-26.31818581 -23.14312744 5.392128468
-32.38857651 -29.59931183 8.03745842
-34.24451447 -31.62363434 10.10519028
-13.84490013 -9.768689156 0.4236059785
-13.83234596 -9.776049614 0.9426695108
-13.83500957 -9.799123764 1.461641669
-13.80489063 -9.836939812 1.98080492
-26.52583313 -23.13732147 4.238581657
-26.39505577 -23.05544281 5.395179272
-32.63641739 -29.64561272 8.076875687
-34.81744766 -31.99734688 10.24528122
-13.93784046 -9.789884567 0.4218995571
-13.90717983 -9.778673172 0.9440273643
-13.86666584 -9.757231712 1.463373184
-13.85474777 -9.81371212 1.983805418
-26.55698776 -23.00185394 4.235769272
-26.61462593 -23.11614799 5.424974918
-32.64165115 -29.43720818 8.058229446
-13.97362614 -9.752145767 0.4239136875
-13.97233963 -9.770920753 0.9455356002
-13.96251678 -9.780953407 1.467354894
-13.88646412 -9.771665573 1.98526001
-27.06889153 -23.36205482 4.298248291
-26.94256783 -23.28668785 5.474896908
-35.68215942 -32.51185608 12.14998245
-13.99380589 -9.698674202 0.4269112945
-14.00384331 -9.728694916 0.9475367069
-13.99406528 -9.738660812 1.46907866
-13.95435333 -9.766594887 1.989797592
-27.1046257 -23.22931862 4.296017647
-26.88964081 -23.06346512 5.453723431
-37.43468475 -33.93417358 9.157057762
-33.24947357 -29.69771004 9.710044861
-33.65021515 -30.18253517 11.42060375
-14.0334959 -9.664995193 0.4286365509
-14.03940773 -9.690636635 0.9494674206
-14.0226326 -9.693436623 1.470693707
-14.00409698 -9.742711067 1.99278903
-27.23194504 -23.19024658 4.306211472
-26.92858505 -22.93569946 5.449775696
-37.49520874 -33.75214005 9.148932457
-33.52064514 -29.76024628 9.763047218
-14.06599426 -9.62412262 0.430803299
-14.05926704 -9.636915207 0.9516090155
-14.05666542 -9.653801918 1.472497344
-14.03691864 -9.70161438 1.994344234
-29.3672924 -25.17471313 4.587098598
-27.20551491 -23.04897308 5.489976406
-34.52363968 -30.5019455 8.425049782
-33.61367416 -29.6397953 9.764601707
-34.4094162 -30.51955414 11.61651707
-14.10685825 -9.591581345 0.4324243367
-14.08882427 -9.593037605 0.9535993934
-14.08771515 -9.611236572 1.474192262
-14.06534004 -9.656188011 1.995530725
-29.28778648 -24.91329193 4.568880081
-32.9858551 -28.68062782 6.546621799
-37.2045784 -32.97691727 9.036207199
-34.45864868 -30.34877586 11.60173321
-14.13479996 -9.546277046 0.4348419309
-14.12817669 -9.558905602 0.9554435611
-14.11147404 -9.56156826 1.475625157
-14.10066509 -9.617717743 1.997306585
-29.42847252 -24.87311935 4.580339432
-33.15910339 -28.64659691 6.564879417
-34.70285797 -30.2430687 8.427134514
-34.28071594 -29.88042641 9.905628204
-33.53429413 -29.20309639 11.25790882
-14.15825844 -9.496724129 0.4375151694
-14.16170406 -9.519030571 0.9573577046
-14.15501595 -9.531443596 1.477754712
-14.12731743 -9.57072258 1.998352766
-29.9914608 -25.24905968 4.648356915
-32.86440659 -28.14867592 6.497110367
-34.81412506 -30.13547516 8.433382988
-33.68408966 -29.07236099 9.710378647
-33.57851791 -29.03587914 11.24285889
-14.190485 -9.452223778 0.4398261011
-14.19363689 -9.477665901 0.9592815042
-14.18844795 -9.491381645 1.479523182
-14.1608963 -9.530659676 1.99998951
-33.19345093 -28.20520401 5.068862438
-33.80869293 -28.87340355 6.656910896
-32.16624832 -27.31238556 7.795271873
-33.91970062 -29.09466553 9.753079414
-34.74535751 -29.97896385 11.60548782
-14.23080826 -9.419188499 0.4414148927
-14.22290516 -9.430158615 0.9613454342
-14.21884918 -9.448440552 1.481180191
-14.18861008 -9.484916687 2.001135111
-33.29761505 -28.10355186 5.074460983
-33.10826492 -27.97197723 6.514522552
-31.96537399 -26.91869164 7.730656147
-33.56759262 -28.53971672 9.628945351
-34.31400299 -29.32832527 11.42885399
-14.26959133 -9.38461113 0.4430857897
-14.25016212 -9.384462357 0.9633046389
-14.25232506 -9.40491581 1.48297143
-14.22224236 -9.441393852 2.002725601
-32.84092331 -27.44983482 5.005028725
-33.13753891 -27.79860306 6.506701469
-31.97646713 -26.72505951 7.714840412
-33.72303772 -28.47420311 9.648002625
-33.99298477 -28.80343056 11.29177761
-14.28651142 -9.329271317 0.4460681081
-14.28594208 -9.34695816 0.9651448131
-14.27514267 -9.354901314 1.484350443
-14.24958324 -9.395498276 2.003849745
-33.03442764 -27.43760872 5.022698879
-32.70429611 -27.18140793 6.414811134
-32.09255219 -26.64352608 7.724397182
-33.77739334 -28.320755 9.63973999
-34.07129669 -28.67065811 11.28871346
-14.31335735 -9.283526421 0.44842273
-14.32013035 -9.30796051 0.966994822
-14.30468273 -9.314979553 1.485936999
-14.28396416 -9.356421471 2.005570412
-33.23189926 -27.43784142 5.04127121
-32.98706818 -27.25507927 6.453426361
-32.24264526 -26.59422684 7.741845608
-34.7626152 -29.07058144 9.894667625
-34.27531815 -28.65894127 11.32757187
-14.34877682 -9.245901108 0.4502423406
-14.34949207 -9.267999649 0.9687809944
-14.33439541 -9.271709442 1.487554312
-14.30626583 -9.309527397 2.006339312
-34.61885071 -28.55259323 5.216772556
-32.93112946 -27.00510406 6.430576324
-34.81326675 -28.85386658 8.318113327
-34.72789383 -28.82728958 9.861001015
-34.53356552 -28.70804977 11.38576698
-14.38698769 -9.210877419 0.4518795609
-14.37021923 -9.216526985 0.9707708359
-14.37709427 -9.24063015 1.489632845
-14.34762096 -9.277087212 2.008651733
-33.5144043 -27.30881691 5.062686443
-33.09992599 -26.97857857 6.449140549
-34.70740128 -28.54550934 8.275270462
-14.41627884 -9.16757679 0.4540315866
-14.41010761 -9.179419518 0.9726322889
-14.4035759 -9.194431305 1.491127372
-14.36550713 -9.222714424 2.009002924
-33.63879395 -27.22770691 5.071177483
-33.73197174 -27.36460686 6.549937725
-35.3204155 -28.96763611 9.979271889
-34.46267319 -28.21634483 11.303689
-14.45423603 -9.132297516 0.4556534886
-14.44516563 -9.141360283 0.974429965
-14.43161488 -9.146268845 1.492700577
-14.40982342 -9.189474106 2.01151228
-34.74340057 -28.04453278 5.208178043
-33.01924133 -26.5537796 7.85191679
-36.58246613 -29.92329216 10.30566502
-34.65364838 -28.18989182 11.33831882
-14.46843243 -9.075360298 0.4586516619
-14.48156929 -9.10452652 0.9762029648
-14.46066284 -9.102638245 1.494279265
-14.4419899 -9.148514748 2.01306653
-34.09255981 -27.24324036 5.114709377
-32.95834732 -26.30488205 7.821109772
-36.13964081 -29.36295891 11.7973156
-14.50015926 -9.034515381 0.460600853
-14.50747299 -9.058163643 0.9780837893
-14.50113583 -9.07293129 1.496239305
-14.46811008 -9.102066994 2.01412034
-34.23852539 -27.18940163 5.126406193
-37.15003204 -29.90350723 7.124289036
-36.76882935 -29.60816765 8.671627998
-36.27774429 -29.22218323 10.17416286
-36.14778137 -29.15738106 11.77091789
-14.53618717 -8.997582436 0.4622828066
-14.52104664 -9.004304886 0.9799787998
-14.53582573 -9.034461021 1.498014688
-14.4937849 -9.058824539 2.015197515
-34.39378357 -27.13349915 5.13892746
-37.33063507 -29.85154152 7.142882824
-37.00098801 -29.61599731 8.706590652
-36.7271843 -29.42036629 10.27466106
-36.83989716 -29.58911896 11.9692173
-14.56762409 -8.956521988 0.4642148018
-14.56318283 -8.969260216 0.981764853
-14.56144619 -8.987862587 1.499459505
-14.52843285 -9.020277977 2.016970158
-35.49108505 -27.9256649 5.274368763
-34.1506424 -26.77515984 6.563158512
-37.22135544 -29.60076714 8.737870216
-36.50458908 -29.00522995 10.18967724
-36.30353928 -28.8765564 11.76429367
-14.59911728 -8.912117004 0.4663105309
-14.59623146 -8.926077843 0.983638525
-14.59606457 -8.945911407 1.501251221
-14.56468296 -8.979658127 2.018823624
-35.13941956 -27.39881134 5.220241547
-34.19275665 -26.60873985 6.557828903
-36.52360535 -28.80115891 10.17045593
-36.36043549 -28.70728683 11.75300217
-14.63644028 -8.87288475 0.4680550992
-14.63661671 -8.889393806 0.9854248166
-14.61252117 -8.887981415 1.502381682
-14.59479904 -8.933619499 2.020172119
-35.18625259 -27.23178291 5.218173027
-34.29181671 -26.49381065 6.562702656
-37.54990387 -29.44451714 8.773133278
-36.63221741 -28.67824936 10.17600441
-14.66609955 -8.826935768 0.4702166319
-14.66181374 -8.839395523 0.9873557687
-14.64827919 -8.847159386 1.504206777
-14.62322903 -8.886175156 2.02138567
-35.21439743 -27.04896736 5.213736057
-38.21422195 -29.75520325 7.244353294
-37.65790558 -29.31550217 8.778133392
-36.67877197 -28.50037766 10.16469669
-14.69165707 -8.794557571 0.4716823995
-14.67835331 -8.799075127 0.9888439775
-14.69823456 -8.832386017 1.506444097
-14.65218449 -8.853024483 2.02286315
-39.11225891 -30.29632378 5.712048054
-38.0457077 -29.42362785 7.203179836
-37.48073959 -28.97851753 8.722890854
-36.75554657 -28.39138222 10.16633224
-14.72991085 -8.759527206 0.4731473029
-14.7166357 -8.763993263 0.9905195832
-14.71392727 -8.777547836 1.507509947
-14.68461227 -8.812610626 2.024469137
-39.10369492 -30.06921005 5.702441692
-38.0257225 -29.19244194 7.186430454
-37.54912567 -28.82728386 8.720215797
-14.76061344 -8.714604378 0.4751968384
-14.74568558 -8.720965385 0.9922754765
-14.730896 -8.724013329 1.50861752
-14.7199173 -8.774697304 2.026316166
-37.89033508 -28.80297852 5.537464142
-37.59679413 -28.60888672 7.097890377
-37.61984634 -28.67853928 8.718170166
-37.67814255 -28.77968788 10.37175274
-14.78642654 -8.66895771 0.477319479
-14.7823391 -8.681067467 0.9940496087
-14.77807713 -8.696396828 1.510820985
-14.74751759 -8.730158806 2.027530432
-37.82297516 -28.53564262 5.520738125
-37.42493439 -28.2423954 7.054289341
-14.81511593 -8.625822067 0.4792639911
-14.81260395 -8.639125824 0.9957731366
-14.81757069 -8.662110329 1.512742162
-14.77509022 -8.682283401 2.028694391
-37.90118027 -28.39432335 5.522833824
-37.23377228 -27.87322998 7.008202553
-38.72713089 -29.19700623 8.928136826
-14.84363556 -8.582607269 0.4811988473
-14.83799076 -8.596503258 0.9974310994
-14.83245182 -8.607110977 1.513761997
-14.81592178 -8.652450562 2.03105855
-37.18234634 -27.57940674 5.422682285
-38.83765793 -29.02787018 7.276108265
-37.35920334 -27.83341026 8.607802391
-14.88122272 -8.546960831 0.4826239645
-14.86804867 -8.551136017 0.9992335439
-14.86706257 -8.568754196 1.5154984
-14.84762669 -8.611493111 2.032621861
-37.27536774 -27.45587158 5.426938057
-38.13866425 -28.23831367 7.14195013
-37.63418198 -27.86115646 8.651586533
-14.91878986 -8.507918358 0.484208405
-14.9102726 -8.515853882 1.000918627
-14.88777256 -8.515544891 1.516746283
-14.88390923 -8.570986748 2.03451252
-37.68479156 -27.58604622 5.471305847
-39.045578 -28.77841759 7.286670208
-14.93603706 -8.455528259 0.4866975546
-14.93837547 -8.472249985 1.002619267
-14.91752148 -8.469922066 1.518320799
-14.90926838 -8.521450043 2.035510778
-38.11709213 -27.73134232 5.518481255
-37.69348907 -27.52939224 10.24077606
-14.97165966 -8.418261528 0.4881809056
-14.96011162 -8.423508644 1.004362226
-14.95786572 -8.436302185 1.520257235
-14.93896294 -8.478912354 2.036920309
-39.07503891 -28.31449699 5.632897377
-38.07515335 -27.54887962 7.092569351
-15.00250435 -8.377085686 0.4899048209
-14.99408817 -8.38478756 1.005991936
-15.00277615 -8.40628624 1.522358894
-14.97159195 -8.438808441 2.03857398
-38.78335953 -27.86871529 5.588014603
-15.03632069 -8.338305473 0.491455555
-15.02481937 -8.343436241 1.00763905
-15.02423096 -8.357302666 1.523596048
-15.00098228 -8.396076202 2.03996563
-38.89273834 -27.75223541 5.594261646
-38.53141403 -27.51463509 7.147225857
-38.89953613 -27.85911751 8.843297005
-15.0700016 -8.299406052 0.4929981828
-15.06322193 -8.308211327 1.009215951
-15.0439291 -8.307023048 1.524764776
-15.04421902 -8.364500999 2.042491674
-39.87156677 -28.39081001 7.366072655
-39.08255005 -27.80090332 8.866452217
-15.09257507 -8.251712799 0.4951060414
-15.09523773 -8.26788044 1.010834098
-15.09789371 -8.284030914 1.52719152
-15.06708241 -8.316566467 2.043357372
-39.14461136 -27.54529572 5.611019611
-39.02602768 -27.50508881 7.208316326
-39.36098862 -27.81817627 8.910386086
-15.12281799 -8.210142136 0.4967947006
-15.12712002 -8.227428436 1.012444496
-15.125103 -8.243024826 1.528608561
-15.09445381 -8.272295952 2.044595003
-39.24334335 -27.42998695 5.616362095
-38.80198669 -27.12356377 7.157898426
-39.38998795 -27.63504601 8.900008202
-15.15921783 -8.173379898 0.4981490076
-15.14466 -8.179056168 1.014059663
-15.13799763 -8.187602043 1.529515743
-15.10908031 -8.221347809 2.04484868
-50.28249741 -35.91362381 7.001456738
-38.71582413 -26.85441208 7.131360531
-39.74123383 -27.71745872 8.960484505
-15.19392586 -8.135247231 0.4995775521
-15.18097305 -8.142108917 1.01561749
-15.18540382 -8.159154892 1.531693339
-15.16284275 -8.197836876 2.048240662
-50.43254852 -35.76636505 7.010683537
-39.11978149 -26.98088264 7.189356804
-15.22216225 -8.092123985 0.5013223886
-15.21239948 -8.098098755 1.01729238
-15.20265198 -8.107318878 1.532753706
-15.19133663 -8.154508591 2.049579859
-51.52257538 -36.34790421 7.13812685
-40.12639618 -27.55192757 7.34885025
-15.24229622 -8.042853355 0.503461957
-15.25322533 -8.064519882 1.018801689
-15.24983788 -8.075267792 1.534938812
-15.20700169 -8.098087311 2.049833536
-40.16264725 -27.37445641 7.343147755
-15.27338314 -8.001993179 0.5050261021
-15.2812109 -8.021100998 1.020391703
-15.26353264 -8.020887375 1.535860181
-15.24940872 -8.065524101 2.052309036
-50.60168457 -35.09512711 7.002846241
-15.30752659 -7.963418484 0.5064213276
-15.29943466 -7.970395565 1.02203536
-15.30574131 -7.988163471 1.537834525
-15.27900505 -8.023132324 2.053748608
-50.77768326 -34.96807861 7.01549387
-15.34635067 -7.928295612 0.507568717
-15.33508682 -7.932818413 1.02355361
-15.33024502 -7.942093849 1.539149284
-15.31483364 -7.985435963 2.055695772
-51.09005737 -34.94322586 7.045197964
-15.30955982 -7.837159157 0.5124656558
-15.30152225 -7.843904972 1.025501013
-15.31925774 -7.869749546 1.539141774
-15.34094334 -7.940439224 2.05685997
-51.32635498 -34.85939407 7.065375805
-15.32543659 -7.785411358 0.5147064328
-15.33353329 -7.803922653 1.027015567
-15.31917286 -7.805894375 1.539533854
-15.294734 -7.84188509 2.052189589
-51.33889389 -34.60834122 7.057685852
-15.35573769 -7.74749279 0.5160645247
-15.35420799 -7.758811951 1.028504968
-15.35439014 -7.771355629 1.541215301
-15.31237316 -7.794331074 2.052730322
-52.2572403 -35.03902435 7.163172245
-15.39388657 -7.712097168 0.5171729922
-15.37945843 -7.713934898 1.030041099
-15.387784 -7.73224926 1.542845726
-15.35228729 -7.759984493 2.055024385
-52.5525322 -34.99224854 7.190572739
-15.42856216 -7.670962334 0.5185871124
-15.41739273 -7.675094128 1.031576514
-15.42104816 -7.693012714 1.544468284
-15.38725471 -7.721955776 2.056921959
-52.26521683 -34.520504 7.145720005
-15.45658207 -7.625053883 0.5203081965
-15.4503212 -7.632597446 1.033131957
-15.43453312 -7.636449814 1.545368791
-15.42683887 -7.684033394 2.059147596
-56.10444641 -37.01441193 7.611394405
-15.47968578 -7.578828335 0.522102654
-15.47998333 -7.590912819 1.034613132
-15.47384739 -7.598414898 1.54722929
-15.4549408 -7.637812138 2.0604527
-56.24293137 -36.8203392 7.618311882
-15.51079273 -7.538282871 0.5234947205
-15.5062294 -7.546821117 1.036103249
-15.51157475 -7.562298775 1.549009204
-15.47323895 -7.587831497 2.061020136
-15.60077095 -7.538784027 0.5220599771
-15.55855274 -7.52096653 1.037448168
-15.53789616 -7.521250725 1.550341606
-15.5092926 -7.55045414 2.063015938
-15.65328312 -7.515841484 0.5222765207
-15.64224815 -7.519751549 1.038550615
-15.63139057 -7.526885509 1.554185867
-15.55030727 -7.519608498 2.065455914
-15.69076633 -7.479208946 0.5233424902
-15.67499733 -7.482918739 1.039910078
-15.67879486 -7.496950626 1.556322217
-15.62568283 -7.512479305 2.070647717
-15.70998383 -7.43002224 0.5252568126
-15.71384811 -7.443965435 1.041391492
-15.68489742 -7.438555241 1.556907654
-15.68452549 -7.490354061 2.07446909
-15.74368477 -7.387645245 0.5266113281
-15.73126793 -7.393497467 1.042886376
-15.72525883 -7.400556087 1.558791876
-15.7052784 -7.438751698 2.075201511
-15.77248859 -7.345031261 0.5280407667
-15.77149105 -7.355395317 1.044343114
-15.78230476 -7.376797199 1.561282396
-15.73923302 -7.399335384 2.077036858
-15.81776333 -7.313415051 0.5286899209
-15.79852581 -7.311473846 1.045773149
-15.79612255 -7.323857784 1.562146783
-15.76788044 -7.353181362 2.078407764
-15.84797478 -7.2716465 0.5300268531
-15.83398151 -7.276240349 1.047080636
-15.81805611 -7.276437759 1.563312292
-15.80677032 -7.320092201 2.080684662
-22.15173149 -11.57466125 3.37567091
-15.86968708 -7.224286079 0.5317388773
-15.86407089 -7.234315872 1.048479795
-15.84314442 -7.231170654 1.564593196
-15.8320303 -7.274757385 2.081835032
-22.22330666 -11.5278492 3.381252527
-15.89624691 -7.180142403 0.5332111716
-15.89877796 -7.192308903 1.049926758
-15.87643623 -7.191290855 1.566179633
-15.85546017 -7.228242397 2.082843304
-22.3180542 -11.4960022 3.389658213
-15.93439484 -7.143509865 0.534139812
-15.9185133 -7.143617153 1.051348805
-15.93615723 -7.165430546 1.568775892
-15.89349174 -7.188230038 2.084973335
-22.3433342 -11.41353035 3.389465809
-15.97075176 -7.105635643 0.535137713
-15.95992851 -7.108950138 1.052676678
-15.95243263 -7.114371777 1.569715261
-15.92664242 -7.148051739 2.086760521
-22.33609009 -11.31485462 3.385503054
-16.00025558 -7.063303471 0.5364328623
-15.99619484 -7.070866108 1.054017544
-15.97554016 -7.070856094 1.570892811
-15.96638298 -7.112050056 2.089072943
-22.36307716 -11.24337769 3.385871649
-16.01440811 -7.011265278 0.5384015441
-16.02758789 -7.032662868 1.055295467
-16.02350426 -7.040089607 1.573021889
-15.99285793 -7.07054472 2.090376854
-16.05237579 -6.977323532 0.5391567349
-16.0534668 -6.987895012 1.056657434
-16.04603386 -6.993105412 1.574187636
-16.01720428 -7.024625301 2.091473818
-16.08823204 -6.938916683 0.540124476
-16.06899452 -6.936705589 1.058043718
-16.08365059 -6.955587387 1.575920582
-16.04644585 -6.981829166 2.092961788
-16.11886978 -6.897203445 0.541310966
-16.11153984 -6.902327061 1.059331179
-16.11605453 -6.914751053 1.577453613
-16.08740425 -6.946302891 2.095379114
-16.15276909 -6.857471466 0.5423386097
-16.14547539 -6.862515926 1.060639381
-16.14322281 -6.870638371 1.578785419
-16.11468697 -6.902195454 2.096717358
-16.17387199 -6.803833485 0.5441647768
-16.18368149 -6.819189548 1.062066436
-16.16609764 -6.81785059 1.579981089
-16.14792061 -6.855650902 2.098447561
-16.20406151 -6.76178503 0.5453248024
-16.20708084 -6.772880077 1.063388467
-16.20147705 -6.778739929 1.581617475
-16.17488861 -6.811326027 2.099767447
-16.24611092 -6.726807594 0.5459544063
-16.23203278 -6.727522373 1.064696074
-16.23845673 -6.740498066 1.583311796
-16.20170403 -6.766906261 2.101078272
-16.27776146 -6.685510159 0.5470244288
-16.26541328 -6.687200069 1.065971255
-16.27017021 -6.6990242 1.584803581
-16.240345 -6.729576588 2.10332346
-16.30411148 -6.641042233 0.5483091474
-16.30556297 -6.650793552 1.067221403
-16.28108978 -6.645233631 1.585502386
-16.28746033 -6.69715929 2.106237411
-16.33376122 -6.598491669 0.549436748
-16.33870316 -6.610165119 1.068481803
-16.32284164 -6.609638214 1.587369442
-16.31043434 -6.650326252 2.10725379
-16.36802292 -6.555599689 0.5504713655
-16.36653137 -6.566380978 1.06974709
-16.35758018 -6.56983614 1.588967085
-16.32462883 -6.598383904 2.107584
-16.39738846 -6.512802124 0.5515822172
-16.3937645 -6.519256115 1.071069956
-16.39913177 -6.533863544 1.590821385
-16.36795807 -6.563460827 2.110205889
-16.43702888 -6.475829124 0.5522435308
-16.42302132 -6.476259232 1.072313309
-16.41931343 -6.482546329 1.591872811
-16.40558052 -6.522080421 2.112342596
-16.4678669 -6.433757305 0.5532649755
-16.45909309 -6.43708849 1.073533893
-16.44497299 -6.437375546 1.593116045
-16.43311119 -6.477856636 2.113729239
-16.48636818 -6.384708405 0.5547906756
-16.4950428 -6.397768021 1.074746966
-16.4791851 -6.397019863 1.594681859
-16.47612953 -6.442363262 2.116331339
-16.52214622 -6.345348835 0.5555755496
-16.52039909 -6.352434635 1.075972557
-16.51502037 -6.35748148 1.596307039
-16.48077583 -6.385173798 2.115931749
-16.55431175 -6.303885937 0.5564991236
-16.54384422 -6.306053162 1.07719183
-16.55073929 -6.317781925 1.597924948
-16.52876472 -6.352310658 2.118927479
-16.59511375 -6.267084599 0.5570513606
-16.57765198 -6.26535511 1.078384519
-16.59685135 -6.283695698 1.599936724
-16.54699135 -6.302799225 2.119597673
-16.61948586 -6.218275547 0.5583820343
-16.61484718 -6.226417542 1.079563856
-16.60425758 -6.228359699 1.60046792
-16.59827995 -6.271461487 2.122853994
-16.64420509 -6.172616482 0.5595706701
-16.653162 -6.185022831 1.080795407
-16.62902451 -6.182550907 1.601658702
-16.62846947 -6.228428364 2.124463797
-16.67582321 -6.130629063 0.5604615808
-16.67953682 -6.140087128 1.081974745
-16.68888855 -6.155506611 1.604187965
-16.65272713 -6.179179192 2.125576735
-16.72143936 -6.095983505 0.560767889
-16.70984268 -6.100164413 1.083079934
-16.7045784 -6.104712963 1.605025887
-16.68490601 -6.140104294 2.127384186
-16.74983215 -6.05505991 0.561657548
-16.73947144 -6.056873322 1.084238052
-16.72537994 -6.0566926 1.606055737
-16.71643257 -6.097641468 2.129106045
-16.78107452 -6.012638092 0.5625255704
-16.77782822 -6.018081188 1.085378051
-16.77968216 -6.026170731 1.60836494
-16.76371956 -6.0633955 2.132056713
-16.80094337 -5.961354256 0.5639436841
-16.81429482 -5.97819519 1.086512804
-16.78066254 -5.967819691 1.608629704
-16.78792572 -6.016921997 2.133213282
-16.82654953 -5.915966511 0.5650083423
-16.83937454 -5.929431438 1.087708592
-16.8223114 -5.930509567 1.610448837
-16.80132866 -5.964873791 2.133533716
-16.86743736 -5.875397205 0.5655497313
-16.86844826 -5.885614395 1.08883357
-16.85791779 -5.887042046 1.612044692
-16.84058571 -5.923212051 2.135830402
-16.9106102 -5.838740349 0.5658857226
-16.89140129 -5.835753918 1.090010762
-16.89578056 -5.847536087 1.613713026
-16.85540199 -5.871967316 2.1362679
-16.92506218 -5.787604809 0.567351222
-16.92973518 -5.799418449 1.091055036
-16.90312958 -5.792667866 1.614208221
-16.89854431 -5.835037231 2.13890624
-16.95007324 -5.74176693 0.5683807135
-16.97209358 -5.759088516 1.092202187
-16.95145988 -5.758231163 1.616272449
-16.92552376 -5.789874077 2.140292883
-17.00006104 -5.708132267 0.5684115887
-17.00779343 -5.718252659 1.09329021
-16.98356438 -5.715607166 1.617711306
-16.95171928 -5.741372585 2.141587019
-17.02659798 -5.662892342 0.5693543553
-17.02243233 -5.670000553 1.094324708
-17.0335083 -5.681589127 1.619832397
-16.97902679 -5.699234486 2.143039703
-17.07165909 -5.629436016 0.5694600344
-17.0560627 -5.628036499 1.095397234
-17.06357574 -5.637748718 1.621187329
-17.01631737 -5.658983707 2.145232439
-17.09973907 -5.584777355 0.5703167319
-17.09317017 -5.587646008 1.0964607
-17.08087349 -5.587753773 1.622048378
-17.05709076 -5.620278358 2.147696018
-17.11502075 -5.534029484 0.5716555119
-17.1247406 -5.544504642 1.097518206
-17.11244202 -5.544559956 1.623454928
-17.07794571 -5.571929932 2.148622751
-17.15002632 -5.492572784 0.5722138882
-17.16341209 -5.504630089 1.098566413
-17.15111351 -5.50461483 1.625131726
-17.1058445 -5.526925087 2.150096655
-17.14068031 -5.427549362 0.5745624304
-17.13304901 -5.432533741 1.099609733
-17.16973305 -5.455213547 1.626034141
-17.14805603 -5.48856163 2.152676821
-17.13358879 -5.36671257 0.5767049789
-17.12342453 -5.367559433 1.100687504
-17.14460945 -5.385683537 1.625249386
-17.07070541 -5.394582272 2.146042585
-17.16989136 -5.325884819 0.5771638155
-17.16702461 -5.329991817 1.101705909
-17.14024925 -5.323160648 1.625268459
-17.10998344 -5.352157116 2.148372173
-17.18785095 -5.276670933 0.5783094764
-17.20323563 -5.288909435 1.102716565
-17.17279243 -5.280417919 1.626696348
-17.13715172 -5.306964397 2.149804354
-17.22206306 -5.234737873 0.5788214803
-17.23020172 -5.243560791 1.103717327
-17.22966766 -5.251363754 1.629050374
-17.15690041 -5.258370399 2.150668144
-17.2616272 -5.195074558 0.5791181326
-17.24863815 -5.197258949 1.104657412
-17.27295303 -5.213106155 1.630886912
-17.19908524 -5.222697735 2.153293133
-17.29925346 -5.154400826 0.5794769526
-17.281847 -5.151724815 1.105691433
-17.29601288 -5.165765285 1.631940961
-17.22947693 -5.178752422 2.154980421
-17.32864189 -5.107156754 0.5802211761
-17.32224464 -5.109219074 1.106720209
-17.32912064 -5.119919777 1.633387327
-17.27357292 -5.137862206 2.157690287
-17.3494873 -5.059022427 0.5811833143
-17.35596085 -5.066548347 1.107689738
-17.35920334 -5.075535297 1.634705901
-17.30474472 -5.091169357 2.159409523
-17.32635117 -5.046024799 2.160461426
-91.46895599 -36.29190826 1.160102844
-91.07737732 -36.15481186 4.480731964
-84.49388885 -31.98677826 1.176870108
-34.84511566 -9.944208145 1.156588793
-34.46740723 -9.45224762 1.160491347
-35.26290894 -9.595246315 1.163562655
-34.86251831 -9.467242241 2.316384554
-35.23084641 -9.462123871 1.164989591
-34.91557693 -9.363231659 2.318596125
-35.78076553 -9.731362343 3.54212904
-35.15828323 -9.316441536 1.16630435
-34.93215942 -9.247294426 2.319385767
-35.90112305 -9.645474434 3.550026178
-34.73885345 -9.064555168 2.312024832
-34.09181213 -8.737333298 1.166827798
-34.76577759 -8.95300293 2.313200235
-34.21879196 -8.65975666 1.16845417
-35.51365662 -9.065908432 2.342346907
-34.96861649 -8.977923393 3.476052284
-34.78022003 -8.922048569 4.615709782
-34.97837067 -8.77594471 1.171504855
-34.64460754 -8.676203728 2.308737755
-34.53607941 -8.722981453 3.442274094
-34.96625519 -8.859419823 4.63421917
-35.01956177 -8.668479919 1.172934771
-34.19779968 -8.421597481 2.291504145
-34.54276657 -8.606116295 3.44166851
-35.04195786 -8.761810303 4.640342712
-34.55844116 -8.410393715 1.173160672
-34.27032471 -8.326367378 2.294419765
-35.13710022 -8.6671772 3.485379457
-35.20872879 -8.691427231 4.656695843
-35.05480576 -8.439430237 1.175620079
-34.04359818 -8.142254829 2.285711527
-35.15882492 -8.552961349 3.485904217
-35.28012466 -8.591556549 4.662359715
-35.10060501 -8.333302498 1.176998496
-34.22648621 -8.079813957 2.292897701
-35.09784698 -8.414471626 3.480206966
-35.41033554 -8.508730888 4.674628258
-35.64152908 -8.363818169 1.179645419
-29.88122749 -6.710021019 2.124269247
-35.22401428 -8.331130028 3.488614082
-34.45586014 -8.109477997 4.56547451
-35.75024033 -8.267456055 1.181221843
-29.88585281 -6.606637478 2.124513865
-35.09079742 -8.166614532 3.477446795
-34.5249939 -8.005844116 4.57089138
-34.6612587 -7.840610981 1.179658532
-29.8823719 -6.501187801 2.124437332
-34.81094742 -7.961910248 3.455269337
-34.73920059 -7.942986965 4.592545509
-34.64912415 -7.720211506 1.180783391
-29.85408783 -6.394061089 2.123388767
-34.89738846 -7.867836952 3.46071434
-35.08205795 -7.920574665 4.628678799
-34.45324326 -7.549949169 1.181401372
-29.85497093 -6.300261021 2.123464584
-34.9874115 -7.774314404 3.466431856
-35.2013588 -7.641485691 1.184442759
-29.86323738 -6.20862627 2.123821974
-35.29316711 -7.744951725 3.48841095
-34.94872665 -7.455955982 1.18486917
-29.87821007 -6.113928795 2.124435902
-35.00183487 -7.553366184 3.465542316
-35.86112595 -7.784482002 4.709339142
-35.21707916 -7.403090954 1.186732888
-29.86698151 -6.007523537 2.124027491
-34.91302872 -7.405940533 3.457799911
-34.9321022 -7.211529732 1.187005877
-35.25064468 -7.293590069 2.333141327
-35.12083817 -7.336715221 3.472326756
-35.05664825 -7.202179432 3.466501951
-35.58927536 -7.14293766 1.190904737
-35.05498886 -7.008446217 2.325569868
-35.07698822 -7.089738369 3.467026711
-35.56218719 -7.011532307 1.191882372
-35.02998734 -6.88525629 2.324602365
-35.04854965 -6.96518898 3.463903666
-35.07328033 -6.848244667 3.464724541
-35.21392822 -6.691440582 1.192802072
-50.02933884 -8.1935215 2.90616703
-49.69920349 -7.953220844 2.893198967
-49.32961655 -7.722864151 1.249987364
-50.02245712 -7.846860886 2.905589581
-49.15681458 -7.525660992 1.250313401
-50.29246521 -7.728518009 2.915901184
-49.41025925 -7.407082558 1.252013206
-50.14724731 -7.533376217 2.910089016
-14.91196537 -1.12534523 0.3276776075
-49.28926849 -7.220444202 1.252445102
-49.69031906 -7.284283161 2.892173529
-14.91894341 -1.085712075 0.3279011548
-43.4118042 -6.034707069 1.233576179
-49.64178848 -7.109559059 2.890096188
-50.11666489 -7.293567657 4.566133976
-14.92578411 -1.046050191 0.3281168938
-43.37461472 -5.885126114 1.234123588
-43.40594482 -5.883624554 2.647996664
-50.19609833 -7.139159203 4.570830345
-14.93248653 -1.006364703 0.3283247948
-49.64984512 -6.787485123 1.255977988
-49.73006058 -6.792638302 2.893101931
-43.46165848 -5.8358531 4.069246769
-43.48331833 -5.832527161 5.497982025
-43.5476799 -5.843570709 6.945408344
-43.65711594 -5.855024815 8.420083046
-14.84057426 -0.9505915046 0.3351664245
-49.63884735 -6.620465279 1.256656647
-50.45885086 -6.745443344 2.921141386
-43.59117508 -5.698888779 8.404519081
-14.86664867 -0.9143522978 0.3340289891
-49.45147705 -6.425590038 1.2567029
-49.97208023 -6.499680519 2.902029037
-14.82557201 -0.8674929738 0.3373985887
-49.75931931 -6.309412003 1.258409381
-49.86333084 -6.316408157 2.897567749
-14.80008793 -0.8233414292 0.3396969736
-49.98386002 -6.178512573 1.25980711
-49.483181 -6.092842102 2.882577181
-43.65438461 -5.274498463 8.405781746
-14.76653862 -0.7782128453 0.3425176144
-50.24960327 -6.052314281 1.261322737
-50.07860947 -6.017019749 2.905394793
-43.66019058 -5.130745411 8.403551102
-14.79995441 -0.7431070209 0.3408182263
-17.01319504 -1.064414263 0.6699832082
-50.33886337 -5.898799896 1.262203097
-50.23893356 -5.874061108 2.911333323
-14.801651 -0.7032987475 0.3412344158
-16.99620247 -1.014024615 0.6709186435
-50.01177597 -5.68584013 1.261608362
-50.53338623 -5.749129772 2.922457695
-14.81111145 -0.6646024585 0.3411122262
-17.00674629 -0.9676032066 0.670963645
-49.93538284 -5.510026932 1.261849284
-14.82835197 -0.6269153953 0.3404520452
-57.83051682 -6.406961918 1.289924741
-50.09731293 -5.355797768 2.904962778
-14.79402161 -0.5823756456 0.3432314992
-58.49816132 -6.301644802 1.292786717
-49.99401855 -5.176680565 2.900648832
-14.79935837 -0.5411930084 0.3433569074
-58.49836349 -6.097027302 1.293303728
-59.29259491 -6.183992386 3.260362864
-14.80430222 -0.5019530058 0.3434685171
-58.32988358 -5.881436825 1.293164849
-14.80910873 -0.4626915455 0.343572408
-58.35318375 -5.690279007 1.293665051
-14.78206635 -0.4197030962 0.3457885683
-14.81831169 -0.3841232061 0.343757093
-67.43216705 -6.329275608 1.326569915
-14.82270813 -0.3448132873 0.3438377976
-14.82696629 -0.3054986298 0.3439108431
-67.73160553 -5.909946442 1.32831955
-14.87079048 -0.270244807 0.3413271606
-67.58782959 -5.668886185 1.328090191
-14.86287403 -0.2295684516 0.3421795964
-14.83892059 -0.1874423176 0.3440836966
-14.88237381 -0.1517340392 0.3414773941
-14.90203762 -0.1116418689 0.3404542804
-14.8976984 -0.06939065456 0.3410113752
-75.65002441 -5.201310635 1.357679605
-14.90481281 -0.03211070225 0.3407641947
-16.8393116 -0.1857206523 0.680339694
-14.99154186 0.0009556240984 0.335213989
-15.05827618 0.03610546514 0.3309803307
-15.06120586 0.07624127716 0.3309757411
-15.06413078 0.1183954552 0.3309624791
-15.06677437 0.1585562974 0.3309418559
-15.14086533 0.1923593879 0.3261478245
-15.27302837 0.2663470805 0.3175919354
-104.2957382 -3.759363413 1.457016587
-49.18992615 1.847567439 1.251062155
-49.20034409 2.007157803 1.25024128
-49.20399094 2.174633265 1.249323845
-25.25801086 1.65399456 0.4100313187
-25.25509644 1.733466029 0.4095357656
-25.25220871 1.805370331 0.4090733528
-61.21687698 9.883820534 1.222441316
-61.24267197 9.894342422 7.366480827
-87.8079071 14.95743752 1.267141342
-54.90423584 11.51081657 1.173762321
-54.55378342 11.62412834 1.170498133
-55.02269363 11.9196701 1.168178678
-54.46022797 11.98524189 1.164601803
-54.28458405 12.13257217 1.161518574
-54.06363297 12.27794743 1.158220291
-53.98662186 12.44565582 1.155211091
