# .PCD v0.7 - Point Cloud Data file format
VERSION 0.7
FIELDS x y z
SIZE 4 4 4
TYPE F F F
COUNT 1 1 1
WIDTH 1310
HEIGHT 1
VIEWPOINT 0 0 0 1 0 0 0
POINTS 1310
DATA ascii
24.8145256 9.917289734 7.381031513
44.96414185 18.30168533 0.5272833109
30.29190063 12.07203293 2.915548801
25.74480438 10.14559078 3.581087828
23.6798687 9.274188042 4.269717693
28.52464104 11.37419891 6.092491627
25.15795898 9.941501617 6.457889557
25.28487778 10.01813602 7.498395443
45.28843689 18.24429703 0.5302574635
29.58709908 11.64836216 2.865728617
25.31402779 9.851360321 3.532569408
23.82054329 9.231742859 4.287314892
26.08943367 10.21884823 5.634890556
25.47960091 9.975378036 6.52431488
25.39540291 9.956270218 7.519820213
45.56528854 18.17423058 0.5333293676
29.59366608 11.5296936 2.865916252
25.48133278 9.817875862 3.549055099
23.9521637 9.189506531 4.30375576
26.22742462 10.17013073 5.655873775
25.47887993 9.870637894 6.518179893
25.51290131 9.901975632 7.543517113
46.01955795 18.17598915 0.535482645
29.75640488 11.4762907 2.877104521
25.33640671 9.653250694 3.531748295
23.91560745 9.081192017 4.295695305
26.06892967 9.996627808 5.621906757
28.37885475 10.98077106 7.163878441
25.51382065 9.803322792 7.536783218
46.39707947 18.15250587 0.537902534
24.86463928 9.339907646 2.533430815
25.4335041 9.595142365 3.540780783
24.03965569 9.034927368 4.311097145
26.42858505 10.04463291 5.684298038
25.58109665 9.71025753 6.529746532
25.53053093 9.706319809 7.533962727
46.72266769 18.09599113 0.5409044623
29.52164268 11.14404488 2.860253096
25.72941017 9.612611771 3.571276903
24.32691002 9.054731369 4.350430489
26.42047501 9.933864594 5.678343773
28.7003994 10.88764 7.223514557
46.93339539 17.99112701 0.5445645452
29.21907234 10.9020071 2.838874578
25.51105499 9.419885635 3.546175241
24.74131584 9.124023438 4.408365726
26.2658062 9.763936043 5.645365715
25.59157753 9.506881714 6.520750046
25.88853264 9.645014763 7.614211559
47.36320496 17.97237015 0.5471532345
24.96630287 9.082940102 2.540229321
25.30644989 9.234742165 3.522629976
25.04071236 9.149155617 4.449585438
26.36267662 9.69670105 5.658998013
25.6343689 9.420695305 6.524791241
48.25150681 18.14128304 0.5473001599
25.01564026 9.001719475 2.543634415
25.35257149 9.156046867 3.526303768
24.98681641 9.026744843 4.439035416
26.33305168 9.583922386 5.649531841
29.05457306 10.6867218 7.284387589
28.94257736 10.44575119 2.819262266
25.50204468 9.112751007 3.541105509
24.3608532 8.684933662 4.345141411
26.35059738 9.484959602 5.64864254
48.51802444 17.86596489 0.5555773377
28.96874428 10.33972931 2.821096182
25.33264923 8.949666977 3.52158761
24.60796738 8.683461189 4.378712654
26.34580612 9.382704735 5.643909454
50.14844513 18.29575539 0.5528680682
25.59462547 8.933023453 2.584270477
25.30156708 8.836314201 3.516984463
24.8091259 8.662571907 4.405591011
26.41041183 9.30228138 5.65183115
28.8780098 10.27478027 7.227371693
50.1889534 18.11076736 0.55776757
25.57448578 8.823177338 2.582911015
25.98594666 8.995996475 3.58957386
26.70087433 9.28536129 4.678864956
26.29803085 9.153946877 5.627239704
29.36958313 10.34792709 7.331151962
50.03777313 17.85410881 0.563532114
25.39699745 8.654541016 2.570533991
25.55077171 8.728547096 3.541478157
26.73768044 9.192995071 4.68168211
26.65318108 9.183731079 5.68873024
28.99232101 10.08810234 7.24143362
50.17418671 17.70583344 0.5680055022
25.4727726 8.576835632 2.575971365
25.35458565 8.553924561 3.519212723
26.7388916 9.087330818 4.679371834
28.8621254 9.899335861 6.090613365
29.22047424 10.0528965 7.286337852
50.62133026 17.66100502 0.5714318752
25.69651604 8.558301926 2.591822386
25.528759 8.512742043 3.536839485
27.9887619 9.443458557 4.858748436
28.89349365 9.796755791 6.092355251
28.819067 9.794083595 7.19190836
25.74816513 8.48067379 2.595611095
25.63243294 8.454788208 3.547012329
28.08015823 9.371905327 4.869683266
29.02817154 9.737755775 6.11331892
28.7195282 9.649467468 7.164739132
24.97732735 8.106243134 2.541666508
25.54885674 8.328649521 3.537064552
29.19050217 9.66317749 5.028578758
28.87558556 9.573807716 6.081656456
28.76649857 9.553481102 7.169943333
26.04005432 8.382026672 2.616538525
25.92724991 8.363441467 3.576812983
28.82001686 9.41583252 4.972331047
28.78360367 9.441011429 7.168353081
27.59466553 8.828062057 2.726001978
26.02072906 8.289733887 3.585891485
28.97108269 9.350698471 4.991780281
29.28477287 9.486724854 6.148902893
29.38883591 9.543390274 7.297387123
27.10815048 8.550468445 2.692125559
25.930233 8.156350136 3.575275421
29.49996567 9.422530174 5.066187382
29.33326721 9.389267921 6.154108047
29.33018875 9.40793705 7.279371262
26.14084816 8.111161232 2.624483585
26.04411697 8.09453392 3.586674213
29.52035522 9.314528465 5.066865921
29.4149456 9.303237915 6.165450573
29.14151192 9.228018761 7.232716084
26.39481163 8.095968246 2.642678738
25.92251968 7.951631069 3.572807789
29.05666542 9.041008949 4.997469902
29.55417252 9.236573219 6.18736887
29.20002747 9.134824753 7.240852356
26.46589661 8.022529602 2.648034334
25.95331573 7.866402626 3.575397253
29.52084351 9.096715927 5.062786102
29.62064171 9.150162697 6.196222782
26.57239532 7.955453396 2.655928612
25.86682701 7.74198103 3.565428257
29.38597488 8.937208176 5.041173935
29.6196003 9.040857315 6.192815304
27.13207054 8.042351723 2.69570303
25.92485809 7.661163807 3.570985556
29.282341 8.789343834 5.024163246
27.20653915 7.961941242 2.7014153
25.81052017 7.523843765 3.558080196
29.26465225 8.670682907 5.019660473
27.25798225 7.873766899 2.705539465
25.84133911 7.434485435 3.560799837
29.24650383 8.55223465 5.015155315
27.40192032 7.809615135 2.716232777
25.80551338 7.323840618 3.556408644
29.26562881 8.446098328 5.016102314
27.44526291 7.718220234 2.719852686
41.05764008 12.02049732 5.192048073
42.25724792 12.43406868 6.890686989
27.40444183 7.600610256 2.717576504
26.4828949 7.337075233 3.62809515
41.80727768 12.13229179 6.823281765
42.21389771 12.04247093 3.761458635
40.78992462 11.63252544 5.161967278
41.77987289 11.96444893 6.816998959
41.04233551 11.5538826 5.188430786
41.79730225 11.81079006 6.817275047
40.30661774 11.15098286 3.629063606
41.11936188 11.42106724 5.196148396
41.53121185 11.58003044 6.776855946
40.2256279 10.9742527 3.624399662
41.29686356 11.32556057 5.214722633
41.83594131 11.51309013 6.818732738
43.00453949 11.60383415 2.253732204
42.60535431 11.52369595 3.793317556
41.65005112 11.27256298 5.252164364
41.85808945 11.14766598 3.741773844
40.64618683 10.8256855 5.144210815
43.41607666 11.65398788 7.042506695
42.22201157 11.09330177 3.768686771
40.62131882 10.66544724 5.141263485
43.33700562 11.4678812 7.029244423
42.99012756 11.11343575 2.261641026
40.14982224 10.35355282 3.623590469
41.83307648 10.85323715 5.270909786
42.57452011 11.09018993 6.917676926
44.09532166 11.25673294 2.302455187
39.80390167 10.10713196 3.600397825
45.630867 11.74916363 5.677748203
42.75475311 10.98056221 6.941959858
44.4082756 11.14737797 0.709331274
44.18937683 11.11705685 2.308635473
42.05893326 10.60128975 5.294857502
42.99587631 10.88656616 6.975079536
44.46565247 10.98822594 0.7139573693
42.765522 10.56979179 2.262501955
40.31645203 9.939533234 3.639327526
41.95428467 10.40798855 5.283611774
43.23492813 10.79053307 7.007973671
44.54929733 10.85253239 0.7181046605
44.67957687 10.91639233 2.331543684
40.32671356 9.791777611 3.641438723
41.9660759 10.26238823 5.284908772
44.08781815 10.60376644 2.313956499
40.04892731 9.576343536 3.623126507
41.8407135 10.07319641 5.27157259
40.06173706 9.430683136 3.625491381
41.99193954 9.96454525 5.287931919
43.21260071 10.09096146 3.850226402
41.59346771 9.707034111 5.245448589
42.87101746 9.845154762 3.827663422
44.06063843 10.18121338 5.510156631
42.99702454 9.717642784 3.838293552
41.69638824 9.424568176 5.257114887
42.76205444 9.501670837 3.82335186
42.44671631 9.453653336 5.337964535
42.75894928 9.343235016 3.824905157
44.21509171 9.722129822 5.52804184
42.63484955 9.156580925 3.81790185
44.43151855 9.618782043 5.551790237
42.47330093 8.970153809 3.808174372
42.23185349 8.942747116 5.316536903
42.41768646 8.801560402 3.806106329
41.97074509 8.727946281 5.28920126
63.48820877 13.34611607 3.030382872
42.4859848 8.661513329 3.812900543
44.78598022 9.209843636 5.591928959
42.90834808 8.599656105 3.844971418
44.85758209 9.070157051 5.600413322
60.28060532 12.18542767 2.926043987
42.24140167 8.305379868 3.799356461
46.25180435 9.21122551 5.750938416
60.32789993 11.96459866 2.932488203
42.32912064 8.162414551 3.80776763
45.21837616 8.812148094 5.641076565
59.225811 11.51383209 2.897794008
42.8146553 8.102678299 3.844640493
45.08571625 8.611337662 5.627944946
59.29203033 11.31204319 2.904679775
42.75754929 7.935214043 3.8427279
59.93924713 11.23856354 2.932166338
42.6963501 7.775281429 3.840449333
59.52423477 10.93861866 2.921924353
42.91580582 7.664265156 3.858399153
31.21829987 5.1735425 0.7987729907
31.21255112 5.193768978 1.909202218
31.23227119 5.224729061 3.023985147
31.21455193 5.24287796 4.142050266
31.21449852 5.264770508 5.269945621
31.22997665 5.295703411 6.412120819
31.28945541 5.353485584 8.753746986
31.28448486 5.07323122 0.8019992709
31.23939514 5.086006165 1.912618637
31.24929047 5.115073204 3.026909351
31.23933792 5.134821892 4.145672798
31.23533058 5.156004429 5.273147583
31.20246315 5.177512169 6.406620026
31.17682266 5.195213795 7.553710461
31.21310425 5.225546837 8.732236862
60.14116669 10.41955376 2.957967043
42.80073547 7.184733868 3.857059956
60.72646332 10.31065941 2.983919621
44.91160583 7.421570301 4.010983467
43.93953323 7.279955864 5.513696671
60.6961441 10.08634567 2.98768425
44.27642822 7.183240891 5.551485062
63.22352219 10.41577435 7.592389107
60.81809998 9.670996666 3.001946449
61.13219452 9.506129265 3.018379211
44.70732498 6.740797043 4.006894588
44.00814438 6.660031796 5.527634621
60.52101135 9.174238205 3.001305819
46.32711792 6.851638317 4.126389027
60.42732239 8.942248344 3.002885818
60.40017319 8.732544899 3.006676674
44.90199661 6.291784286 4.029351234
62.31367111 9.125299454 7.507349491
63.30367279 8.925311089 0.8815197349
60.59708405 8.547399521 3.018998146
46.06562805 6.313689232 4.116339684
62.85270309 8.998795509 7.568184853
63.28219986 8.696024895 0.8880293369
60.57213974 8.327280045 3.023197889
60.24710083 8.330814362 5.144861221
62.24534225 8.681062698 7.50557375
61.33911896 8.225466728 3.056721687
60.40473175 8.139631271 5.160285473
60.99150848 8.270730972 7.373191357
61.72834396 8.06348896 3.07640481
60.21039581 7.896175861 5.150288582
62.16360855 8.225705147 7.502838135
62.24157715 8.015828133 7.514443398
61.52204895 7.650307655 5.253834724
62.33853912 7.808238506 7.528201103
61.89330292 7.427339554 3.098624945
61.51939011 7.431529999 5.257987976
63.4659996 7.425094604 3.162642241
61.98570251 7.011106491 3.112724781
62.42583466 7.111653805 5.332864285
64.49390411 7.102849483 3.212545872
62.06866455 6.582190514 3.126913071
62.01059723 6.630373478 5.311596394
62.88418198 6.458151817 3.163314342
62.64219666 6.485645771 5.36241293
62.88537979 6.236155987 3.169059038
62.99606323 6.304891586 5.393084049
62.92950821 6.018987656 3.176470995
62.96084213 6.078645706 5.395398617
62.62112045 5.76415205 3.170512438
63.04379654 5.865564823 5.406427383
62.91609573 5.573787212 3.187547684
77.9309082 7.189013958 6.503323555
63.56251144 5.416406631 3.218113422
63.35572433 4.97224474 3.221494913
81.36762238 6.297560692 1.068504095
63.19641113 4.735309601 3.221353292
81.5476532 6.026847363 1.07775116
76.48096466 5.651633263 3.740234375
76.43132782 5.378978252 3.745639801
76.98640442 5.154434204 3.774540186
77.05456543 4.889508247 3.784655809
77.32113647 4.63849926 3.802566767
77.61373138 4.72978735 6.538566589
77.58292389 4.385394096 3.820388317
77.75961304 4.467984676 6.556355953
77.95554352 4.137747765 3.842651606
78.02816772 3.86934495 3.853245735
78.06546021 3.928986549 6.593656063
78.68566895 3.647955418 3.88654685
77.75787354 3.651575804 6.577638149
77.55529785 3.311293125 3.849822521
98.72915649 4.043804646 1.243632793
79.04212952 3.115746498 3.916517735
79.15177917 2.263932228 3.945967913
79.36169434 1.995171189 3.962564707
61.23330688 1.074175596 1.10414052
61.2510643 1.130890131 3.244087458
26.13023758 -0.3753013313 2.761784077
26.08664513 -0.510843575 0.9365108609
26.06926155 -0.4915734231 1.846931577
26.04402542 -0.4723825157 2.758150339
26.19587708 -0.6051691175 0.9401449561
26.0584259 -0.5826354027 1.849302888
26.04515076 -0.5631733537 2.761006594
26.05123711 -0.6690277457 1.851694942
26.0259819 -0.6496095657 2.762209892
26.03978539 -0.7599316835 1.854068279
26.04641151 -0.73567307 2.766443014
26.02201843 -0.8507775068 1.856196761
25.99875641 -0.8311280012 2.765811205
26.0345211 -0.9217857718 2.771411657
37.38834 -5.893233776 3.823492527
36.87569809 -5.962285995 3.787855864
21.76132011 -3.8482728 4.111545086
67.39304352 -10.45677757 3.897242308
36.79431915 -6.08188343 3.786971807
22.11483192 -3.997063398 3.377057791
37.94119263 -6.416209698 2.54356122
23.06890869 -4.231705189 2.671740055
22.06625175 -4.068716049 3.375236511
82.02281189 -13.18224049 1.698583245
35.97309113 -6.25836134 2.457513571
21.65483665 -4.104705811 2.559675932
22.0095768 -4.138934135 3.372485638
20.8178215 -3.94620347 3.979718447
81.97936249 -13.46830463 1.708112717
36.23445892 -6.426514626 2.474750042
21.86605644 -4.21390295 2.580451727
21.83678246 -4.191327572 3.35609293
20.47624016 -3.969186783 3.9313941
31.54037666 -5.823455811 2.260651827
21.8817482 -4.29437685 2.585259199
21.8327446 -4.268604279 3.35955596
20.45529747 -4.038966656 3.932269812
36.06050491 -6.657671452 2.476895332
21.6293869 -4.332522869 2.568033695
21.98933792 -4.371280193 3.382006645
20.50834274 -4.120306015 3.94457221
28.83516884 -5.607592583 2.142546415
21.75286102 -4.429914951 2.5817523
20.81188202 -4.259909153 3.246909857
20.54935455 -4.200174809 3.955085516
28.8026638 -5.705487251 2.145168543
21.81692314 -4.518420219 2.590628386
20.7331295 -4.32140255 3.241449594
20.53347015 -4.271074772 3.956878662
21.38518333 -4.388602257 4.865821838
31.7358284 -6.30848217 2.288016319
21.79807472 -4.593446732 2.59268856
20.42305946 -4.343439102 3.20857501
20.65968704 -4.36578083 3.98067379
57.13583755 -10.88825798 1.471441627
23.68018341 -5.021175861 1.910609603
21.85165024 -4.680944443 2.600778818
20.74066734 -4.453722477 3.997565031
21.15018082 -4.501791 4.830811501
57.10647583 -11.08854103 1.478206277
23.54432297 -5.077969074 1.907443643
21.14716339 -4.635101318 2.545886278
20.25519371 -4.460579872 3.196367502
21.03032494 -4.575043201 4.046652794
21.33455467 -4.609724998 4.871088982
57.08806992 -11.2806015 1.484762192
23.23067665 -5.105946541 1.895947337
21.02592087 -4.689356327 2.53937602
20.25085449 -4.528997421 3.199553967
21.01313019 -4.647571087 4.048512459
21.34107399 -4.683684349 4.877171516
21.22363472 -4.819244385 1.803334951
20.4072628 -4.647764206 2.491149187
20.12448311 -4.578818798 3.188409328
20.32851028 -4.598691463 3.946691275
21.24899483 -4.900617599 1.80771482
20.1940403 -4.681452274 2.476829529
20.07221222 -4.641637802 3.186106443
21.3395462 -4.859447002 4.108498573
20.50101089 -4.833943844 1.774877548
20.08264923 -4.733142853 2.470999241
19.96511078 -4.693752766 3.17725563
21.36409187 -4.94108963 4.117062569
53.34812164 -11.37170887 1.465959668
20.4164772 -4.891614914 1.773883343
20.17071724 -4.822897911 2.481910944
19.9475956 -4.762537479 3.179138899
21.36503983 -5.018443108 4.122000694
37.36392593 -8.370217323 1.267449737
20.32003403 -4.94639492 1.7723037
20.34052467 -4.929564953 2.499760151
19.96686935 -4.838546753 3.185469151
21.2958622 -5.082166195 4.116029263
21.55120087 -5.109510422 4.944003582
37.35914612 -8.504899979 1.272143602
20.35855865 -5.027930737 1.777273297
20.2726841 -4.993325233 2.497831345
19.1445961 -4.745812416 3.090607643
21.68980789 -5.23806715 4.182563305
22.39664841 -5.359714985 5.113050461
20.33341026 -5.100423813 1.779324174
20.14095688 -5.039896965 2.490324497
19.86761284 -4.966708183 3.181859255
21.72180939 -5.327221394 4.192845821
20.36349487 -5.18073988 1.783931375
21.51724815 -5.400919437 2.61055851
19.67221451 -4.998242378 3.162379742
22.15492249 -5.495950222 4.265917301
21.34601593 -5.305510044 4.921201706
20.36200714 -5.254643917 1.787016511
21.59090042 -5.494959354 2.620722055
19.31557083 -4.994307041 3.123357058
22.2931118 -5.605730534 4.292870522
21.22622108 -5.357994556 4.90359211
20.43638611 -5.345133781 1.793854356
20.00637054 -5.230866432 2.489854574
19.3882885 -5.08039999 3.136231422
21.6345253 -5.545618534 4.194470882
21.28887939 -5.448678017 4.921406269
20.53378296 -5.441378117 1.801871061
19.96176147 -5.294139385 2.489740849
19.44705391 -5.164083481 3.147480011
22.33622551 -5.777747631 4.310341835
21.59692192 -5.593248367 4.987029076
29.26003647 -7.502644539 1.189882517
20.47093391 -5.502430439 1.801995754
20.27872849 -5.438088894 2.520537615
19.41048431 -5.227054119 3.147199631
21.51786995 -5.677771091 4.18650198
21.20392609 -5.585338116 4.91637373
29.27382088 -7.613166332 1.193882942
19.57047844 -5.371842861 1.760480881
20.23343468 -5.50211668 2.520455599
19.47249603 -5.312203884 3.158945799
21.39080238 -5.727867126 4.171674728
21.14099312 -5.648795128 4.909924984
19.57217026 -5.444121838 1.763688207
20.20736313 -5.570360661 2.522034168
19.39866638 -5.366659641 3.154183388
21.67786217 -5.872125626 4.222455502
21.49544907 -5.807160854 4.985004902
19.63468742 -5.527235985 1.769798398
20.16165733 -5.633935928 2.521942854
19.06556892 -5.360043526 3.117736578
22.22688293 -6.075556755 4.314724922
20.15333176 -5.574855328 4.728579044
21.99888802 -6.255995274 0.3131312132
19.48621178 -5.564065933 1.765515804
20.10993958 -5.69584322 2.521342754
19.17797279 -5.453390598 3.135514021
21.29466438 -5.936891556 4.17216444
20.2960453 -5.67883873 4.761946678
21.19529152 -5.871117115 5.730119228
21.92189026 -6.31834507 0.3170178831
21.94887733 -6.253251553 1.103599906
19.34936714 -5.602746964 1.761788607
19.90973282 -5.7178936 2.507729769
18.91652298 -5.46108675 3.10773468
20.84995079 -5.908575535 4.106791019
20.34187317 -5.764536381 4.776738167
21.40116501 -5.998131752 5.784928322
21.89321327 -6.392373085 0.319855243
21.87180138 -6.315371513 1.105384707
19.33856583 -5.671606064 1.764400601
19.91875839 -5.776189327 3.235150576
20.79550743 -5.972262859 4.103469849
20.90471649 -5.976183891 4.893152714
21.39028358 -6.074403286 5.789261341
21.8566246 -6.392609119 1.10806644
19.33332443 -5.741919994 1.767309904
20.82087708 -6.092291355 2.594566584
19.81077766 -5.823048592 3.226387262
20.80226517 -6.050818443 4.109945297
20.74337769 -6.013663292 4.867519855
21.45678711 -6.169718266 5.811780453
19.27749443 -5.799458504 1.76766336
18.91289711 -5.686783314 2.432706833
21.18927956 -6.243999004 3.40094614
20.82598114 -6.133828163 4.119187832
20.3495369 -5.991937637 4.796055794
21.19551277 -6.183988571 5.757559299
19.25244331 -5.864653587 1.769587159
19.07542992 -5.798750401 2.45063138
21.08942604 -6.297110558 3.393508196
21.05810738 -6.270268917 4.161889076
21.07378578 -6.251226902 4.944992542
21.0894413 -6.235715389 5.739683628
21.72628975 -6.602228165 1.114868402
19.94802475 -6.118229866 1.80839777
19.11975861 -5.881270885 2.458319902
19.65935707 -6.004388332 3.221388102
20.38643837 -6.174823761 4.059702873
20.8776207 -6.278991699 4.912572384
21.34026527 -6.378371716 5.805733204
21.76706123 -6.698234558 1.118559718
18.8464222 -5.900466442 1.755191326
19.32083893 -6.009271622 2.479978561
20.10495186 -6.198688984 3.281518459
20.40387917 -6.255309582 4.067997456
21.14047623 -6.429292202 4.971249104
21.46667099 -6.494640827 5.843093395
18.86927032 -5.977046967 1.759552717
19.21032524 -6.051805019 2.474197626
20.38247681 -6.344089508 3.320538521
20.61197853 -6.386798859 4.107056618
21.11970139 -6.498672009 4.973294258
21.33625412 -6.536187649 5.819317818
18.89374352 -6.054355621 1.764023542
19.71991539 -6.258518696 2.522768497
20.45125771 -6.438931465 3.333977461
20.81176567 -6.517753601 4.144940853
20.30666733 -6.359075069 4.818449974
22.02035332 -6.799044609 5.988264561
18.82548714 -6.106365681 1.763714194
18.87860298 -6.100771427 2.452628374
19.30560303 -6.201087952 3.195988894
20.63347244 -6.546906471 4.121891022
20.23021126 -6.414220333 4.809599876
20.66493797 -6.513360023 5.675368786
18.97636604 -6.219405651 1.774800062
19.4743824 -6.33797121 2.509212971
19.20829773 -6.246493816 3.188522577
20.3657341 -6.550075054 4.084315777
20.38080597 -6.531676769 4.845977783
20.63529968 -6.582634449 5.675641537
19.05558968 -6.313362122 1.78221643
19.6823082 -6.473806858 2.531913996
19.2064724 -6.31822443 3.193004608
20.13628006 -6.562144279 4.052850723
20.40497017 -6.618840218 4.8576231
14.03133774 -4.998979568 0.5034555197
19.0671978 -6.388611794 1.786139011
20.56284523 -6.800609112 2.614278793
21.03586578 -6.894231319 4.204708576
21.03250694 -6.873841763 4.989569664
13.98630905 -5.038846016 0.5057820678
14.01722145 -5.000962257 1.01402843
14.0428133 -4.995930672 1.52547133
14.03587532 -4.981342316 2.037438869
18.6794281 -6.310551167 3.136276245
20.40693474 -6.792103767 4.108403206
21.08388138 -6.96398592 5.006347656
13.9660778 -5.08590126 0.5076019764
13.97404957 -5.041314125 1.015266776
13.9919672 -5.034115314 1.525261641
13.97435379 -5.013733387 2.034796238
14.00371838 -5.009698868 2.551891088
13.98318195 -4.990880013 3.067121506
13.97794914 -4.973723412 3.58908391
13.9989357 -4.966601372 4.123907089
14.0288887 -4.961734295 4.671078682
13.98013115 -5.143315792 0.508733809
13.96333027 -5.091176987 1.017033219
13.96590233 -5.079443932 1.526359677
13.9590559 -5.06483984 2.0365839
13.96626663 -5.051676273 2.550713778
13.96479034 -5.038429737 3.068205595
13.93812847 -5.01755619 3.585954428
13.97421741 -5.014959812 4.123463154
13.97526264 -4.999076843 4.661987305
13.98230267 -5.152762413 1.019393802
13.96380234 -5.134597301 1.528859258
13.95956993 -5.118077278 2.039655447
13.96787739 -5.107891083 2.554666758
13.96631336 -5.09457159 3.072779655
13.93654728 -5.069989204 3.590301752
13.9463377 -5.059652805 4.122038841
13.96156502 -5.050635815 4.664288998
18.87536812 -6.695328712 1.792968035
18.89710236 -6.681314945 2.486635685
18.66087532 -6.592068672 3.153185129
19.88918114 -6.948272228 4.047805309
20.8420105 -7.214465618 4.98606348
13.94257832 -5.111534595 4.126421452
18.86065292 -6.762877464 1.795582771
19.21164322 -6.850879192 2.519140959
19.0181694 -6.773592472 3.203421354
19.87138176 -7.018661976 4.05085659
20.9376812 -7.323243141 5.012476444
21.38983154 -7.441492558 5.917994499
20.1222744 -7.231984615 1.866655827
19.24002266 -6.933281898 2.525959253
19.03709602 -6.852252483 3.210814714
20.93156242 -7.401328087 5.018449306
21.30859566 -7.497999191 5.906742096
20.0553894 -7.284069061 1.866542697
19.26045418 -7.013561726 2.532102585
19.13331413 -6.955661774 3.228117228
19.94167137 -7.189086437 4.074231148
20.92703056 -7.480028629 5.024805546
21.27558708 -7.569185734 5.907113075
20.1317482 -7.385781765 1.87434113
19.11550522 -7.041050911 2.523269653
19.14314461 -7.028628826 3.234213829
19.73667717 -7.200232506 4.046530724
21.16291809 -7.631302834 5.0796175
20.1202774 -7.459650993 1.877433181
19.00011826 -7.073534012 2.516877413
19.17804337 -7.113636971 3.243822575
19.40025902 -7.167517185 3.997014046
21.27528954 -7.748841286 5.109937668
20.14647865 -7.546021461 1.882589698
18.63837433 -7.031591415 2.488414288
20.46902084 -7.610762596 3.414703369
19.3309803 -7.219695091 3.991618395
21.2290287 -7.819852352 5.108502865
20.10221481 -7.609273911 1.883935809
18.7339077 -7.135509968 2.501433611
19.3666153 -7.306193829 4.003654003
19.99668694 -7.670016289 1.144549251
20.0369339 -7.665271282 1.88413775
19.75801659 -7.552912235 2.599691391
18.68957329 -7.172279358 3.196558475
19.33443642 -7.370454311 4.004482269
20.06602287 -7.753156185 1.889518976
19.73755836 -7.618937969 2.602183104
18.40225601 -7.147385597 3.164627075
19.56027222 -7.521973133 4.04835701
20.31562614 -7.91760397 1.907085299
19.63726044 -7.665162086 2.597798824
18.35756493 -7.203714848 3.163984537
19.43951225 -7.556769371 4.034540653
21.72311592 -8.317713737 5.240847111
20.26703072 -7.984026909 1.908475637
19.45905685 -7.679822445 2.585971355
18.30220032 -7.259749889 3.162234068
19.36423111 -7.61034441 4.02863121
21.731884 -8.405447006 5.250775337
20.13850403 -8.018041611 1.905240297
19.40570641 -7.741044998 2.585891485
18.27403069 -7.321491241 3.163771152
19.28442383 -7.658133507 4.021650314
20.50216293 -8.223073006 1.929190755
19.46344757 -7.834004402 2.595677137
19.45217514 -7.811687946 3.322536707
19.54462624 -7.822107792 4.071478367
20.58532906 -8.33384037 1.937826872
19.26836777 -7.840363503 2.58220768
19.39340401 -7.863286972 3.320196629
19.47722626 -7.874813557 4.066704273
20.08822632 -8.233695984 1.913983583
19.2843914 -7.918428421 2.588156223
19.2996769 -7.905752659 3.313572645
19.47100067 -7.949300766 4.072258949
20.02493286 -8.289849281 1.914377451
19.23965836 -7.98206377 2.588927746
19.35870552 -8.003709793 3.326976538
19.71119499 -8.114118576 4.119522095
19.92462158 -8.335893631 1.912879586
19.15302086 -8.026145935 2.585542679
19.23363495 -8.037871361 3.316541433
19.69722557 -8.190930367 4.124298573
20.00122833 -8.444057465 1.921193242
18.91711998 -8.013633728 2.568100452
19.22507668 -8.111086845 3.321146727
20.86301231 -8.852272034 1.974221468
20.98531532 -8.874822617 2.768015385
19.20138359 -8.178721428 3.32379508
19.59157562 -8.30766964 4.120100975
21.04829407 -8.982880592 2.779265165
19.29237938 -8.290291786 3.341658115
19.53757477 -8.365274429 4.117834568
20.65571022 -8.91496563 2.747364044
19.05702972 -8.276502609 3.316319466
19.48525429 -8.423306465 4.115876198
20.6756382 -9.00579834 2.754544258
19.0493927 -8.350074768 3.321169138
20.84706497 -9.157020569 2.776224852
19.84633064 -8.741604805 3.433318377
21.54853439 -9.521888733 2.848731756
19.87940025 -8.834970474 3.443943501
20.34153557 -9.121504784 2.738599062
19.56230354 -8.787665367 3.40773797
20.61684799 -9.316555977 2.770433903
19.903862 -9.006194115 3.45980835
20.60372925 -9.395170212 2.774635553
19.87150002 -9.073973656 3.461827755
81.35056305 -35.29328537 2.499077082
19.5667572 -9.273857117 3.446706772
79.8854599 -35.66391373 2.506363392
79.49275208 -36.40893936 5.578662395
78.6396637 -36.35756302 5.544771194
78.40852356 -36.56654358 5.547489166
79.02931213 -37.26064682 2.564242601
79.00904846 -37.17292023 5.60176754
77.66124725 -37.22900391 5.555907249
80.5606308 -39.00894928 2.639369488
77.69996643 -38.24338913 5.612240314
79.25752258 -39.4128685 2.649372816
78.31253815 -38.87475586 5.668637753
78.1857605 -39.13389587 5.678256989
78.27629852 -39.59658432 2.652278662
77.60367584 -39.18535995 5.66026783
76.86843109 -39.15676117 5.632469177
79.25437164 -40.7706604 2.70279026
78.80448151 -40.90673828 2.706228971
78.50839996 -40.67613983 5.77466774
78.75319672 -41.22692871 2.718671322
78.52153015 -41.02771759 5.79463625
78.40223694 -41.41041565 2.724447489
78.71562958 -42.25331879 2.759211302
38.92253113 -24.94854927 0.3093382716
38.80368805 -25.0719471 0.3152069449
38.7225647 -25.20932961 0.3203934431
38.65028381 -25.34290314 0.3252551556
38.57249832 -25.47302628 0.3301746249
69.747612 -44.95469284 5.72027874
38.50679016 -25.62041664 0.3351542056
70.98587036 -46.16341019 2.887483835
69.0641098 -44.86097717 5.69214344
38.45562744 -25.77744102 0.33995983
67.7872467 -44.38146591 5.621437073
36.44361496 -24.65667343 0.3673732877
66.81787109 -44.16467667 2.791234493
67.69835663 -44.65863419 5.635178089
36.03461075 -24.56958771 0.3760462701
66.30796051 -44.16365814 2.789481401
67.52466583 -44.88129425 5.642916679
35.8443222 -24.63300514 0.3823624551
66.81851196 -44.77095032 5.613254547
35.67152786 -24.69798851 0.3882512748
66.07642365 -44.68959427 2.810388803
66.62456512 -44.97718811 5.619446278
35.60825729 -24.83568573 0.3928970695
66.02612305 -44.98862076 2.822570801
66.34362793 -45.12499619 5.619327068
35.54445267 -24.97324562 0.397544682
65.8717041 -45.21860504 2.831580162
65.4658432 -44.87071609 5.575532913
35.47095108 -25.11344337 0.4024896622
65.28064728 -45.09435272 5.583222389
31.32761002 -22.44591331 0.450964421
64.73962402 -45.05842972 5.563684464
31.00570297 -22.38424873 0.4578863978
64.77222443 -45.41270828 5.586451054
30.7649765 -22.37667847 0.4638905525
64.63241577 -45.64958954 5.596560955
30.59993172 -22.42062759 0.4690621793
64.59326172 -45.95685959 5.61425209
30.50350761 -22.51221275 0.4734980762
64.04319763 -45.90623474 5.593723774
30.44423676 -22.63013649 0.4775438011
64.29386902 -46.49381638 2.879688501
64.17526245 -46.33452988 5.624409199
30.38451385 -22.74790955 0.481589824
64.24338531 -46.72021103 5.650490284
30.32537842 -22.87432289 0.4857976437
66.9641571 -49.11096191 2.996800661
63.79897308 -46.75699234 5.638861656
30.29542542 -23.01418686 0.4895421863
63.80300903 -47.09848785 5.660289764
30.23584747 -23.13279343 0.4935780466
63.49253464 -47.21239853 5.657757282
30.17259598 -23.24887276 0.4976453483
63.59062958 -47.62491989 5.686651707
30.13296127 -23.38270569 0.5014832616
63.76044083 -48.09328461 5.721319199
30.09114647 -23.51534843 0.5053431392
63.71328735 -48.40355682 5.739406109
30.0384407 -23.64836884 0.5094774961
63.17122269 -48.36063385 5.720077038
29.979599 -23.76881409 0.5134932995
63.28168488 -48.79014587 5.750626564
29.93775177 -23.90249634 0.5173513889
63.24388123 -49.10960388 5.769734859
29.89214706 -24.033741 0.5212448239
53.0211792 -41.61079407 4.983077049
29.86176682 -24.17724991 0.5250046849
51.69324493 -40.94210434 2.611838102
51.73677826 -40.91248322 4.899782181
29.8118782 -24.30598831 0.5289371014
51.57037735 -41.13567734 2.619725227
51.58224487 -41.0815506 4.905925274
51.43894196 -41.32267761 2.627326488
51.44756699 -41.2660408 4.913692951
51.27466583 -41.42034912 4.918425083
48.34602737 -39.441082 2.540006399
48.407341 -39.42979431 4.70512104
48.25940704 -39.64825439 2.548612833
48.27377319 -39.59951782 4.712095737
48.15173721 -39.83893204 2.556481361
48.1473465 -39.77507401 4.719697952
29.35586739 -24.95786858 0.5537725687
48.03091812 -40.01922226 2.563890696
48.03886795 -39.96533203 4.728818893
29.46191025 -25.22567749 0.5566381216
47.89945221 -40.20498657 2.57152319
47.89963531 -40.14466476 4.736370564
29.4522419 -25.39098549 0.5602594018
47.78651047 -40.39214706 2.579270363
47.79126358 -40.33549881 4.745613575
47.6666832 -40.57390976 2.586785078
47.67137527 -40.51715469 4.753962994
47.54925156 -40.75785828 2.594411373
47.55385971 -40.70101166 4.762564659
47.40818024 -40.92214966 2.601159573
47.40820694 -40.86133194 4.768854618
47.29090881 -41.10666656 2.608836889
47.30914307 -41.06121063 4.779116154
47.16233444 -41.28169632 2.616097689
47.18804932 -41.2427063 4.78757906
46.2402153 -41.01605606 0.4644908607
47.0406456 -41.46290207 2.623650551
47.06472015 -41.42256546 4.795910358
46.13565445 -41.19410706 0.4706332088
46.93337631 -41.65682983 2.63179183
46.94180298 -41.58864975 4.80338335
45.97232437 -41.3350029 0.4774520099
46.82342911 -41.83446503 2.639239073
46.81567764 -41.76643372 4.81157589
45.88043594 -41.5389061 0.4837792516
46.71464157 -42.02788925 2.647381783
46.71136475 -41.96360397 4.821706295
45.72233963 -41.69873428 0.4908228517
46.56645966 -42.20130157 2.654603004
46.58409119 -42.15542603 4.830879211
46.3505249 -42.56521606 0.4928498268
46.43403625 -42.38882828 2.662476778
46.44259262 -42.33496094 4.838881969
39.56526947 -36.71641159 0.5409798026
46.30069351 -42.56120682 2.669707537
46.32555008 -42.5218811 4.848098755
39.08241653 -36.52819061 0.5489316583
46.20522308 -42.76805878 2.678508282
46.20180511 -42.70318222 4.856794834
38.92107391 -36.6305275 0.5548588037
46.07642746 -42.94506073 2.685973644
46.06998444 -42.87740326 4.864834785
38.85239792 -36.80550003 0.5599751472
45.94838715 -43.12307358 2.693497181
45.97873306 -43.07421112 4.875538826
37.83558655 -36.09902573 0.5705320835
45.84027481 -43.30493164 2.701231718
45.86175156 -43.24786377 4.884021759
37.42213821 -35.95871353 0.5777130127
47.5280304 -45.15943527 2.784445763
47.54162979 -45.10750961 5.054849625
37.0755806 -35.87771988 0.5844420791
47.39646149 -45.34676361 2.792408228
51.03288651 -48.6871376 5.390713215
36.98783875 -36.05187607 0.5899572968
47.26506424 -45.55021286 2.801087856
50.90344238 -48.91738129 5.40280056
36.9199028 -36.23326111 0.5951281786
47.12182999 -45.72714233 2.80860877
36.82813263 -36.39238358 0.6004232168
46.99957657 -45.92438126 2.81705904
50.65268326 -49.35378265 5.425703049
36.77873993 -36.59309387 0.6055066586
46.87078094 -46.11574554 2.825257301
50.51156235 -49.55771637 5.435834408
36.67638016 -36.75553513 0.6110961437
46.74617386 -46.32746124 2.834366083
50.3553772 -49.76445007 5.445804596
36.62519836 -36.95624542 0.6161996722
46.61719894 -46.51953888 2.842623949
46.667202 -46.50312042 5.126305103
36.56391907 -37.1605835 0.6216016412
46.46521378 -46.70533752 2.850593805
46.47659302 -46.65116882 5.131457806
36.48532867 -37.33599091 0.6268435121
46.32901382 -46.89103317 2.858592033
46.35736465 -46.85357666 5.142236233
36.48355103 -37.58924484 0.6317578554
46.20622635 -47.09046936 2.867222309
46.208992 -47.02754974 5.150350094
36.41014862 -37.77181244 0.6369928718
46.07559967 -47.2824707 2.875531435
46.07544327 -47.21660614 5.159925461
36.35274506 -37.97143936 0.6421673298
45.93012238 -47.45993805 2.883199692
42.46451187 -43.88608932 4.837891579
36.27902222 -38.15536499 0.6474139094
45.01738358 -46.85441971 2.855644226
42.25933838 -43.97826767 4.839034557
22.58329201 -24.25426102 0.7034333944
44.81753159 -46.97100449 2.860605001
41.94126511 -43.95374298 4.829280853
22.43936157 -24.2679882 0.7070626616
22.55106544 -24.24525261 1.837858677
22.56845856 -24.23045349 2.973677874
22.59418297 -24.21588898 4.115391254
22.59207344 -24.18042755 5.261258602
22.30387878 -24.28969574 0.7106391191
22.41540909 -24.26747704 1.838729382
22.41343117 -24.232687 2.969946861
22.44474602 -24.22418976 4.108793736
22.45524025 -24.20185852 5.253724575
22.18091965 -24.32378769 0.7141513824
22.27572441 -24.28471184 1.839383125
22.28345871 -24.26011658 2.96861434
22.29417992 -24.23850632 4.10274744
22.32265091 -24.22691727 5.24698925
19.02232361 -20.74978828 5.567754269
18.80174637 -20.90183067 0.7281050682
18.890728 -20.87757111 1.686023712
22.16180992 -24.30382919 2.968645096
22.1479187 -24.24816895 4.096505642
22.17784882 -24.24659729 5.238758087
18.97067261 -20.84197235 5.576258659
16.87165833 -18.97465134 0.7365864515
18.77839851 -20.8981514 1.686858654
18.80446434 -20.89803314 2.647969723
18.79324341 -20.85115433 3.608604193
18.81534767 -20.8463459 4.580778599
18.81250763 -20.81475639 5.556835175
16.69973183 -18.91607475 0.739469111
18.6675415 -20.91963577 1.687740564
18.67854309 -20.90365219 2.645274162
18.68925667 -20.88014984 3.606333256
18.69647026 -20.85967445 4.573761463
18.69926262 -20.83408737 5.548706055
16.55145454 -18.88152122 0.7422504425
18.54994965 -20.93327904 1.688275933
18.56095886 -20.91740608 2.643369675
18.57579994 -20.89848137 3.602611542
18.58179092 -20.87675858 4.567547321
18.57536125 -20.84135056 5.537811756
16.49132729 -18.94211197 0.7447735667
18.43249512 -20.94634247 1.688791513
18.45161247 -20.93940544 2.642261267
18.45030594 -20.90310287 3.597022772
18.47258377 -20.89911652 4.562413216
18.45165634 -20.84798241 5.526895523
16.31134033 -18.87070847 0.7475863695
16.91606712 -19.42666245 1.620406389
18.34368324 -20.96235275 2.641271591
18.33576584 -20.91882706 3.593056202
18.36479187 -20.9224205 4.557537079
18.35210991 -20.88012886 5.522147179
16.27266502 -18.9542408 0.7500336766
16.738451 -19.36115265 1.617406726
18.22376442 -20.97148323 2.639038086
18.22668648 -20.93988609 3.589894295
18.24240875 -20.92908859 4.549617767
18.25256348 -20.91182899 5.517385006
16.120224 -18.91105652 0.7527288795
16.59361076 -19.33027267 1.615969539
18.1026535 -20.97855949 2.636648417
18.11151505 -20.9606266 3.586442471
18.12682724 -20.94251442 4.543054104
18.14377022 -20.93284607 5.510198593
16.03820419 -18.95205307 0.7553687692
16.452631 -19.30893898 1.6149652
17.9821949 -20.9926281 2.634786367
17.99861526 -20.97618675 3.58262682
18.00124168 -20.95114517 4.535232544
18.02758026 -20.95209503 5.502099991
15.91956806 -18.94490433 0.7579482198
16.27544022 -19.23911667 1.611789465
17.86937904 -21.00743675 2.63317585
17.87438393 -20.98539162 3.577691793
17.90309715 -20.98262215 4.532212734
17.90976334 -20.96178055 5.492465973
15.86495304 -19.00358772 0.7602790594
16.19805717 -19.28075981 1.613629103
17.76547241 -21.0246048 2.631958008
17.75340462 -20.98332024 3.571840525
17.80101013 -21.00920868 4.528352261
17.8034687 -20.97663689 5.484743118
15.77807903 -19.03166771 0.7627751231
16.08167458 -19.27114487 1.613171577
17.65287209 -21.03837204 2.630312204
17.65801239 -21.01660728 3.570654869
17.67370224 -20.99953651 4.518264294
17.69765854 -20.9985199 5.478176117
15.67942429 -19.04574966 0.7652760744
15.988554 -19.29391098 1.614173174
17.53383446 -21.04408455 2.627960443
17.55565262 -21.03443909 3.567664146
17.56918907 -21.02213478 4.513816833
17.58932304 -21.01694489 5.470902443
15.61676884 -19.10761642 0.7678331733
15.89746952 -19.32508659 1.615557313
17.41406822 -21.0552578 2.625999451
17.43589592 -21.04586029 3.563271761
17.45212936 -21.03680611 4.507553101
17.47107887 -21.03046036 5.46201992
15.50200653 -19.10835457 0.7704434991
15.80377865 -19.35279846 1.616791487
17.31264114 -21.0870285 2.625948191
17.32407951 -21.0657177 3.560102701
17.34424019 -21.06140137 4.50320673
17.35424232 -21.04489136 5.453464031
15.42418957 -19.1455307 0.7728803158
15.81432724 -19.49610329 1.623226404
17.19792366 -21.09558868 2.62395215
17.21200562 -21.0775032 3.556158781
17.2412281 -21.08399582 4.498986244
17.2398243 -21.05422401 5.444406033
15.35787487 -19.19617081 0.7752985358
15.68350029 -19.4732399 1.62219882
17.10784721 -21.13253593 2.624564886
17.10135651 -21.09026337 3.55240345
17.12161064 -21.08648109 4.491147041
17.1370163 -21.07653427 5.438445091
15.31317902 -19.27267075 0.7776962519
15.66603851 -19.5844841 1.627203226
16.98307991 -21.12784576 2.621425867
17.00106239 -21.11468315 3.550295353
17.00220871 -21.08836555 4.483286381
17.03300095 -21.09685898 5.432121277
15.22797203 -19.29405594 0.7799968719
15.5827713 -19.61748314 1.628696442
16.87230682 -21.13185883 2.619241476
16.8944416 -21.13101387 3.547130823
16.90458488 -21.11551094 4.480124474
16.93259621 -21.11377335 5.425649643
15.23483849 -19.43359184 0.7823728323
15.48363209 -19.62432098 1.629018307
16.77596855 -21.15979767 2.619116545
16.77902412 -21.13612556 3.542490005
16.80673409 -21.13472557 4.475982189
16.8098278 -21.11044884 5.414094448
15.14733315 -19.45873451 0.7847831845
15.41812325 -19.67819595 1.631459713
16.67458344 -21.18113899 2.618421316
16.66605377 -21.13625336 3.537489891
16.70413971 -21.15488815 4.471680164
16.70860863 -21.13234329 5.408415318
15.07421494 -19.50788689 0.7873010039
15.3251543 -19.7050724 1.632694364
16.55835152 -21.19099617 2.616588116
16.56507111 -21.164711 3.535866022
16.58800697 -21.16522026 4.465269089
16.60388184 -21.15666771 5.402852535
15.08067322 -19.64918518 0.7897022963
15.29882145 -19.81388092 1.637617111
16.44957924 -21.20206642 2.615023136
16.46159363 -21.18961143 3.533808708
16.47203255 -21.17496681 4.458837509
16.50278282 -21.17761421 5.397141933
15.02470207 -19.70687485 0.7919820547
15.26851273 -19.90496635 1.64174521
16.34574509 -21.21132851 2.61345005
16.36152077 -21.20369148 3.530848265
16.37450981 -21.19232368 4.454633236
16.39290428 -21.17995071 5.387811661
34.37139893 -43.35988617 12.40372753
14.94905567 -19.74664497 0.7943716049
15.20785713 -19.95855331 1.644192696
16.24469376 -21.23075676 2.612690449
16.2491188 -21.2018013 3.525777817
16.27706528 -21.20925331 4.450414658
16.28702927 -21.19383049 5.380679607
34.23418427 -43.47922516 12.41057301
14.89436245 -19.81282043 0.7967655063
15.15111256 -20.02399635 1.6471802
16.13875771 -21.24346924 2.611355066
16.14338493 -21.22215271 3.523253679
16.17489052 -21.22702408 4.44603157
16.18248749 -21.20876312 5.373878956
34.01076508 -43.5212822 12.3938036
15.34353924 -20.53063011 0.7996764779
15.15253162 -20.17045593 1.653817773
16.03307533 -21.2631855 2.610552073
16.04008293 -21.23762703 3.520373344
16.05939293 -21.23470497 4.439529896
16.07570076 -21.22755051 5.367538452
16.93879509 -22.28134346 6.596328735
15.81328011 -21.27765656 0.8026499152
15.11832619 -20.26570702 1.658156514
15.92733002 -21.27491951 2.60918355
15.93807697 -21.25420952 3.517688036
15.95007992 -21.24214935 4.433438301
15.97379398 -21.24459267 5.361400604
16.81146812 -22.27396774 6.581113338
15.72988415 -21.31685829 0.8051788807
15.09589577 -20.37674332 1.663210392
15.81925297 -21.28301048 2.607516527
15.83738232 -21.27189255 3.515197039
15.85306931 -21.2647171 4.430124283
15.86710453 -21.25497818 5.353853703
16.72171402 -22.31376266 6.578801155
15.62332916 -21.32554054 0.8076682091
15.09968185 -20.52271461 1.669840813
15.71255398 -21.29216766 2.605972528
15.71859741 -21.27297592 3.51029253
15.75489044 -21.28528023 4.426516533
15.7605381 -21.26486969 5.346290588
16.59457397 -22.31278801 6.56493187
15.4855175 -21.29980278 0.8102258444
15.09676075 -20.66839409 1.676467776
15.61329079 -21.31782722 2.605808496
15.6229496 -21.29600143 3.508611202
15.6447382 -21.29714012 4.421061516
15.65292549 -21.28010368 5.339533329
16.47619247 -22.31451988 6.552576542
15.37935543 -21.30738449 0.8126759529
15.52152348 -21.37230682 1.708202243
15.51523685 -21.33714104 2.605221272
15.52250385 -21.31228256 3.506072998
15.53830147 -21.30575943 4.415462494
15.55854321 -21.30465889 5.335426807
16.33664513 -22.28770828 6.532684326
15.29249859 -21.34009171 0.8151434064
15.50881672 -21.50453568 1.714235187
15.40642929 -21.34168434 2.603345633
15.42334747 -21.32969475 3.503730774
15.4905138 -21.39129066 4.423582077
15.48439503 -21.35548973 5.337243557
16.23057938 -22.30381966 6.5244627
15.17697811 -21.33390808 0.8175435662
15.43195248 -21.55207825 1.716464996
15.29897404 -21.34731293 2.601593971
15.3266325 -21.34985542 3.501796246
15.46965694 -21.51316071 4.438155174
15.39587402 -21.38717079 5.334860802
16.1293087 -22.32570648 6.517896652
15.06997108 -21.34590721 0.8200730085
15.32038498 -21.56026459 1.7169348
15.19640827 -21.36630821 2.600942612
15.21808338 -21.36106682 3.498491764
15.37115002 -21.53937149 4.435461044
15.2790041 -21.38799095 5.325248241
15.99620628 -22.31233978 6.501411438
14.96904182 -21.35799599 0.8224668503
15.21848965 -21.57331657 1.717623711
15.09631634 -21.38058472 2.600009441
15.10259914 -21.35473061 3.493141174
15.26216602 -21.54336357 4.429256439
15.19287586 -21.42200089 5.323538303
15.86719704 -22.2955265 6.484771252
14.87641716 -21.38097 0.8248664737
15.12142658 -21.5923481 1.718586683
15.0010128 -21.40086365 2.599630833
15.00852108 -21.37671089 3.491583347
15.16387749 -21.56122398 4.425564289
15.10787201 -21.45724487 5.322167397
15.75704479 -22.3032856 6.474804401
14.77796841 -21.39543533 0.8272375464
15.01852798 -21.60288239 1.719172478
14.89755535 -21.40942001 2.598240614
14.91798496 -21.40310669 3.490648508
15.0633297 -21.57544327 4.421295166
15.01931667 -21.48738289 5.319736004
15.63087845 -22.28843307 6.458957672
14.67262268 -21.39970016 0.8295736313
14.92975712 -21.63241196 1.720618248
14.79654503 -21.42074776 2.597120047
14.81812 -21.41623116 3.488004208
14.94893265 -21.56997299 4.413633347
14.89725876 -21.47089195 5.307131767
15.52799034 -22.30461693 6.451466084
14.61028004 -21.46380997 0.8320233822
14.83864784 -21.65831566 1.721905828
14.7002821 -21.43811035 2.596555471
14.71128559 -21.42661858 3.484828711
14.87171268 -21.61542511 4.414965153
14.83640003 -21.53855133 5.31308651
15.40770149 -22.30397797 6.439056873
14.5129652 -21.48612785 0.8344901204
14.60281944 -21.48753548 1.714350462
14.59702778 -21.45271111 2.595668077
14.60816193 -21.43396187 3.481514931
14.76889706 -21.63251686 4.411056042
14.7613306 -21.59416962 5.316003799
15.26864338 -22.26828384 6.418115139
14.41697216 -21.50222397 0.836815238
14.48594189 -21.47458649 1.713897943
14.50204849 -21.47083282 2.595217705
14.31119061 -21.17367363 3.442979574
14.41256142 -21.28285217 4.343546391
14.53721333 -21.43165016 5.271762371
15.15116882 -22.2695961 6.406499386
14.32219505 -21.51954269 0.8391302228
14.38748741 -21.49470139 1.714945912
14.40485477 -21.48526573 2.594466448
14.18075085 -21.13868332 3.434276342
14.19069576 -21.12627792 4.309641838
14.20572948 -21.11318398 5.193751335
15.03764153 -22.26773643 6.394739628
14.21498489 -21.51833344 0.841384232
14.29057598 -21.50118828 1.715371132
14.30543995 -21.49600601 2.59341383
14.08024406 -21.14548683 3.431090593
14.09945583 -21.13894653 4.305950642
14.10310841 -21.11723328 5.186272144
14.93480015 -22.27236366 6.385354519
14.1181221 -21.5314846 0.8436610103
14.1992569 -21.52289391 1.716493487
14.20387077 -21.5030117 2.592058182
13.9879303 -21.15594673 3.428625822
14.00811481 -21.15855789 4.303210735
14.00510597 -21.12729073 5.180182457
13.95791626 -21.0242939 6.048035622
14.02245522 -21.54586983 0.8459283113
14.09780216 -21.52937126 1.7169348
14.10917759 -21.51944733 2.591551065
13.89666176 -21.17499161 3.427118063
13.91567993 -21.17615509 4.300176144
13.91836929 -21.1531353 5.177595139
13.87263203 -21.05172539 6.044901371
13.92797756 -21.56150055 0.8481866717
14.00097275 -21.54199982 1.717658043
14.01342297 -21.53382301 2.590886354
13.79871845 -21.18378448 3.424314976
13.81549168 -21.18189812 4.295147419
13.82162762 -21.16399002 5.171829224
13.77606583 -21.06989288 6.038928032
13.82774162 -21.57580185 0.8505377173
13.90061855 -21.55662918 1.718484163
13.91302586 -21.54854774 2.590180397
13.70623207 -21.20771217 3.42332387
13.71299267 -21.19121361 4.290501118
13.73025894 -21.18984413 5.168981552
13.67406082 -21.07954216 6.03083849
13.73118591 -21.58725929 0.8527575135
13.80143547 -21.57247734 1.719370604
13.81632042 -21.56040955 2.589342117
13.60045624 -21.21141815 3.419750929
13.61833 -21.2115612 4.287822247
13.62597752 -21.18842316 5.160722256
13.6084671 -21.13502312 6.03524065
13.63362789 -21.59661865 0.8549572229
13.71398735 -21.58974838 1.720309258
13.71858788 -21.57019043 2.588345051
13.5083313 -21.22716331 3.417974234
13.53740597 -21.23668289 4.286602497
13.5295372 -21.19797516 5.154911995
13.53209305 -21.1668129 6.034051895
12.46360207 -19.96507263 0.8516322374
13.6097765 -21.58900452 1.720448613
13.6242485 -21.58453941 2.587768316
13.4154253 -21.23355484 3.41521287
13.44416523 -21.25061417 4.283216953
13.43535137 -21.21040535 5.149793148
13.43912983 -21.18110085 6.027915955
12.37960911 -19.98158455 0.8536603451
13.51556396 -21.6028595 1.721251011
13.53218079 -21.60181046 2.587467432
13.32777786 -21.25517845 3.414268732
13.3434124 -21.25254631 4.277830601
13.3455677 -21.22900772 5.146071911
13.33980465 -21.18517494 6.019237518
12.22850418 -19.89349556 0.8553057909
13.42142868 -21.61629868 1.722039104
13.43145275 -21.60532188 2.585991859
13.2282362 -21.25809669 3.410949469
13.24495125 -21.25735474 4.272995949
13.26012421 -21.25382614 5.143751144
13.25021362 -21.20355415 6.01433754
12.14170265 -19.90402222 0.8572813272
13.33168793 -21.6360569 1.723117232
13.33411503 -21.61340332 2.584936619
13.13711071 -21.28124046 3.410092592
13.15736961 -21.27835083 4.270989895
13.1575613 -21.25185394 5.13576746
13.15390682 -21.21891212 6.008272648
12.09663486 -19.98721886 0.8596153855
13.22759151 -21.6409111 1.723536968
13.23539925 -21.62673378 2.584272385
13.04314899 -21.29166794 3.407819748
13.06408024 -21.29792976 4.26851511
13.06011295 -21.26493454 5.13070631
13.06017494 -21.22993469 6.001660347
11.98312473 -19.95480537 0.8614085317
13.13582039 -21.65649223 1.724436164
13.14680576 -21.64743233 2.584354877
12.94249535 -21.29891014 3.404998302
12.97335339 -21.31317139 4.265630722
12.96420002 -21.2720089 5.124812126
12.95770836 -21.2345562 5.99303484
11.93546867 -20.0342083 0.8637218475
13.03196526 -21.66043091 1.72482419
13.05352688 -21.66836166 2.584393024
12.85190487 -21.31354523 3.403343439
12.87169456 -21.31855011 4.26085043
12.8732357 -21.29421043 5.121844292
12.84327888 -21.21169281 5.977948666
11.91811848 -20.155653 0.8661136031
12.93929005 -21.67349625 1.725619197
12.9565258 -21.67477417 2.583281279
12.75778294 -21.33002472 3.401786804
12.77166557 -21.31787872 4.255373478
