# .PCD v0.7 - Point Cloud Data file format
VERSION 0.7
FIELDS x y z
SIZE 4 4 4
TYPE F F F
COUNT 1 1 1
WIDTH 1261
HEIGHT 1
VIEWPOINT 0 0 0 1 0 0 0
POINTS 1261
DATA ascii
-12.70809841 -30.71463394 3.47696209
-9.215955734 -18.84729385 3.306644201
-12.56180954 -30.5836544 5.777181625
-5.77947855 -7.065233707 2.579222679
-6.095754623 -8.229741096 3.138415337
-6.057328224 -8.148665428 3.465197086
-5.466618061 -6.101520061 3.201435328
-6.587328911 -9.257182121 0.3860970438
-7.767638206 -13.21528244 0.6239786744
-10.53966999 -22.50829124 1.163743496
-12.89483643 -30.76877022 2.334898472
-12.82842922 -30.71632385 3.485573292
-9.196360588 -18.5253315 3.276617527
-6.054645061 -7.860350609 2.404450178
-5.865363598 -7.257389069 2.618037701
-6.077127934 -8.098218918 3.45617795
-5.514185429 -6.175520897 3.227212191
-6.623876095 -9.250311852 0.3877592683
-7.835522175 -13.26158142 0.624607265
-10.63461876 -22.52760887 1.168320656
-13.02243233 -30.79301643 2.343171597
-12.95228386 -30.72903442 3.495056629
-9.281615257 -18.56402588 3.286950827
-6.061615467 -7.771395683 2.394213676
-5.957615852 -7.466026306 2.660097837
-6.167600155 -8.238788605 3.148197412
-6.106887341 -8.083135605 3.456424236
-5.519692421 -6.10159111 3.208545923
-6.665157318 -9.258555412 0.3883523345
-7.894318104 -13.27702522 0.6262767315
-10.99967289 -23.421875 1.17562902
-13.15321732 -30.82631111 2.351835251
-13.0856142 -30.77179527 3.506871939
-9.262950897 -18.25580215 3.25825572
-6.089004993 -7.752678871 2.394443512
-5.98734045 -7.458993912 2.662040949
-6.192258358 -8.204661369 3.144462109
-6.158450603 -8.142378807 3.47622323
-5.538186073 -6.073814869 3.203758955
-6.701735497 -9.251405716 0.3900150955
-7.94547987 -13.26744175 0.6287780404
-11.12909889 -23.53875732 1.180721521
-13.26961136 -30.81133842 2.35861969
-13.21176338 -30.78922081 3.51681757
-9.436322212 -18.58517265 3.301436901
-6.111702442 -7.718720436 2.392394781
-5.978423119 -7.323683739 2.63998127
-12.91790199 -30.54419708 8.174451828
-6.179468632 -8.09728241 3.468646049
-5.575592518 -6.110468388 3.218443394
-6.740729332 -9.251729012 0.3911456764
-8.012374878 -13.30720425 0.6296386719
-11.25459862 -23.63977623 1.185808063
-13.39735603 -30.83217621 2.366851807
-13.33222485 -30.78709984 3.525315285
-9.529436111 -18.64563751 3.314395189
-6.133030415 -7.680925846 2.389765263
-5.996175289 -7.278922081 2.634830952
-13.0422821 -30.55844879 8.191391945
-6.205245972 -8.068861961 3.465459824
-5.635910034 -6.222374439 3.255978346
-6.778527737 -9.248109818 0.3925421834
-8.083882332 -13.35999298 0.6300774217
-11.37785912 -23.73068619 1.190902114
-13.52053738 -30.83726692 2.374483347
-13.45878124 -30.80353737 3.535279274
-9.535308838 -18.42479134 3.295466423
-6.155893803 -7.648760319 2.387977362
-6.032237053 -7.294324875 2.640982151
-6.374640465 -8.458875656 3.213804722
-6.258040905 -8.12939167 3.485783815
-5.672474384 -6.253062248 3.269035339
-6.823790073 -9.26710701 0.3923550844
-8.145294189 -13.38014221 0.6315979958
-11.51293373 -23.85528183 1.19616735
-13.60312939 -30.71433258 2.376971006
-13.58374786 -30.81378746 3.54481411
-9.535531044 -18.19087791 3.274945736
-6.14648962 -7.514569283 2.370778322
-6.043172359 -7.22879076 2.631917238
-13.29171371 -30.58547783 8.22530365
-6.299842358 -8.152601242 3.496325016
-5.675965309 -6.175264359 3.249203444
-6.866713047 -9.278336525 0.3927032053
-8.207531929 -13.40193176 0.633066833
-11.64024639 -23.952631 1.201374769
-13.7255764 -30.71670723 2.384515524
-13.71502018 -30.84253693 3.555826902
-9.60873127 -18.19013214 3.280949116
-6.192629814 -7.557861805 2.380370617
-6.089930534 -7.277751446 2.644446611
-6.354157925 -8.165558815 3.155629396
-6.33893919 -8.166377068 3.50442338
-6.520603657 -8.80046463 4.051841259
-6.881892204 -9.206115723 0.3988347054
-8.281970978 -13.45949841 0.6333747506
-11.76204205 -24.03040504 1.206541657
-13.86306858 -30.76420212 2.393927813
-13.84415913 -30.86315727 3.56626749
-9.680768013 -18.18532562 3.286521673
-6.228182316 -7.567016602 2.384835005
-6.110028267 -7.242133141 2.641032457
-6.366176128 -8.093696594 3.143385887
-6.345366478 -8.076488495 3.485029459
-5.836727619 -6.512592793 3.359651089
-6.919646263 -9.201966286 0.4002265036
-8.354322433 -13.50913906 0.6339523196
-11.87430668 -24.07728958 1.211606622
-14.03996563 -30.92873955 2.408197403
-13.97979259 -30.9022007 3.57819581
-9.828382492 -18.41074562 3.318576574
-6.327645779 -7.771742344 2.419074535
-6.149953842 -7.268258095 2.649324417
-6.377729893 -8.021865845 3.131116867
-6.370154858 -8.045744896 3.481328011
-5.857327938 -6.48749733 3.356029749
-6.957406521 -9.197674751 0.4016181231
-8.413529396 -13.51871586 0.6358298063
-11.9985714 -24.15777779 1.216852784
-14.16481113 -30.93325233 2.41595459
-14.10512161 -30.90852356 3.587629795
-9.878152847 -18.33530426 3.316150665
-6.3498106 -7.737142563 2.416993141
-6.3392663 -7.74860239 2.74400425
-6.42339468 -8.055980682 3.142982006
-6.391169548 -8.003880501 3.474665165
-5.86774683 -6.431286812 3.342896223
-6.989958286 -9.178155899 0.4040517807
-8.491753578 -13.58286572 0.6359571815
-12.13648033 -24.2755394 1.222317696
-14.29881191 -30.96376801 2.424821138
-14.22805595 -30.90679169 3.596476793
-9.907883644 -18.20131683 3.306948662
-6.359229088 -7.664945126 2.409160614
-6.366935253 -7.730863094 2.744220972
-6.430710793 -7.972960949 3.128136396
-6.447030544 -8.068793297 3.496530533
-5.899279118 -6.440806389 3.349881172
-7.027683258 -9.173603058 0.4054403007
-8.544169426 -13.57113075 0.6385195255
-12.29234314 -24.44177055 1.228078842
-14.42926502 -30.98238945 2.4332304
-14.35627651 -30.91968727 3.606518984
-9.978924751 -18.19161415 3.312095881
-6.368818283 -7.594666481 2.401589632
-6.287930489 -7.395902157 2.683883429
-6.527311325 -8.158783913 3.174821854
-6.616511345 -8.473713875 3.60952425
-5.941763878 -6.483003616 3.366945744
-7.062762737 -9.161380768 0.4073473811
-8.593235016 -13.54978275 0.6413787603
-12.42763138 -24.54493523 1.233580947
-14.55603886 -30.98916435 2.441174507
-14.48797131 -30.9414978 3.617316484
-10.34816456 -19.05036736 3.418184519
-6.390748978 -7.561886787 2.399747133
-6.306083202 -7.354151726 2.679394722
-14.16764355 -30.65335083 8.341754913
-6.651671886 -8.469655037 3.613272667
-5.954107285 -6.433952332 3.35602355
-7.101836205 -9.160310745 0.4084765315
-8.65094471 -13.55274582 0.6434594989
-12.58511925 -24.70778656 1.239453554
-14.68631458 -31.00486183 2.449526548
-14.62452221 -30.9759655 3.629172325
-14.54353142 -30.9101162 4.806825161
-6.40989399 -7.521579742 2.396741152
-6.270225525 -7.156056881 2.64491415
-6.646716595 -8.301228523 3.216101408
-6.683721542 -8.456289291 3.61455512
-14.21227264 -30.74370575 10.85204887
-7.142299175 -9.162845612 0.4093491435
-8.724999428 -13.60061932 0.6441246867
-12.7438755 -24.86983871 1.245393634
-14.81947517 -31.02758408 2.458208561
-14.74886703 -30.97411537 3.638202429
-14.67148209 -30.919487 4.818546295
-6.410521507 -7.428928375 2.38564682
-6.286671162 -7.112598419 2.640009642
-6.678159237 -8.287945747 3.217418909
-6.701206207 -8.40066433 3.604483604
-6.018295765 -6.453928947 3.370577812
-7.175969124 -9.146474838 0.411509335
-8.780962944 -13.59744072 0.6463966966
-12.89091587 -24.99536896 1.25119102
-14.95093822 -31.04410553 2.466665268
-14.87734318 -30.98306465 3.648137569
-9.113918304 -14.91300678 2.953282833
-6.440866947 -7.422215939 2.387800932
-6.283265114 -7.013433933 2.624362946
-6.709544659 -8.274558067 3.218732595
-14.53770065 -30.80693436 9.654813766
-14.46299744 -30.75154686 10.89096355
-7.213717937 -9.141223907 0.4128962457
-8.846652031 -13.62030506 0.6478529572
-13.05132008 -25.15398598 1.257243752
-15.08401585 -31.06385422 2.475295305
-15.01618862 -31.01963615 3.660339832
-9.157608986 -14.86117649 2.952536821
-6.473203182 -7.420982361 2.390821457
-6.633275032 -7.909971714 2.800889015
-6.73957777 -8.257375717 3.219190359
-14.67142296 -30.83242035 9.678606987
-14.5930624 -30.76739502 10.91436195
-7.254270077 -9.143311501 0.4137720764
-8.927200317 -13.68223763 0.6481009126
-13.20739746 -25.29678726 1.263268352
-15.20429516 -31.04741478 2.482395411
-15.14859486 -31.03688622 3.671053171
-15.06407261 -30.96506882 4.856190681
-6.495482445 -7.39170599 2.389501333
-6.331737518 -6.974732876 2.623773098
-6.76163435 -8.218019485 3.214523554
-14.80091095 -30.84456635 9.698953629
-14.72208214 -30.77910233 10.93664932
-7.290653706 -9.134032249 0.4154150486
-8.991359711 -13.69887257 0.6497602463
-13.40034771 -25.5343399 1.269965172
-16.87703705 -35.22258377 2.671918631
-16.8121109 -35.20567703 4.01725626
-9.300247192 -14.91021156 2.969084501
-6.531167984 -7.399553299 2.39396739
-6.355155945 -6.953423977 2.62311101
-14.92998695 -30.8543663 9.718817711
-14.8558712 -30.80293083 10.96288109
-7.342674732 -9.165647507 0.4142613411
-9.063514709 -13.73579216 0.6507977247
-13.59152985 -25.76150703 1.276694655
-17.03298378 -35.25590897 2.682266712
-16.96157837 -35.22203445 4.029232979
-9.361557007 -14.90631199 2.974061966
-6.580652237 -7.444378376 2.404241085
-15.13070107 -30.90965843 8.508195877
-15.06124496 -30.86910629 9.740175247
-14.99519825 -30.84063911 10.99362755
-7.37341404 -9.141151428 0.4169222116
-9.143871307 -13.79291725 0.6512244344
-13.77260113 -25.97076607 1.283134222
-17.18369102 -35.27362823 2.691977262
-17.10363388 -35.23644257 4.040577888
-9.401293755 -14.84447479 2.972180367
-6.606964588 -7.425920963 2.404656172
-6.73585701 -7.814893723 2.797756672
-16.80284691 -35.09155273 9.500061989
-16.71674919 -35.0257988 10.89045048
-15.11618328 -30.84383583 11.01283836
-7.401125908 -9.109127998 0.4200808406
-9.190310478 -13.76864338 0.6540295482
-13.96059322 -26.17915916 1.289921641
-17.32907486 -35.29503632 2.701441288
-17.26498413 -35.28143311 4.055015087
-9.448407173 -14.8029995 2.972716093
-6.631742477 -7.407940388 2.404987335
-16.95008469 -35.12079239 9.524074554
-16.85939217 -35.04359436 10.914258
-16.77355576 -34.9823494 12.32704735
-7.440080643 -9.111141205 0.4208672047
-9.266200066 -13.81209373 0.6548835039
-14.17708015 -26.45549202 1.297290683
-17.47747993 -35.30409241 2.710847378
-17.41466522 -35.29409027 4.066883564
-9.47908783 -14.72717953 2.968873739
-6.65154171 -7.372682095 2.402771473
-6.782614231 -7.754678249 2.793847322
-17.09705544 -35.12871552 9.544160843
-17.0133152 -35.0710907 10.94189167
-6.045188427 -5.906888485 3.233954191
-7.473465919 -9.093770027 0.42300722
-9.321110725 -13.80128956 0.6573793292
-17.63699532 -35.34048462 2.721512318
-17.56963921 -35.3191452 4.079832554
-9.540706635 -14.72442245 2.974047899
-6.652648449 -7.289381981 2.392963886
-17.24355507 -35.13421631 9.563827515
-17.1614418 -35.08162308 10.96507454
-6.07842207 -5.922691822 3.243133783
-7.515704155 -9.098514557 0.4236391187
-9.373051643 -13.78285313 0.6600967646
-14.88781261 -27.68647385 1.317545056
-17.79841805 -35.37990952 2.732366562
-17.71549225 -35.31943512 4.090806484
-6.700554371 -7.327880859 2.40239048
-6.85285902 -7.756606579 2.802163601
-17.4035759 -35.17377472 9.591654778
-17.31328583 -35.1006012 10.99075317
-17.23814774 -35.06985474 12.4212656
-7.546012878 -9.07349205 0.4262737334
-9.437653542 -13.79574966 0.6618700027
-14.78281212 -27.13819885 1.31896615
-17.95877457 -35.41494751 2.743072987
-17.8747654 -35.35250092 4.104553699
-17.7851429 -35.29470062 5.467047691
-6.772654533 -7.426907539 2.421477318
-6.884464741 -7.74820137 2.804519415
-17.55770111 -35.19625092 9.615641594
-17.46611404 -35.12075806 11.01694298
-5.950500011 -5.449062824 3.102323294
-7.580740452 -9.059459686 0.4281535447
-9.51300621 -13.83428383 0.6628829241
-15.22536755 -27.94721985 1.331047773
-18.11212349 -35.43074799 2.752958059
-18.03220558 -35.37934875 4.117857933
-17.93188286 -35.29553223 5.480131149
-6.838179111 -7.507134914 2.437676907
-17.77468109 -35.20262527 8.232514381
-17.70856476 -35.20899963 9.637494087
-17.62210274 -35.14748764 11.04513836
-5.969848156 -5.432945728 3.101262093
-7.610830784 -9.034243584 0.4307751656
-9.555938721 -13.79298878 0.6662598252
-15.35774517 -27.98383522 1.33712256
-18.26651764 -35.44777298 2.762941599
-18.19002151 -35.40551758 4.131180286
-18.08548927 -35.31236649 5.49523592
-6.922721863 -7.632905483 2.461232424
-17.92749405 -35.21886444 8.252706528
-17.8669281 -35.23927307 9.663661003
-17.77913475 -35.17537308 11.07384777
-17.68778229 -35.10505295 12.50094986
-7.656196594 -9.045770645 0.4309117496
-9.618623734 -13.79956341 0.6682140827
-15.84133625 -28.86600685 1.350333095
-18.42649841 -35.477108 2.773533106
-18.34367371 -35.41995621 4.143591881
-10.1581831 -15.46544743 3.092278719
-6.875195026 -7.429965019 2.432340622
-18.09388161 -35.26729202 8.27943325
-18.01330376 -35.23805237 9.682528496
-17.93657112 -35.20257187 11.10257721
-17.84384727 -35.12980652 12.53205776
-7.705573082 -9.066297531 0.430436939
-9.672140121 -13.78376293 0.6708208323
-15.98207474 -28.91131401 1.356701255
-18.57999802 -35.48914337 2.783375978
-18.49529076 -35.42824173 4.155550003
-9.499124527 -13.69912338 2.882584095
-6.859259605 -7.308039188 2.416293144
-18.23925781 -35.26216507 8.295674324
-18.17817497 -35.28151703 9.712171555
-18.08132172 -35.19678116 11.12234879
-6.036010265 -5.405605793 3.104840755
-7.753572941 -9.082930565 0.4302181005
-9.722488403 -13.76040649 0.6736384034
-16.12897301 -28.98399162 1.363038421
-36.81860733 -78.71376801 4.803361416
-10.45498943 -15.79221725 2.508916616
-9.554561615 -13.68879318 2.886682987
-6.893157005 -7.308823109 2.419897556
-10.06059074 -15.04421234 4.279914856
-18.3354187 -35.30435562 9.73709774
-18.24083328 -35.22628784 11.15210533
-18.15003395 -35.17821884 12.59342194
-7.797799587 -9.090180397 0.4306222796
-9.788303375 -13.78023434 0.6750890613
-16.20009422 -28.86248589 1.367967963
-37.16757965 -78.80480957 4.827068806
-10.0568943 -14.68325901 2.420195818
-9.595405579 -13.64343071 2.886503458
-6.935572147 -7.333810806 2.427252293
-10.13428211 -15.06421566 4.291632652
-18.48146248 -35.31659698 9.758678436
-18.3944416 -35.25779343 11.18153954
-18.29985809 -35.18326569 12.6189146
-7.853255749 -9.122877121 0.4293157458
-9.848949432 -13.78032875 0.6772168279
-18.03438377 -32.83488083 1.410544634
-37.48443222 -78.77814484 4.846392632
-10.10104465 -14.63620186 2.421100616
-10.31868553 -15.21879387 3.085714817
-6.959656239 -7.310592175 2.427034855
-10.15795708 -14.96421146 4.279374123
-18.46020317 -35.21250916 12.65235615
-7.890559196 -9.113258362 0.4308341146
-9.91062355 -13.77540684 0.6795906425
-18.19416046 -32.88114929 1.417804718
-37.42528534 -77.87671661 4.824422359
-10.16853809 -14.64399242 2.426682949
-10.32767105 -15.07637691 3.07444644
-6.985174179 -7.290944576 2.427400589
-10.23396873 -14.98918343 4.292182922
-7.912491322 -9.068819046 0.4346655905
-9.968183517 -13.76769161 0.6819327474
-18.35522652 -32.92856216 1.425106645
-37.57632065 -77.43611908 4.824995041
-9.98968792 -14.08250237 2.38352561
-10.35500145 -14.98641586 3.069310427
-7.018268108 -7.285134792 2.4302001
-10.17407131 -14.69560623 4.240919113
-7.957782269 -9.077204704 0.4349593818
-10.02158546 -13.75722885 0.6842409968
-18.55084038 -33.0520401 1.433187366
-37.77293015 -77.17945862 4.832168579
-9.996352196 -13.95541573 2.377389669
-10.45717907 -15.06953239 3.085662842
-7.067405701 -7.324005127 2.439941168
-10.33684826 -14.92256355 4.294513226
-8.002369881 -9.083573341 0.4353800416
-10.07916737 -13.74908924 0.6865825653
-18.77364922 -33.23296738 1.441908121
-38.05132294 -77.07344818 4.84754467
-10.06582451 -13.97256088 2.383646011
-10.52683067 -15.08424282 3.093278646
-7.0563941 -7.220669746 2.426687717
-10.37784767 -14.86557388 4.290922642
-10.26191616 -14.66830921 4.865274429
-8.05532074 -9.107925415 0.4345969856
-10.13768959 -13.73591709 0.6891652346
-18.97319031 -33.35808563 1.450145006
-10.12006855 -13.95480347 2.386914253
-10.13671684 -14.11113548 3.559062958
-10.30948257 -14.6212368 4.863146305
-8.115999222 -9.148352623 0.4327415228
-10.22192669 -13.78549576 0.6898818016
-19.16817856 -33.4540062 1.458494902
-38.70633698 -77.04160309 4.888171196
-10.55570793 -14.77744389 2.463531733
-10.26502991 -14.25059128 3.589024782
-8.170297623 -9.173992157 0.4318645597
-10.31834316 -13.86007214 0.6899152398
-19.37143326 -33.58079529 1.466876388
-10.45777416 -14.4166832 2.4371593
-10.4605608 -14.48608112 3.036793709
-10.44460678 -14.50772667 3.638209105
-10.24229908 -14.17982578 4.773459435
-8.22228241 -9.19395256 0.431358397
-10.45252228 -14.01388931 0.6877757907
-19.57745934 -33.71018982 1.47535336
-39.31568909 -76.93803406 4.92454958
-10.472085 -14.30690193 2.432570934
-10.52489471 -14.48484802 3.042649269
-10.56873798 -14.63775444 3.666677237
-10.59417057 -14.75187111 4.300328732
-10.27880859 -14.11993027 4.767601967
-8.260835648 -9.184783936 0.4327737391
-10.51296806 -14.00774002 0.6900759339
-19.77947807 -33.82771683 1.483766675
-39.61375427 -76.86997223 4.942021847
-10.5778017 -14.39624023 2.44545126
-10.48370266 -14.25417995 3.019481182
-10.28369522 -13.8738327 3.547232389
-10.64545536 -14.71927547 4.301801205
-10.47359943 -14.40816975 4.846953392
-8.313972473 -9.206111908 0.4321630895
-10.56745148 -13.98870182 0.692723155
-19.99523926 -33.98690033 1.492352605
-10.65793514 -14.43570423 2.453758955
-10.60018444 -14.36628914 3.039721489
-10.63036919 -14.48662376 3.655814171
-10.57936859 -14.43966389 4.252130985
-10.57588768 -14.48945904 4.875936508
-8.36818409 -9.228987694 0.4314442873
-10.61411095 -13.95988941 0.6955215335
-10.85249424 -14.5110178 1.276500225
-10.63395596 -14.29970646 3.037312269
-10.74073887 -14.64596939 4.30273962
-8.41648674 -9.243480682 0.4312334061
-10.67106533 -13.9458847 0.6980132461
-10.91310596 -14.49967861 1.279556632
-10.85289669 -14.51679802 1.873899221
-10.83230114 -14.52715302 2.472157717
-10.74462318 -14.40314293 3.05631876
-10.81077766 -14.59780693 3.688321114
-10.78404522 -14.59688663 4.300878048
-8.459691048 -9.242557526 0.4320700467
-10.72889137 -13.93345928 0.7004553676
-10.90832996 -14.49452591 1.876970291
-10.81363487 -14.35024261 2.461568356
-10.50164413 -13.75714493 2.979643106
-10.84778786 -14.53601646 3.685246229
-10.82962894 -14.55302334 4.300105095
-8.502951622 -9.241452217 0.4329091012
-10.78318405 -13.91363811 0.7030885816
-21.14439583 -35.10912323 1.534807563
-10.86849308 -14.32798576 2.46474719
-10.53976917 -13.70544338 2.978935957
-10.89729404 -14.50090027 3.68664217
-10.6577425 -14.05508995 4.205070972
-8.553380966 -9.254468918 0.4328107834
-10.84542656 -13.90973282 0.7052886486
-25.23433113 -43.46878815 3.363617182
-10.88043308 -14.21775341 2.460024595
-10.60977459 -13.71975803 2.986744881
-11.08635139 -14.75389957 3.736582518
-10.91845417 -14.46136475 4.297785759
-8.60664463 -9.272614479 0.4323683977
-10.91578293 -13.92166805 0.707064569
-25.47557831 -43.56787109 3.380925417
-10.91285896 -14.15721035 2.459484577
-10.65458965 -13.6820364 2.987866402
-11.15306473 -14.75171947 3.743715048
-10.98395443 -14.4661684 4.306789398
-8.659197807 -9.288726807 0.4320524335
-10.97921658 -13.92567062 0.7089450955
-25.64856911 -43.54629135 3.39150548
-10.93161964 -14.06317234 2.456154108
-10.72300911 -13.69225693 2.995220184
-11.09382725 -14.50057411 3.708352804
-11.06437111 -14.49406052 4.321109772
-8.701063156 -9.287717819 0.4328139722
-11.04806137 -13.93344879 0.7108288407
-25.66430473 -43.1917038 3.385480165
-10.94176579 -13.95315838 2.451332569
-10.76244259 -13.65013695 2.995499372
-11.09552479 -14.36906528 3.693493843
-8.749321938 -9.294510841 0.4330921769
-11.12253666 -13.95159721 0.7124413848
-25.39683914 -42.28338623 3.350453854
-10.97642517 -13.8930645 2.451023817
-10.84083271 -13.67936707 3.005409718
-11.15582943 -14.35612965 3.698759079
-8.795856476 -9.297546387 0.4336076081
-11.20456791 -13.98361778 0.7136951685
-25.99556923 -42.69692993 1.680775523
-25.5472126 -42.20638657 3.358525515
-11.00894737 -13.8293581 2.450370789
-10.9329977 -13.73480129 3.018817663
-11.1964922 -14.30414963 3.697393417
-47.88492203 -87.07785034 19.65673256
-8.848958969 -9.312760353 0.4333184659
-11.29895973 -14.03828239 0.7143707871
-26.05690002 -42.44429779 1.686567068
-25.62225342 -41.98325729 3.358913183
-11.09033298 -13.86133671 2.458507538
-11.24030781 -14.20875549 3.08736515
-11.6504755 -15.06206894 3.834788322
-8.900277138 -9.319736481 0.4335935712
-11.40220737 -14.10839176 0.7146620154
-26.23851776 -42.42374039 1.695465684
-25.74854279 -41.86114883 3.364577532
-11.03622055 -13.6310358 2.442466021
-11.30297375 -14.20071316 3.092749834
-11.69795227 -15.01721191 3.835053682
-8.94617939 -9.320367813 0.434238255
-11.74597263 -14.62332535 0.7037192583
-26.37159348 -42.31053162 1.703084469
-26.24651718 -42.44805527 3.407978773
-11.03417397 -13.50374699 2.435842991
-11.55933189 -14.55737972 3.146788359
-11.7534132 -14.98801422 3.838027239
-8.986485481 -9.310247421 0.4355729222
-11.7849102 -14.56637192 0.7073316574
-27.73348999 -44.48090363 1.743521333
-26.11804962 -41.82201767 3.387452841
-11.15197945 -13.5991993 2.450157404
-11.65200901 -14.6026392 3.159484148
-11.84733772 -15.02542973 3.852947712
-11.34047699 -14.10753059 4.300434113
-9.043903351 -9.331571579 0.4348520935
-11.8026495 -14.47062397 0.711904645
-27.91994858 -44.44887543 1.75274694
-26.29319763 -41.79182053 3.398082256
-11.25398827 -13.66895771 2.461910009
-11.69671631 -14.55618191 3.160039186
-11.89266396 -14.97648335 3.8525877
-9.091005325 -9.333346367 0.4353938401
-11.82269382 -14.38020992 0.7163140774
-28.14341927 -44.50299072 1.762756467
-26.49395752 -41.8084259 3.411281586
-11.23717976 -13.52176189 2.453121424
-11.78522587 -14.59192276 3.171589375
-9.144935608 -9.347155571 0.4351450205
-11.8684206 -14.3438797 0.7192386985
-28.37833786 -44.55703354 1.773299813
-28.9354496 -45.97022629 3.649395704
-11.21818447 -13.36647034 2.443757772
-11.87030792 -14.62024212 3.18221879
-46.90897369 -79.87749481 15.1860342
-11.67263317 -14.35686398 4.380185127
-9.186580658 -9.342496872 0.4360536337
-11.90405941 -14.28320694 0.722860992
-28.56849861 -44.52770615 1.78263855
-29.13321686 -45.94387436 3.6615839
-11.277421 -13.35672188 2.448071957
-11.88183212 -14.51876926 3.17510438
-11.72767639 -14.33110619 4.383776665
-9.229053497 -9.334945679 0.4371708333
-11.93548489 -14.21548176 0.7266380787
-28.79864502 -44.56924057 1.793072939
-29.15546989 -45.59837723 3.656274796
-11.79390526 -14.32586288 4.391838551
-9.279229164 -9.336647987 0.4377093017
-12.00575447 -14.21743107 0.7286818624
-29.06264877 -44.66901779 1.804452658
-29.02410698 -44.98098373 3.635798216
-11.69613266 -13.92899513 3.109019756
-11.49391556 -13.60787582 3.652735233
-49.79238892 -83.37840271 19.37231445
-9.327694893 -9.339138031 0.4381556213
-12.10148048 -14.25758076 0.7298953533
-29.32367516 -44.76056671 1.815771461
-29.38130379 -45.24318695 3.663897753
-48.89612961 -80.27948761 8.866520882
-11.74651051 -13.89155197 3.110976934
-11.61453342 -13.70557022 3.677698374
-50.21748734 -83.45018005 19.43958855
-9.377251625 -9.343140602 0.4384945035
-12.21779251 -14.3386631 0.7300183177
-29.52630997 -44.72813034 1.825688601
-29.26673698 -44.64690399 3.644936562
-29.66527748 -45.48958206 5.556442738
-12.23498154 -14.63966274 3.219766378
-11.80711365 -13.92354202 3.724514961
-50.65451431 -83.50475311 19.5062027
-11.95584393 -14.28956699 5.042335033
-9.421901703 -9.338281631 0.4393955171
-12.29282475 -14.34636211 0.7319326997
-29.74895477 -44.74797058 1.835962892
-51.83567429 -84.10101318 9.29780674
-51.52388763 -83.83981323 12.69824028
-11.8548727 -13.88711071 3.726052046
-9.469612122 -9.33840847 0.4399642646
-12.41524315 -14.43497562 0.7319039106
-30.00017548 -44.81522751 1.847052217
-29.51993942 -44.3543663 3.655608416
-30.06147003 -45.43228531 5.586077213
-51.91168976 -83.83176422 12.73626614
-11.91813755 -13.87799549 3.732475042
-51.50998306 -83.63835144 19.64100456
-9.526500702 -9.353821754 0.4395382404
-12.59196854 -14.61435318 0.7297305465
-30.31875801 -44.99526596 1.860066772
-29.93597794 -44.7088089 3.689336777
-30.24078941 -45.36962128 5.597711563
-52.3555336 -83.91840363 12.78759289
-11.9597826 -13.83091736 3.732161283
-51.88855362 -83.6135025 19.6889801
-9.570331573 -9.346630096 0.4405581653
-12.67547703 -14.63257027 0.7314282656
-30.67344284 -45.23218918 1.874146223
-29.87309074 -44.2364502 3.676156759
-30.50429153 -45.45090103 5.623454571
-52.77867126 -83.9651413 12.83375645
-11.99724865 -13.77688217 3.730608702
-9.629547119 -9.364972115 0.439925164
-12.7939949 -14.7088089 0.7317589521
-31.07502747 -45.54285812 1.889614582
-29.99379349 -44.08179092 3.680988312
-32.36124802 -48.24263382 5.914932251
-53.20671463 -84.01683044 12.88091278
-52.98220444 -83.88204956 16.34303284
-52.78722 -83.80004883 19.83832169
-9.681744576 -9.371054649 0.4400710464
-12.86891842 -14.71068382 0.7338523865
-31.54891586 -45.96797562 1.907221079
-30.86020851 -45.18414688 3.758302689
-32.67861938 -48.38774872 5.948352814
-53.61558533 -84.03231812 12.9233551
-53.42393494 -83.95477295 16.40363693
-53.23141479 -83.87830353 19.91044998
-9.727854729 -9.366649628 0.4408808053
-12.95948124 -14.73789024 0.7353526354
-31.80300903 -46.02045822 1.918548703
-31.01657867 -45.08114243 3.766460419
-53.59903717 -83.05522919 9.391442299
-53.67592621 -83.45889282 12.88381767
-53.88493729 -84.05604553 16.46983147
-53.62685394 -83.86986542 19.96382523
-9.776091576 -9.36545372 0.4414734244
-13.04827499 -14.7612381 0.7369474769
-32.45669556 -46.72792053 1.941501498
-30.80942726 -44.3755188 3.739495754
-53.70445251 -82.56772614 9.376205444
-53.74110031 -82.89970398 12.84600735
-54.29039001 -84.06015015 16.51884651
-54.07313538 -83.94404602 20.0360527
-9.839056969 -9.387851715 0.4405429363
-13.14048481 -14.78926659 0.738438189
-32.63298416 -46.64358521 1.950639486
-32.88466644 -47.43376923 3.93275547
-53.80303192 -82.0736618 9.360138893
-53.81121445 -82.35472107 12.80992794
-54.7557373 -84.1605835 16.58576965
-54.52051926 -84.0161438 20.10833168
-9.894883156 -9.398056984 0.4403850138
-13.20667076 -14.77434731 0.7409171462
-32.80063629 -46.54499435 1.959515333
-33.09474182 -47.39863586 3.945733786
-53.82393646 -81.45754242 9.331678391
-53.9049263 -81.85441589 12.77989292
-55.19364166 -84.21149445 16.64411545
-54.95482254 -84.06258392 20.17538834
-9.930718422 -9.375839233 0.4422923625
-13.33535004 -14.85923767 0.7411173582
-32.97426605 -46.45600891 1.96855545
-33.37839508 -47.48157883 3.965760708
-53.90389633 -80.94406891 9.313233376
-53.98130417 -81.33075714 12.74634743
-55.65733719 -84.30079651 16.70992279
-55.41866302 -84.1539917 20.25305367
-9.982466698 -9.378829956 0.4425747693
-13.42746639 -14.88417816 0.7426947951
-33.40480804 -46.77634048 1.985191345
-33.32099533 -47.01369476 3.953115463
-54.06286621 -80.56311798 9.3079319
-54.02745438 -80.76371002 12.7063942
-56.07249069 -84.30715942 16.7609539
-10.02788544 -9.371469498 0.4435080588
-13.51560116 -14.90190792 0.7444390655
-33.62421417 -46.75617599 1.99560678
-33.30530167 -46.61787033 3.944568634
-54.06755066 -79.93884277 9.277901649
-54.09132767 -80.23104858 12.67106628
-56.53420258 -84.38549042 16.82562637
-10.07655716 -9.36896801 0.4441195428
-13.57168865 -14.86865616 0.7473258972
-33.88467026 -46.79914856 2.007249594
-54.09833527 -79.36269379 9.252465248
-54.17534637 -79.73591614 12.64086151
-10.12637806 -9.36792469 0.444626689
-13.64497375 -14.86211395 0.749607265
-34.11124802 -46.78701782 2.017889261
-33.76250458 -46.60663223 3.974168777
-54.19192886 -78.89162445 9.237476349
-54.26712418 -79.25801086 12.61290646
-13.87253475 -15.62157917 5.573052883
-10.17408752 -9.363312721 0.4453502893
-13.71833611 -14.85525227 0.751891613
-34.50100327 -47.02575684 2.033444643
-33.81786728 -46.3288765 3.972530127
-54.2506752 -78.37052917 9.217185974
-54.33483887 -78.74700165 12.57997799
-7.524344444 -5.439995766 2.549488306
-13.91969013 -15.5679884 5.571638107
-10.22622967 -9.36517334 0.4456499219
-13.82349682 -14.89661217 0.7531127334
-35.26626587 -47.83527756 2.060396433
-33.8998642 -46.09490967 3.973470449
-54.32585144 -77.88014221 9.199829102
-54.39531326 -78.22982025 12.54592228
-13.94355106 -15.47810364 5.560362816
-10.28616238 -9.378464699 0.4452103376
-13.92577744 -14.93241501 0.7544643283
-36.03108215 -48.64906311 2.087271214
-34.35364151 -46.43319321 4.00951767
-54.35850143 -77.35910034 9.177453995
-54.4787674 -77.75317383 12.51750851
-7.553551197 -5.390491009 2.546837807
-14.03856468 -15.49977493 5.579517365
-10.33520603 -9.374834061 0.4458378553
-13.9814558 -14.90286922 0.7571341395
-36.24329758 -48.59524155 2.0976336
-34.55847931 -46.40369797 4.022367001
-54.57426834 -77.09311676 9.182932854
-54.54649353 -77.25697327 12.48603916
-13.82075119 -14.99348831 4.766926289
-14.10980892 -15.49014473 5.589569092
-10.39252758 -9.387108803 0.4454229474
-14.03646755 -14.86630726 0.7600519061
-36.57090378 -48.71356964 2.111522913
-54.93247986 -76.84152985 5.928271294
-54.84043121 -76.90473938 9.19647789
-54.72653198 -76.96604919 12.4822998
-13.80839634 -14.85320187 4.745907307
-8.271742821 -6.414981842 3.109717369
-10.4439764 -9.386325836 0.4458475113
-14.14941502 -14.91581726 0.7611128688
-37.0491066 -49.05267334 2.130058765
-55.21427917 -76.67746735 5.943664551
-55.10697556 -76.7171402 9.210151672
-54.98900604 -76.7715683 12.49474144
-7.731773853 -5.500540733 2.31120038
-7.656990051 -5.404289722 2.563637257
-8.323998451 -6.438632011 3.122288704
-10.50065994 -9.389051437 0.4460551143
-14.27571201 -14.9777441 0.7620273829
-37.39113235 -49.1836586 2.144456148
-55.49110794 -76.50574493 5.95860815
-55.37065125 -76.52528381 9.223438263
-55.24193573 -76.56301117 12.50519371
-7.671347618 -5.378034592 2.56213522
-8.378843307 -6.462755203 3.13538909
-10.54954815 -9.379970551 0.4470003247
-14.38342476 -15.01088619 0.7635663152
-55.73376846 -76.25444794 5.969843388
-55.64371109 -76.31843567 9.236870766
-55.51634979 -76.35765076 12.51825523
-7.759809017 -5.44341898 2.308620214
-7.760965824 -5.461932659 2.586604357
-8.410113335 -6.450920105 3.138613939
-10.60349178 -9.381756783 0.4472256899
-14.49553204 -15.0552597 0.7647685409
-56.00005722 -76.03870392 5.983314991
-55.89917374 -76.08589172 9.247641563
-55.80332565 -76.17102051 12.53419209
-13.37042046 -13.68213367 3.888157845
-8.178608894 -6.030151367 2.724794149
-8.404178619 -6.386480808 3.126928568
-10.66666031 -9.396404266 0.4466232955
-14.62976456 -15.13024426 0.7653421164
-56.26571274 -75.85100555 5.997288704
-56.14247131 -75.86507416 9.257991791
-56.03595352 -75.93359375 12.54059696
-8.243613243 -6.07354641 2.740198612
-8.432852745 -6.373788834 3.129622459
-10.71624565 -9.391119957 0.4472740889
-14.70733452 -15.12255859 0.7676481605
-56.53521347 -75.66897583 6.011640072
-56.41209793 -75.68281555 9.272489548
-56.30806351 -75.75435638 12.55573368
-13.26941967 -13.3172245 3.83680582
-8.451033592 -6.32384634 2.804530144
-8.472496033 -6.377071857 3.136818171
-10.75782394 -9.374189377 0.448651284
-15.22040462 -15.73241138 0.7572236657
-56.76984024 -75.43684387 6.022786617
-56.67878342 -75.49636841 9.286595345
-14.94170761 -15.58456993 3.572624683
-13.31444931 -13.27606487 3.83817029
-8.299957275 -6.050982475 2.745442867
-13.64267445 -13.83206749 5.236251354
-10.81326389 -9.376626015 0.4487883449
-15.4380455 -15.91655159 0.7556767464
-57.04483795 -75.26281738 6.037688255
-56.93795776 -75.29920197 9.299609184
-15.02415466 -15.57989502 3.58104825
-13.36835861 -13.2477169 3.842037678
-13.65736961 -13.74298573 5.224085331
-10.87346649 -9.385288239 0.4485190213
-15.54542923 -15.94322872 0.7573798895
-57.30077744 -75.06175232 6.050853729
-57.21138382 -75.12226105 9.314865112
-15.15357304 -15.6413784 3.599529028
-13.55051422 -13.40178108 3.881413221
-13.73406887 -13.74342823 5.237159729
-10.92797184 -9.385560989 0.4487695098
-15.60756493 -15.90607738 0.7603783607
-57.54672623 -74.84679413 6.063123703
-57.45647049 -74.90542603 9.325855255
-15.12617874 -15.48039532 3.584406376
-13.63457203 -13.41448593 3.893482208
-7.935358524 -5.380539894 2.601325512
-13.86810589 -13.82475567 5.273266315
-10.98726368 -9.39204216 0.4486147165
-15.69893551 -15.90916824 0.7625564933
-57.82672501 -74.67974854 6.078543663
-57.71931839 -74.71368408 9.33962059
-15.31713867 -15.62658787 3.615930319
-8.139307976 -5.620652199 2.663853645
-13.87207985 -13.72097588 5.257000446
-15.07095718 -15.49749279 7.25623703
-11.02662277 -9.370843887 0.4501993358
-15.77986717 -15.89728355 0.7650325894
-58.0664711 -74.45661163 6.090292931
-57.98495102 -74.52590179 9.353872299
-15.38862705 -15.60413551 3.621922016
-9.110360146 -6.907662868 2.634264708
-8.013375282 -5.396746159 2.61514926
-8.312197685 -5.833240032 3.020482779
-15.15470791 -15.49326992 7.273337364
-11.07421875 -9.360750198 0.4510681629
-15.85612106 -15.87859917 0.7676385045
-58.33592606 -74.27467346 6.104782581
-58.25115204 -74.33876038 9.368263245
-15.3924942 -15.4882164 3.613621473
-7.970210552 -5.275176525 2.317707777
-8.023819923 -5.364773273 2.612464905
-8.260533333 -5.711707115 2.991863489
-15.33209896 -15.61921215 7.339759827
-11.13614845 -9.369678497 0.4507217705
-15.92285442 -15.84674358 0.7704964876
-58.57873154 -74.05640411 6.116862774
-58.51317978 -74.14585876 9.382081985
-9.467757225 -7.263476849 2.356835604
-7.694991112 -4.852423668 2.238322973
-8.219521523 -5.606399059 2.967729092
-8.436542511 -5.923075676 3.36924386
-15.34493637 -15.51465034 7.319300175
-11.19583607 -9.375102043 0.45058465
-16.00029755 -15.82903957 0.7730680108
-58.83972549 -73.86299133 6.130622387
-14.65571499 -14.20695305 2.774303198
-9.497368813 -7.243980408 2.358581543
-7.693980217 -4.80890131 2.233690023
-8.503631592 -5.927726269 2.759429932
-8.159438133 -5.476305485 2.93631053
-8.484212875 -5.938158989 3.381431103
-15.3763113 -15.43649101 7.308800697
-11.24602318 -9.367480278 0.4512594044
-16.06813622 -15.79821777 0.7758872509
-59.54296494 -73.73334503 2.909330845
-31.66765785 -36.87747192 3.655525208
-14.66314602 -14.10691547 2.77031517
-7.731490612 -4.817839146 2.239483118
-8.569382668 -5.966765881 2.774544716
-8.239400864 -5.538105488 2.960143805
-14.47495747 -14.04645538 6.102427959
-15.42536259 -15.3829937 7.307685375
-11.29504871 -9.358039856 0.4520360827
-16.13349915 -15.76394272 0.7787632942
-41.24304581 -48.99966049 2.322071791
-14.71181774 -14.06281471 2.77253294
-9.590849876 -7.250774384 2.369240522
-7.759669781 -4.813919067 2.242748737
-8.675289154 -6.058963776 2.802778244
-8.350018501 -5.640099049 2.995794535
-14.56035805 -14.05215645 6.120286942
-15.44353008 -15.28783321 7.290673256
-11.35259438 -9.359489441 0.4521120191
-16.21334457 -15.74847698 0.7812685966
-32.29667282 -37.1633606 3.702463627
-14.68832016 -13.92315197 2.764031649
-15.47948265 -15.01442623 3.587686539
-7.840052128 -4.879346371 2.259959936
-7.980612278 -5.080907822 2.568440676
-8.372811317 -5.622786045 2.996994257
-14.52363491 -13.89332867 6.082874298
-14.48172665 -13.87494755 6.768090725
-11.41268349 -9.363825798 0.4519927502
-16.31029701 -15.75485611 0.7833527327
-44.12431717 -52.40917587 4.764348507
-14.73511887 -13.87739754 2.766033173
-8.917326927 -6.244577885 2.221106291
-7.819681644 -4.810413837 2.250234127
-7.989628315 -5.049305916 2.565677881
-8.399056435 -5.610061169 2.999552727
-8.323012352 -5.524990082 3.271117687
-15.45658207 -15.06866932 7.245378971
-11.46677589 -9.359975815 0.452377528
-16.36704063 -15.70858479 0.7864313722
-14.86287403 -13.93746185 2.780020952
-7.928134918 -4.911327362 2.274775743
-8.016296387 -5.041147709 2.56869936
-7.966395378 -4.991902828 2.824893951
-8.339585304 -5.50001812 3.269685268
-15.45701027 -14.95245838 7.220031261
-11.52093315 -9.355877876 0.4527648389
-16.42483902 -15.66370392 0.7894698381
-31.70133209 -35.57582474 3.634193659
-14.9327879 -13.92110443 2.785427809
-7.933949947 -4.876834869 2.272026539
-8.051310539 -5.043782711 2.57442522
-7.98456192 -4.972870827 2.825063705
-8.674240112 -5.892743587 3.410323381
-11.56774712 -9.342107773 0.4537490308
-16.52697372 -15.67521667 0.7914452553
-32.4491806 -36.27405548 3.696554661
-14.94161987 -13.82579041 2.781852245
-8.218699455 -5.189266205 2.066651344
-7.962525845 -4.8720541 2.275310516
-8.038464546 -4.984090805 2.564684153
-7.969403744 -4.910558701 2.812490225
-8.364160538 -5.439247131 3.263142347
-8.16015625 -5.188610554 3.465659618
-11.62200451 -9.337528229 0.4541399479
-16.65044594 -15.71287537 0.7929393053
-14.90942287 -13.67882729 2.772310495
-8.24356842 -5.177289963 2.068513155
-8.009324074 -4.890509129 2.283370733
-8.241948128 -5.203477383 2.624592543
-7.996810436 -4.903849125 2.816285372
-8.408683777 -5.450855732 3.274237633
-8.217555046 -5.218786716 3.485062122
-11.67383862 -9.329569817 0.4547305703
-16.7294426 -15.69359303 0.7954861522
-15.02061272 -13.71529865 2.783807278
-8.334639549 -5.249452114 2.083850622
-8.030714035 -4.876079559 2.284748554
-8.263214111 -5.186615467 2.625709057
-8.100907326 -4.99527216 2.849234104
-8.433193207 -5.436331749 3.276446342
-8.173243523 -5.117330074 3.453130484
-11.73824024 -9.336936951 0.4543409348
-16.83101845 -15.70201778 0.797522366
-63.47906494 -73.96126556 3.084631443
-15.09503174 -13.70437145 2.789907694
-8.305551529 -5.168590546 2.074730158
-8.163440704 -5.002553463 2.315146446
-8.449611664 -5.379244804 2.679537773
-8.575169563 -5.556031227 3.022152662
-8.450514793 -5.412599087 3.275511503
-8.176560402 -5.077971458 3.445374012
-11.79146099 -9.330020905 0.4548387527
-16.93657494 -15.71460247 0.7994837761
-63.5764122 -73.54907227 3.092884064
-32.56259155 -35.3631134 3.687813044
-15.17076683 -13.69465065 2.796191216
-8.371228218 -5.207463741 2.084844351
-8.238097191 -5.054001808 2.330270767
-8.511744499 -5.412360191 2.693485737
-8.045229912 -4.84024477 2.814899683
-8.137087822 -4.984638214 3.416338682
-11.8321104 -9.307374001 0.4563148022
-17.01965714 -15.69873905 0.8019585013
-63.62111282 -73.07511139 3.099337101
-9.397019386 -6.421768188 1.954679012
-8.411139488 -5.213459492 2.089716196
-8.142763138 -4.892406464 2.301324844
-8.099964142 -4.852121353 2.557223558
-8.078583717 -4.840784073 2.820968151
-8.525697708 -5.416362762 3.291439772
-8.146909714 -4.95452261 3.412094831
-11.88842964 -9.300092697 0.4568093717
-17.06727982 -15.63920593 0.8052062988
-8.307623863 -5.041858673 2.065760374
-8.156741142 -4.868274212 2.300783396
-8.073236465 -4.777711391 2.543512106
-8.607106209 -5.457470417 3.012438297
-7.687114239 -4.324556351 2.918772459
-8.125562668 -4.885610104 3.392468691
-11.94940567 -9.301687241 0.4567281604
-17.15827942 -15.62650394 0.8077167869
-27.65596008 -28.40226173 1.907230139
-33.79289246 -36.0970993 3.7831285
-9.459280014 -6.394030571 1.958981872
-8.266662598 -4.947134018 2.054347992
-8.17309761 -4.847178936 2.300875664
-8.100435257 -4.770597935 2.54688096
-8.227336884 -4.940420151 2.863324165
-7.73897171 -4.349367619 2.93393755
-8.19605732 -4.931505203 3.418371201
-12.00537109 -9.296848297 0.4570387304
-17.2413826 -15.60959625 0.8101883531
-27.48708534 -27.98125648 1.903590918
-9.456830978 -6.336632252 1.956193447
-8.220293045 -4.849026203 2.042095423
-8.171595573 -4.802307129 2.296209812
-8.016882896 -4.625840187 2.515288353
-7.917969227 -4.51913166 2.741856098
-7.749959469 -4.325222969 2.931746244
-8.199346542 -4.891553402 3.410610676
-12.0601244 -9.290210724 0.4574486017
-17.33994102 -15.61070824 0.8123400807
-27.45162582 -27.7347393 1.904284716
-15.12719822 -13.12500191 2.766736746
-8.28836441 -4.890459061 2.052703142
-8.195225716 -4.790327072 2.298211098
-8.053591728 -4.630990505 2.521746159
-7.73882103 -4.274193287 2.920096159
-8.21953392 -4.874691486 3.41166687
-12.1084795 -9.275693893 0.4583412707
-17.43222237 -15.60368919 0.8146315217
-27.46368599 -27.54695129 1.906548619
-9.51098156 -6.29918766 1.959373951
-8.281863213 -4.841535091 2.048469067
-8.01317215 -4.530774593 2.247901917
-8.062843323 -4.602730751 2.519637346
-7.915976048 -4.439556122 2.729180813
-7.796154499 -4.306666374 2.937852144
-8.301579475 -4.932975292 3.442931652
-12.15683937 -9.260956764 0.4592333436
-17.5064888 -15.57489872 0.8172937632
-27.49802589 -27.38685989 1.909543037
-56.070961 -61.48399353 5.724245071
-9.548868179 -6.293269157 1.962512493
-8.290381432 -4.810969353 2.047245264
-8.028288841 -4.5102458 2.247927427
-8.049322128 -4.547371387 2.510503292
-7.907170296 -4.390904903 2.720076799
-8.296309471 -4.884871006 3.431548834
-12.21820545 -9.261174202 0.4591681063
-17.58072853 -15.54578114 0.8199532032
-27.51594162 -27.20864677 1.911964059
-9.570051193 -6.267417431 1.963272095
-8.431904793 -4.938034534 2.072263241
-8.034409523 -4.479115963 2.245697498
-8.084713936 -4.550724506 2.516566753
-7.960639954 -4.416958809 2.733872652
-8.901248932 -5.55283165 3.393634319
-8.22832489 -4.762104988 3.389911175
-12.2679224 -9.2474823 0.4599656165
-17.67452621 -15.53906631 0.8222257495
-27.50553322 -26.998806 1.913405776
-9.620855331 -6.276353359 1.968242288
-8.337813377 -4.786137581 2.050836563
-8.044204712 -4.452522278 2.244424105
-8.153148651 -4.592808247 2.532784224
-8.019373894 -4.448644161 2.749514818
-8.83792305 -5.431731701 3.358500242
-8.264046669 -4.764146805 3.398653746
-12.32289886 -9.239590645 0.4603827894
-17.67796898 -15.42771339 0.8262497187
-27.54279518 -26.85555458 1.916354179
-35.68034744 -36.48505783 3.916615486
-9.584911346 -6.186385155 1.961036563
-8.339543343 -4.747964382 2.048329115
-8.070541382 -4.44543457 2.247329473
-8.173876762 -4.580090523 2.534514666
-8.031699181 -4.425130844 2.748193502
-8.846254349 -5.396469116 3.353860855
-8.308726311 -4.778523445 3.412095547
-12.37002182 -9.222428322 0.4613701701
-17.77142906 -15.42590332 0.8283142447
-27.62492752 -26.75486183 1.920901775
-35.32800293 -35.82852936 3.881471634
-9.61088562 -6.166474342 1.962507963
-8.351436615 -4.721865654 2.047836304
-8.025132179 -4.356757641 2.232461214
-8.132901192 -4.493557453 2.517137051
-8.042996407 -4.402400017 2.746817827
-8.873373032 -5.385647774 3.357582331
-8.316123962 -4.746752739 3.4071908
-12.4219799 -9.214097977 0.4617913961
-17.86788368 -15.42114639 0.8305336833
-27.6340847 -26.57130432 1.92295146
-40.35033417 -41.32518387 4.315182686
-9.600176811 -6.104416847 1.958819628
-8.31538868 -4.642697334 2.038159847
-8.064130783 -4.364595413 2.238576889
-8.092658997 -4.408871651 2.500121355
-8.023324013 -4.342001438 2.734000206
-8.939332962 -5.417619705 3.377169609
-8.305942535 -4.694715023 3.393961906
-12.47707081 -9.205467224 0.4622118771
-17.9273262 -15.37402153 0.8334447145
-27.65815735 -26.40599442 1.925490618
-9.579918861 -6.032040119 1.953821301
-8.354284286 -4.648095131 2.042972326
-8.030542374 -4.288961411 2.226620436
-8.251589775 -4.553746223 2.543756247
-8.122029305 -4.418444157 2.763909817
-8.692139626 -5.087716103 3.266009808
-8.427900314 -4.795909405 3.443706274
-12.54020119 -9.205508232 0.462069869
-17.98661995 -15.32667065 0.8363466859
-26.13576126 -24.5061264 1.875059724
-37.07344818 -37.03210831 4.019956112
-8.583631516 -4.855389595 1.812134624
-8.386720657 -4.645842552 2.046519518
-8.065555573 -4.292192459 2.231761932
-8.305515289 -4.576673985 2.555323124
-8.161067963 -4.425416946 2.772233725
-9.040408134 -5.444049835 3.403199911
-8.523026466 -4.864625931 3.480411291
-12.58605194 -9.185940742 0.4631507397
-18.05243874 -15.28654766 0.8391188979
-26.08664703 -24.27363014 1.874945045
-38.66689682 -38.55387497 4.153735638
-8.387598038 -4.607821465 2.043965101
-8.105885506 -4.301146984 2.238200903
-8.333683968 -4.569897652 2.559060812
-9.090545654 -5.456122875 3.415962458
-8.449917793 -4.740414143 3.437444687
-12.63362885 -9.164590836 0.4643204808
-18.39618111 -15.54748058 0.8371753097
-26.09013748 -24.09275627 1.876689553
-29.03284454 -27.53471375 3.313531637
-8.576797485 -4.765247345 1.807601452
-8.410381317 -4.592662334 2.045522451
-8.09599781 -4.251625061 2.232070923
-8.400635719 -4.604607105 2.574224472
-8.582878113 -4.823523045 2.910965681
-8.648117065 -4.909626484 3.22495532
-8.251753807 -4.474312782 3.335576534
-12.68886089 -9.154940605 0.4647445381
-16.64217949 -13.50961685 0.8716260791
-26.08829308 -23.91612625 1.878154159
-29.06485558 -27.3710804 3.312885284
-8.611198425 -4.763641834 1.810668349
-8.469325066 -4.619559288 2.054162979
-8.124493599 -4.247098923 2.235595465
-8.44468689 -4.614948273 2.582680702
-8.56389904 -4.761899948 2.898181677
-8.64909935 -4.869647026 3.21808362
-8.360638618 -4.55852747 3.37881732
-12.7441349 -9.145025253 0.4651698172
-16.65173721 -13.41957855 0.8749275804
-26.15843582 -23.81941223 1.882084131
-29.08259583 -27.19281006 3.311031342
-8.566628456 -4.674920082 1.802776575
-8.595136642 -4.719586849 2.075572014
-8.188764572 -4.28194952 2.247873545
-8.463899612 -4.597391605 2.583679676
-8.562785149 -4.720731258 2.891831636
-8.666629791 -4.848383427 3.218071699
-8.391139984 -4.553901672 3.385166645
-12.80080414 -9.136318207 0.4655033648
-16.69612503 -13.36782837 0.8776080012
-16.73359108 -13.43656158 1.557647228
-29.12234688 -27.03977776 3.311106205
-8.555116653 -4.623304367 1.799506545
-8.64680481 -4.736763 2.082718134
-8.492598534 -4.578978539 2.318564177
-8.468536377 -4.563811302 2.580350876
-8.554912567 -4.672432899 2.883163452
-8.675011635 -4.817060471 3.214353085
-8.420387268 -4.547712803 3.390921116
-12.86199665 -9.128634453 0.4657446444
-16.75530624 -13.33204174 0.8800280094
-16.7494545 -13.35364723 1.559059381
-16.72351074 -13.41876698 2.239418745
-10.1411829 -6.305491924 2.016804934
-8.647636414 -4.69815588 2.08015871
-8.22213459 -4.24578619 2.249096632
-8.496842384 -4.556295395 2.584093094
-8.575639725 -4.655872345 2.884633303
-8.698835373 -4.802853584 3.216975451
-8.414967537 -4.503254414 3.380581617
-12.90783405 -9.107711792 0.4668190479
-16.84423828 -13.32286549 0.8821233511
-16.82228088 -13.3321104 1.562440395
-16.73800087 -13.3343544 2.238965034
-9.789675713 -5.876385689 1.96624136
-8.665406227 -4.67617178 2.080709457
-8.285595894 -4.278348923 2.261075735
-8.441398621 -4.457841396 2.563037634
-8.613097191 -4.655509472 2.891691446
-8.723613739 -4.787620068 3.219646692
-8.415748596 -4.465939045 3.373210907
-12.95638371 -9.089491844 0.4677070975
-19.44968796 -15.98161221 0.8436029553
-25.78085899 -22.72843742 1.87489593
-16.79820633 -13.29432774 2.242367983
-9.803563118 -5.841512203 1.96603179
-8.695649147 -4.669546604 2.08376646
-8.330079079 -4.288007736 2.268237591
-8.335538864 -4.30439043 2.527029753
-8.684041977 -4.692965984 2.910715103
-9.259399414 -5.326801777 3.429352999
-8.484583855 -4.500757217 3.396900177
-13.01869488 -9.085524559 0.4676771462
-19.69176674 -16.11866951 0.8437473774
-25.81903648 -22.60408974 1.877624869
-25.78758812 -22.7234993 3.011782885
-9.810653687 -5.801935196 1.965003848
-8.679733276 -4.61362505 2.078104734
-8.333302498 -4.255077839 2.265594244
-8.37375927 -4.308707237 2.533881664
-9.087865829 -5.098803043 3.352583408
-8.503410339 -4.482903957 3.397876263
-13.07003593 -9.069706917 0.4683818221
-19.88517761 -16.20226288 0.844725132
-25.82351685 -22.45332146 1.879096389
-25.82167816 -22.59465218 3.011922598
-9.943776131 -5.897901058 1.981328726
-8.320098877 -4.204973698 2.259032488
-9.43729496 -5.415877819 3.160659075
-8.714271545 -4.658320904 3.195152044
-8.663397789 -4.617799282 3.463883162
-13.13248444 -9.065148354 0.4683571458
-19.98196602 -16.18971634 0.8470352888
-25.83129883 -22.29887581 1.880736709
-25.84830856 -22.46688461 3.011580706
-9.347370148 -5.225651264 1.897939086
-8.69480896 -4.552593231 2.075722694
-8.309797287 -4.160171032 2.253387451
-8.496798515 -4.367377758 2.561364174
-9.534430504 -5.476360321 3.18812108
-8.735323906 -4.6434412 3.197165966
-8.666918755 -4.582644939 3.45771122
-13.18910599 -9.057658195 0.468518585
-20.09716034 -16.18959999 0.8492718935
-25.86470795 -22.17194748 1.8832587
-25.86039352 -22.3165741 3.009877682
-9.368696213 -5.205077171 1.899043441
-8.682641983 -4.50369215 2.070997715
-8.342431068 -4.158830643 2.257888794
-8.297095299 -4.121401787 2.498735189
-9.58215332 -5.4816432 3.198069334
-8.786536217 -4.658288479 3.210901499
-8.665007591 -4.541994095 3.44913888
-13.26289368 -9.063912392 0.4677753448
-20.13703728 -16.11168671 0.8526391387
-25.88354683 -22.03074646 1.885257244
-25.8772583 -22.1722126 3.008606195
-8.713856697 -4.4982481 2.074288845
-8.355941772 -4.137434959 2.257821083
-8.261573792 -4.04927969 2.484229326
-9.600347519 -5.455785751 3.197829962
-8.813907623 -4.647776127 3.215089083
-9.075640678 -4.93326664 3.627679586
-13.33403778 -9.066924095 0.4672202468
