# .PCD v0.7 - Point Cloud Data file format
VERSION 0.7
FIELDS x y z
SIZE 4 4 4
TYPE F F F
COUNT 1 1 1
WIDTH 1334
HEIGHT 1
VIEWPOINT 0 0 0 1 0 0 0
POINTS 1334
DATA ascii
9.765101433 17.31233025 5.900896549
1.921523571 7.729963779 0.9212075472
1.960431337 7.753871441 1.225867748
2.865263224 8.834197998 1.95743227
3.000094652 8.972553253 2.338755846
3.929006577 10.06126595 3.352363348
9.819689751 17.26391029 5.897015095
1.761803746 7.477220535 0.631264925
1.990247607 7.767218113 0.9184737206
2.220834732 8.032171249 1.230084538
2.993066788 8.936145782 1.969400644
3.033022881 8.958930969 2.338541508
4.067835808 10.20116043 2.957487583
4.054057598 10.1498785 3.378807068
9.856427193 17.19948769 5.887975693
1.779689431 7.452530384 0.6305097342
2.00418067 7.738065243 0.9175733328
2.253195286 8.021548271 1.228951573
2.2192204 7.95387125 1.544853926
3.046037197 8.947232246 1.971523881
2.976904154 8.833282471 2.321205378
4.491831779 10.65649891 3.051927328
4.226845741 10.2982378 3.419909239
9.954048157 17.20341301 5.899619102
1.729518414 7.34406662 0.6357923746
1.978871346 7.658227921 0.9179571271
2.277978897 8.001479149 1.227652192
2.269063711 7.967477798 1.545680881
3.090450764 8.944581032 1.972229242
2.985577106 8.787889481 2.316210985
4.515695095 10.61676884 3.047703743
4.325925827 10.35190678 3.438035965
10.34107208 17.55486488 6.013930798
1.738051891 7.308702469 0.635848701
2.103565931 7.762964249 0.9133544564
2.331844807 8.016899109 1.226991892
2.893699169 8.677309036 1.590417385
3.141266584 8.949404716 1.973766446
3.089009047 8.857253075 2.328948021
4.435808659 10.45232105 3.018452883
4.385210037 10.35671806 3.444168806
10.3188448 17.41175079 5.982590675
1.834123492 7.403279305 0.3322750032
1.701984048 7.219400883 0.6398442984
2.201113462 7.832933426 0.9096436501
2.44062233 8.09835434 1.227497578
2.885086536 8.611989975 1.586283326
3.329758167 9.119527817 1.99329102
3.112868786 8.829904556 2.32679081
13.70449829 21.38880348 6.189692497
10.36115646 17.34654045 5.974280357
2.663256407 8.334089279 0.5557495952
2.1857059 7.765244961 0.9097034931
2.381306887 7.976126194 1.224401474
2.791664362 8.445561409 1.575784564
2.996374369 8.663281441 1.944726229
3.13278389 8.797922134 2.323932886
4.461389542 10.34914875 3.005226135
10.73721981 17.73646736 5.291428089
10.26937962 17.12359238 5.919160366
1.904820442 7.396262646 0.3262611926
1.885573626 7.352355957 0.6251934171
2.37610054 7.944967747 0.9028671384
7.201870918 13.68967533 1.323250294
2.626503229 8.195736885 1.560037613
3.055488586 8.678858757 1.947463989
3.152469397 8.768561363 2.321390152
4.498083115 10.32623482 3.00442028
10.80556583 17.70497513 5.292251587
10.35843468 17.12033081 5.928719521
2.439257383 7.972906113 0.900308311
2.562027454 8.096136093 1.224713564
2.519069195 8.019887924 1.548963904
3.028330564 8.594953537 1.93932271
3.175894737 8.743693352 2.319559813
4.543345451 10.3165884 3.006138563
13.80821037 21.09738159 6.149075031
10.40182114 17.06342125 5.922388554
1.93206346 7.320949554 0.6226248741
2.589699268 8.08062458 1.223548293
2.506350517 7.957407475 1.545047164
3.038227797 8.555264473 1.936006904
3.214734316 8.7368536 2.320554018
4.598941326 10.31873608 3.010288
13.8296423 20.98138809 6.131241322
10.45136547 17.01376915 5.918275356
2.277320385 7.688193321 0.9049121141
6.804571629 12.96510792 1.306004882
2.491902351 7.891011715 1.54089427
3.123300791 8.603250504 1.942286491
19.591959 27.48159218 7.774028778
10.82531166 17.33065605 6.02464819
2.028887749 7.345842361 0.6156823039
2.295741081 7.661907673 0.9038540721
4.02039814 9.64648056 1.248250365
2.488909006 7.840967178 1.537779212
3.053548336 8.468779564 1.928678632
3.347258568 8.782972336 2.33207798
8.071203232 14.17439747 3.803241253
19.6856575 27.4037323 7.769575119
14.0337038 20.87786102 7.101407528
2.048715353 7.323417187 0.6147392988
2.22857976 7.515778065 1.211267233
2.522230148 7.830691814 1.537184238
3.007837534 8.366055489 1.918478131
3.692448378 9.122588158 2.387532234
7.99509573 13.9998064 3.773057222
14.04970074 20.8286972 6.125905037
13.85766697 20.54004288 7.014143944
4.613824368 10.22354317 0.3916147947
2.253378153 7.516139507 0.9044172168
2.30533433 7.555073261 1.211011529
2.556755781 7.819219589 1.536527157
3.139003515 8.458035469 1.929812193
10.81755638 17.09142303 4.411701202
16.26837921 23.10494995 7.803592205
4.655186176 10.20851231 0.3890891373
2.296326399 7.521089077 0.9025583267
2.435542345 7.65905571 1.21190393
2.706422806 7.943098545 1.544413567
3.156058073 8.427206993 1.927524567
9.359388351 15.39698124 3.378563643
10.83949375 17.00910378 4.401648045
13.67493057 20.13323021 5.973100662
15.31041622 21.88984871 7.451546192
2.889700413 8.142150879 0.5438778996
2.191306114 7.357818127 0.9057486057
2.612741709 7.81212759 1.213531971
2.656785011 7.840396404 1.538012505
3.162378311 8.384436607 1.923933268
9.168967247 15.08290577 3.333477974
11.43627548 17.56876564 4.523462772
14.1149807 20.48922539 6.075017452
16.43825531 22.99435616 7.802348614
2.897669077 8.100324631 0.544062674
2.35845089 7.500907898 0.8996294141
2.385415077 7.508540154 1.207679629
2.714204788 7.856227398 1.539105535
3.196393967 8.370236397 1.923558712
9.153196335 14.96673584 3.319490433
11.50747585 17.53195381 4.52346468
10.69526958 16.57684898 5.09089756
16.32739449 22.71953964 7.735549927
2.410737276 7.51320982 0.8974282146
2.582143545 7.684102535 1.209695816
2.610135317 7.69203043 1.528842568
3.241076231 8.36772728 1.924492478
9.113003731 14.82946396 3.301940441
11.5506773 17.46411896 4.517132759
10.72857761 16.50482178 5.082130432
15.28001308 21.43119049 7.3587327
2.423242331 7.483160973 0.8966113329
4.232697964 9.464935303 1.237369299
2.609619617 7.644126415 1.525929451
9.109247208 14.72860146 3.290351629
12.28993511 18.16324615 4.6690135
14.17304897 20.15500832 6.024960995
15.50603485 21.53475761 7.406340599
5.418271065 10.73122501 0.3285706341
4.301513195 9.480872154 1.236501336
3.077499866 8.112548828 1.555636644
3.461204529 8.507349014 1.94237864
9.149272919 14.67622089 3.286456823
11.61458492 17.31038857 4.500449657
10.65943146 16.22018623 5.028153419
14.32642365 20.12043953 6.989216328
4.830342293 10.01889038 0.3805252314
2.813443661 7.795730591 1.208791971
3.130969286 8.120571136 1.556284547
3.480909109 8.475874901 1.940189958
9.197176933 14.63247967 3.283965826
11.59768963 17.17854118 4.480923176
21.84406281 28.03741074 9.4366045
4.897229671 10.02786636 0.3758448362
2.840147495 7.776647091 1.207590938
3.222553253 8.169379234 1.559522271
3.484207153 8.426821709 1.936061263
9.261174202 14.60601139 3.284264326
11.69747066 17.17272377 4.487608433
14.24148464 19.83149719 5.978336334
13.85151196 19.35117149 6.783055305
2.480499029 7.363101006 0.8930439949
5.69999218 10.77917385 1.724720597
3.510385513 8.402597427 1.934701324
9.29660511 14.54883766 3.279705763
11.73914146 17.10447502 4.481363773
11.57683563 16.8770256 5.22743082
13.88611126 19.26051521 6.770097256
2.511170626 7.350954056 0.891592443
2.772025108 7.610710621 1.203282475
3.531078815 8.375144958 1.932928801
4.26255846 9.12504673 2.416175127
11.75324345 17.01291084 4.469876289
11.67020798 16.8705349 5.235764027
20.62407303 26.2093029 8.935848236
2.312053204 7.111494541 0.3016808927
4.343976021 9.257910728 0.4264197648
2.525907516 7.326196194 0.8907336593
2.884653807 7.686058044 1.203598857
3.494487524 8.31201458 1.569059491
3.817560911 8.628458977 1.962502599
3.519459248 8.291314125 2.285041094
11.73143768 16.88421249 4.450610161
11.56264973 16.65333557 5.189506531
15.95337486 21.18255806 7.394767761
2.332598448 7.092069626 0.3006153703
4.453979015 9.316002846 0.4179731905
2.544407845 7.303263664 0.889727056
2.927713871 7.686680317 1.202764988
3.585030794 8.358430862 1.572190762
3.803212643 8.5625 1.95650053
11.9115324 16.96702576 4.475756168
11.60785198 16.59705162 5.184965611
16.27332687 21.37417412 7.47149992
4.912716389 9.739317894 0.3796848655
2.579089642 7.295159817 0.8881396055
2.890595198 7.600580215 1.200585008
3.199264526 7.90094614 1.5434407
3.903021336 8.613393784 1.963654041
3.489470005 8.158236504 2.268784523
11.97704601 16.91832161 4.474214077
11.710289 16.58906746 5.194150925
16.04920006 21.00274467 7.373063564
4.562198639 9.311980247 0.410690397
2.64394021 7.316150665 0.8854803443
2.983171701 7.650406361 1.200450182
3.230548382 7.884833813 1.542634726
3.839733601 8.491835594 1.951584101
3.511942148 8.131207466 2.267016649
12.24647236 17.08462334 4.517720699
11.72224617 16.49315262 5.179916859
14.68521309 19.47141266 6.91124773
4.95750761 9.662944794 0.3779239357
2.647113562 7.277020454 0.8850126266
3.063660383 7.686729431 1.200103283
3.314670801 7.92307663 1.545285821
3.8147645 8.416217804 1.944506288
3.498220444 8.06715107 2.259276867
12.08684158 16.8154583 4.46889782
12.38137913 17.06179237 5.339457989
14.73192787 19.39098549 6.902237415
4.832057953 9.475815773 0.3895911276
2.688801765 7.27560091 0.8831808567
3.076328278 7.654948235 1.198795319
3.358821154 7.921996117 1.545444489
3.754392385 8.302564621 1.933217168
3.509362936 8.031403542 2.255984545
12.15188789 16.77154922 4.468126297
12.4582901 17.02813148 5.342064381
14.51522255 19.05173492 6.811028004
3.8887465 8.451935768 0.4709044695
2.845424414 7.393747807 0.8773339987
3.011626244 7.542036533 1.196275473
3.383245707 7.898137093 1.54418087
3.637445927 8.135313988 1.915789723
3.535556793 8.008566856 2.254931211
12.20709133 16.72307014 4.466012478
12.55594158 17.02056503 5.351064682
14.80596161 19.21776772 6.879646778
3.952862978 8.464413643 0.4663291574
3.953429937 8.474606514 0.8380137086
3.339622259 7.828156471 1.199516773
3.642535925 8.113913536 1.558133125
3.554424047 8.001645088 1.902186871
3.526610851 7.950453758 2.248153448
12.44105053 16.84791946 4.501352787
12.44907761 16.80291939 5.305220604
16.57129669 20.84604263 7.411454201
3.965127945 8.424097061 0.4661629498
4.645438671 9.120301247 0.8132153153
3.377825499 7.818479061 1.198473096
3.677502632 8.09896946 1.557465911
3.55374217 7.951800823 1.89803946
3.572234869 7.947182178 2.250320673
12.46422005 16.76086807 4.491633415
12.50155067 16.74528694 5.301631451
16.67116547 20.80736732 7.417447567
4.626027107 9.043685913 0.8134312034
3.420497894 7.815479279 1.197571278
3.759166479 8.13039875 1.559758902
4.185215473 8.529913902 1.965095162
3.579981327 7.908564568 2.246603012
12.07871151 16.27102661 4.395571709
12.82437706 16.95911217 5.369681835
16.29780006 20.31113243 7.277057171
3.991248131 8.357927322 0.8354124427
3.31987381 7.669967651 1.194677114
6.366501331 10.6626606 1.721173406
4.106804371 8.402388573 1.952185631
3.543631554 7.826782703 2.235813379
12.12382317 16.21443176 4.391761303
12.84786987 16.87690163 5.359251976
12.00716877 16.00488281 5.920158863
4.01874733 8.335845947 0.8340397477
3.349370718 7.654388428 1.193619967
3.583164692 7.862445354 1.543296337
3.973519325 8.222442627 1.933282256
3.631889343 7.86750555 2.245130777
12.163064 16.15218925 4.386774063
12.93730068 16.85908699 5.366050243
12.0359869 15.93398285 5.911070824
5.862221718 10.08888245 0.3091705143
4.800657749 9.054889679 0.8059433103
3.421696424 7.680674553 1.193141699
4.142007828 8.338262558 1.948047876
3.821728468 8.005973816 2.270616531
12.22622681 16.11322975 4.386850834
12.96876144 16.78488922 5.357845306
12.12361336 15.91988182 5.920236111
5.877371311 10.03325272 0.3090472817
4.844749451 9.035506248 0.8038778305
3.444771767 7.651321888 1.191766858
3.972778559 8.141368866 1.5617553
3.995506525 8.140105247 1.927273273
3.781634808 7.913317204 2.258514881
9.038473129 12.93735313 3.708561182
13.42009068 17.09646034 5.455263138
12.15840435 15.83934402 5.910336494
5.554623604 9.660527229 0.3372250497
4.910420895 9.045333862 0.8011146188
5.296971798 9.395476341 1.214418054
4.028057098 8.123682976 1.926989794
3.87514925 7.95669508 2.268467426
9.045306206 12.86485958 3.699692726
14.06205273 17.60078239 5.603415489
14.08385468 17.566576 6.48204422
5.356221199 9.408855438 0.3549130559
3.267455578 7.410820961 0.8591572642
5.547367096 9.576580048 1.215721607
3.974343777 8.047707558 1.556473613
4.007184982 8.056225777 1.920869708
3.739790201 7.77924633 2.241983891
14.13295555 17.55249977 5.603714943
16.37097168 19.60460091 7.158762455
3.291555166 7.388530731 0.8579403162
5.629687786 9.594671249 1.214824677
4.017832279 8.03690815 1.556186199
3.977046967 7.978093147 1.91360271
3.713121653 7.706463814 2.23281002
9.030357361 12.68598175 3.675285816
12.28815651 15.65899467 5.895553589
5.864582062 9.772253036 0.3141755462
3.27173686 7.322309017 0.8582751751
5.465225697 9.378681183 1.210862041
4.05137825 8.018977165 1.555436134
4.136555672 8.076464653 1.926745534
3.791882753 7.733136177 2.240209103
9.059755325 12.63193893 3.670813322
12.69149113 15.98076153 5.20320797
13.90920353 17.06214142 6.36792326
3.314795494 7.320373058 0.8564040661
3.175701857 7.171684265 1.181224227
4.064691067 7.9844594 1.553615451
4.088850021 7.984624863 1.917831421
3.850812197 7.743016243 2.244712353
3.82362771 7.6959548 2.593281746
12.73839188 15.92515659 5.199922085
11.93726063 15.13750076 5.754532814
6.661334991 10.40984249 0.7362890244
3.234075785 7.182503223 1.180541158
4.140764713 8.008453369 1.555553436
4.163421154 8.007064819 1.922118902
3.877519608 7.720274925 2.243943453
9.097831726 12.51326275 3.658865213
12.85576153 15.92914677 5.213630199
13.96234131 16.89401627 6.345441818
5.276780605 9.056797981 0.7854049206
3.263264894 7.165806293 1.179505944
5.119452953 8.863204956 1.610820293
4.214531422 8.004785538 1.923669577
4.141299725 7.915144444 2.279793024
3.903162956 7.677312851 2.597711086
13.22466564 16.16183853 5.290294647
12.06633282 15.05895329 5.758544445
3.37751627 7.247116089 0.8531397581
3.228052616 7.091930866 1.177797198
4.265205383 8.02408886 1.557445168
4.326044083 8.057408333 1.931627274
3.983869076 7.725316048 2.250833035
3.843285799 7.575913429 2.579691887
12.76181889 15.63677216 5.158816338
11.40311623 14.36667728 5.544426441
3.341021061 7.171574116 0.8541299701
3.209731102 7.032030106 1.176240325
4.32247591 8.026678085 1.55807817
4.413146496 8.089263916 1.937128782
3.975190639 7.670067787 2.244655132
9.217928886 12.38592148 3.65307641
12.75200176 15.53096485 5.141783714
12.27979946 15.06024933 5.788616657
4.638876438 8.298613548 0.4220513403
3.308138609 7.097846508 0.854980886
3.244389296 7.020720482 1.175296545
4.37565279 8.027638435 1.558597326
4.464789867 8.085846901 1.938654304
4.043050766 7.684062958 2.250209093
9.23133564 12.31825066 3.645731688
12.78084278 15.45535851 5.133731365
12.36251926 15.0359602 5.796024799
4.652632713 8.269960403 0.8062022328
3.308763266 7.036019325 1.17467916
4.437592983 8.033625603 1.559479237
4.516505718 8.082155228 1.940176964
4.494987011 8.040533066 2.314048529
5.440452099 8.862670898 2.880737543
13.25793648 15.77799034 5.236423016
12.44379807 15.00997734 5.803002357
3.291671038 6.996723652 0.8549253345
3.329040289 7.013456345 1.173641682
4.539923191 8.075191498 1.562671185
4.090093136 7.652750969 1.891810656
4.203416348 7.734636784 2.265173912
5.442932129 8.809529305 2.874324083
13.25689697 15.67895412 5.221575737
12.597435 15.05211449 5.832096577
5.895318985 9.268454552 0.3201284409
3.29988575 6.963514805 0.8543261886
3.33130908 6.974876881 1.172418594
3.847426414 7.413687229 1.520472884
4.115386486 7.630369663 1.890980601
4.135041237 7.629152298 2.250317812
5.473504543 8.784121513 2.873870373
12.82192612 15.20031548 5.100512981
12.68826866 15.03815365 5.842637539
5.881076813 9.197155952 0.3222359121
3.353938341 6.95236969 1.171354532
4.080388546 7.575605869 1.531406641
4.182570934 7.644731998 1.894493699
4.144971848 7.590946198 2.247103214
5.5025177 8.757297516 2.873127699
12.74102879 15.03050995 5.066086769
12.98968315 15.20139027 5.913783073
3.491062641 7.049108982 0.846791625
3.490775347 7.029988289 1.171463132
4.131839752 7.571580887 1.531693816
4.222552299 7.632482529 1.894998431
4.207228184 7.598380566 2.251744032
5.474365711 8.675434113 2.86051774
11.83987522 14.14895725 4.831695557
13.03935623 15.14477158 5.911247253
5.033048153 8.341460228 0.3942047358
3.364425898 6.893258095 0.8510525823
3.44874835 6.950441837 1.169739366
4.020740032 7.428445816 1.522957206
4.274267673 7.627828121 1.896525145
4.230510235 7.571702003 2.250556231
5.490886211 8.635419846 2.857087851
11.80597878 14.03218079 4.810645103
12.92704105 14.94960499 5.861823559
5.080278873 8.332640648 0.3910807669
3.459666252 6.919564247 1.168630123
4.391753197 7.684090137 1.905110836
4.26913929 7.56051302 2.25189352
5.460776806 8.558374405 2.844949007
11.83735085 13.97190762 4.805541992
11.54740524 13.68447018 5.447463512
5.952076435 9.030181885 0.3199507892
3.39033699 6.835835457 0.8495320678
3.513979673 6.923952579 1.167886257
4.38534832 7.633470058 1.901042104
4.268075943 7.513005257 2.247138262
5.538849354 8.573801994 2.853904009
11.80918789 13.85682869 4.785516262
11.53209209 13.58241272 5.42800808
5.965186596 8.984073639 0.3197616935
3.398833275 6.801340103 0.8489225507
3.598843336 6.953989029 1.167426229
3.924975395 7.215110302 1.510690689
4.449821472 7.640922546 1.904003024
4.280434608 7.477133751 2.244405031
5.621481895 8.5897789 2.863366127
12.68696308 14.50399303 4.982991219
11.62255669 13.5696764 5.439083099
5.967557907 8.931885719 0.3204072416
3.460503101 6.81215477 0.8463786244
3.478454828 6.811535835 1.165098429
4.011052608 7.243425369 1.513099551
4.342071533 7.502877235 1.889601827
4.347815514 7.489891529 2.24999094
5.640616894 8.551935196 2.860545397
12.71912193 14.43564415 4.976976395
12.20036983 13.96642399 5.590252876
3.59696722 6.869582176 1.164949059
3.763632298 6.991306782 1.497240305
4.275160313 7.402820587 1.879597068
4.385983467 7.475453377 2.251054525
5.655228615 8.513098717 2.857217073
12.44878578 14.12144661 4.899656773
12.05451965 13.75446415 5.533439636
5.561157227 8.481518745 0.3555027246
3.489800692 6.755631447 0.8447352052
3.529211521 6.772974014 1.163160443
3.694704056 6.893117905 1.49137342
4.251742363 7.337614536 1.873853922
10.27800274 12.31158066 3.103621721
5.600818157 8.414717674 2.84040904
10.04941177 12.05359745 4.316781044
12.06371689 13.6764431 5.521846771
4.264092445 7.350257397 0.4627815187
3.516836643 6.73880291 0.8434712291
3.588115931 6.780375481 1.162462115
3.869523048 6.99544239 1.498644471
4.257620811 7.299366474 1.871244669
6.628757477 9.230062485 2.567237854
5.598088741 8.362279892 2.833901167
10.06490231 11.99183559 4.309866428
10.01247311 11.91473484 4.926198959
5.219626904 8.092731476 0.3851459026
3.530453205 6.7066679 0.8426709175
3.565343142 6.720044136 1.161050558
3.872184992 6.9545784 1.496571898
4.277890205 7.268566608 1.869753957
5.324488163 8.106262207 2.37338376
10.35127926 12.14238167 4.36579752
12.63210297 13.95775795 5.652769566
5.368186474 8.163338661 0.3737604022
3.571283579 6.701063633 0.8409045935
3.627382994 6.729583263 1.160377979
3.904075861 6.937766075 1.496084332
4.342241764 7.278151989 1.872956991
5.025316715 7.812817574 2.325507879
9.742411613 11.60896969 3.605648756
10.41288567 12.11682034 4.369675159
12.29372311 13.59392738 5.542533875
3.591461897 6.676331997 0.8398817778
3.671480417 6.72614193 1.159608126
3.90694046 6.899457455 1.494164467
4.595581532 7.437614441 1.894520879
4.819035053 7.600254536 2.291536093
9.733330727 11.52607441 3.595036507
10.15505791 11.83518028 4.29873085
12.52645016 13.69475079 5.593925953
3.59500885 6.640199661 0.8394855261
3.668940306 6.684792995 1.158455491
3.912744761 6.863699436 1.492418885
5.040297985 7.75031805 1.934786558
4.805459976 7.544335842 2.285321236
9.731280327 11.45305061 3.586283684
10.20038509 11.79785061 4.299060345
12.39262486 13.50284672 5.542579174
3.659172773 6.652944565 0.8368641734
3.690617085 6.661035538 1.157449722
3.946494818 6.850423336 1.49216187
4.643352985 7.387885571 1.892794728
4.781853676 7.478489399 2.277513742
9.710276604 11.36540699 3.574063301
10.46519756 11.92991543 4.349963665
13.53391457 14.31243134 5.846168518
3.674494743 6.624166489 0.8360245228
6.08185482 8.522202492 1.174995422
4.015711308 6.863014221 1.493657231
4.72377491 7.405395985 1.8972646
4.779741764 7.430120468 2.272820711
9.872616768 11.41888237 3.595736742
10.7450285 12.07121658 4.404045582
12.52459621 13.42838764 5.55055809
5.604659081 8.112290382 0.7646603584
3.70292449 6.590978146 1.155273914
4.067836761 6.861591339 1.494245172
4.75265789 7.381777763 1.896727562
4.793477535 7.396758556 2.270626783
9.99025631 11.43603611 3.608973026
11.39393234 12.49719906 4.54312706
12.51654911 13.33773804 5.534797192
6.316665173 8.623479843 0.7380854487
3.724288464 6.567084312 1.154286265
4.219210625 6.937439919 1.499967933
4.755195141 7.339846134 1.893832207
5.040430069 7.542557716 2.301040888
9.921837807 11.31172276 3.588086843
11.40262985 12.42558765 4.534379482
13.87806225 14.29918575 5.896485329
4.799356937 7.371747971 0.4252604544
3.830656528 6.626250744 0.8294659257
3.690346479 6.500100136 1.15289712
4.316481113 6.971992493 1.502947927
4.791766644 7.322180271 1.894061685
5.091831684 7.534854412 2.303844452
9.928218842 11.24242401 3.58075881
10.99789143 12.03271961 4.430195808
13.96802711 14.27272987 5.906090736
4.670362949 7.225358963 0.4364304841
3.76842618 6.536906242 0.8314961195
3.701909304 6.468898296 1.151858211
4.681290627 7.191277027 1.880270958
5.149590492 7.531713486 2.307527065
11.91656494 12.68905735 3.938416481
11.98792267 12.70810223 4.646070004
8.57765007 10.08019638 4.412577629
4.457098961 7.018098354 0.454377532
3.740510464 6.474898338 0.832265377
3.694928646 6.425542831 1.150752068
4.657185555 7.127781391 1.874802947
5.508347988 7.759780884 2.353290319
11.86610031 12.56640339 3.919579029
8.905261993 10.29025364 3.931121349
7.782958984 9.417963982 4.185453892
4.475209713 6.987782478 0.4535634518
6.585644722 8.612409592 0.7267175317
3.793662786 6.461074352 1.150333524
4.664286137 7.106654167 1.514219165
4.76992178 7.170772076 1.882488728
5.638427258 7.808909893 2.366818428
11.94252777 12.54457951 3.924577236
11.22469044 11.97012234 4.450241089
7.925112247 9.463569641 4.214655876
4.305505276 6.815168381 0.4679549336
3.924726486 6.536671638 0.8249394894
3.929406881 6.523746967 1.150146365
4.84746027 7.202488422 1.521400094
4.829954147 7.170852184 1.884996057
5.643354416 7.762943268 2.362975597
11.9180212 12.44261074 3.910701275
12.16040421 12.58911896 4.651809692
7.870189667 9.361310959 4.190153599
4.131505489 6.641421795 0.4826608002
3.88206768 6.463779926 0.8262627125
3.94896102 6.49782896 1.149163365
5.149201393 7.383194447 1.534351468
4.846955299 7.138352394 1.883450866
5.687920094 7.746724606 2.364629507
10.77159691 11.50746346 3.693099737
12.12194538 12.47658348 4.631897449
7.688960075 9.166629791 4.131613731
3.909421921 6.443953514 0.8249935508
3.951425314 6.461181164 1.148130894
4.84781456 7.093927383 1.88041544
5.806398392 7.787456036 2.376646519
10.88010502 11.51104355 3.704227209
12.12568951 12.39593029 4.62166214
7.944678307 9.297730446 4.191965103
5.245980263 7.386984348 0.3938673735
3.93094945 6.421724319 0.8239548802
4.456063747 6.794754028 1.15022397
5.428843021 7.496284485 1.543756843
4.863449574 7.062849045 1.878940344
5.497101307 7.510397434 2.329894066
11.88730621 12.17630005 3.877985477
8.664806366 9.788339615 3.833543777
8.226559639 9.442499161 4.258574963
4.165065765 6.545893669 0.4817119241
3.9421103 6.389805794 0.8232907057
4.345053673 6.672381878 1.148441672
5.479631424 7.488045216 1.544098735
4.904181957 7.047944069 1.879658461
5.462715149 7.439786434 2.321141958
11.9248724 12.12197876 3.875733614
7.682551861 9.011529922 3.605043888
7.91748476 9.160218239 4.166581154
5.18999815 7.254090786 0.3997165561
3.971536398 6.373354435 0.8219617009
4.754342556 6.92931366 1.149783373
5.481531143 7.441500187 1.541918039
5.308512211 7.299220562 1.914135933
5.488655567 7.411079884 2.320440769
11.94104862 12.05628967 3.870136976
8.247424126 9.362565041 3.723895311
4.168717384 6.466295242 0.4826105833
4.039075851 6.382497311 0.8192019463
4.602059364 6.774898529 1.147713661
5.495038509 7.40595293 1.540439963
5.261189938 7.218477249 1.906618595
5.401520729 7.301025391 2.304457426
10.11739635 10.66713619 3.535150528
7.754961014 8.948886871 3.606220722
7.239530087 8.557439804 3.967427969
4.134320736 6.411129951 0.8154082894
4.520223141 6.673026562 1.146103978
5.522520065 7.378147125 1.539546013
5.331798553 7.222888947 1.909982085
5.410812855 7.260959625 2.301599741
10.12230015 10.59942341 3.528280973
7.659344196 8.822377205 3.577391624
8.226431847 9.200259209 4.221749783
4.153486729 6.384434223 0.814450264
4.863077164 6.877887726 1.146969199
5.383925438 7.231917858 1.530611396
5.324506283 7.171433449 1.906210661
5.415589333 7.220145702 2.298370361
10.13497448 10.53751087 3.522863865
7.672373772 8.773713112 3.572812557
8.287382126 9.185569763 4.229296684
5.450208664 7.268845558 0.7658027411
4.921375275 6.875331879 1.146136761
5.366779804 7.173298836 1.52762413
5.385949135 7.171080112 1.908885121
5.396897316 7.160663605 2.291828871
7.782056332 8.818917274 3.098786831
7.724146366 8.755194664 3.577209949
8.208754539 9.070109367 4.199433327
4.180793285 6.3252635 0.8129639626
4.661540031 6.650444031 1.143656492
5.390765667 7.14628315 1.526747465
5.582530499 7.262677193 1.923648834
5.340966702 7.077869415 2.28057003
8.163590431 9.026609421 3.159941673
8.313910484 9.107278824 3.699624062
8.21641922 9.01851368 4.193000317
4.203629017 6.303194046 0.811886549
4.673337936 6.616241932 1.142616987
5.538696289 7.203364849 1.531693459
5.475148201 7.125435352 2.294502258
8.182268143 8.982698441 3.157171965
8.310625076 9.023646355 4.208976269
5.624400616 7.242090225 0.3694344163
4.78092432 6.650762081 1.142127752
5.68273592 7.258813381 1.536514401
5.646876812 7.215848923 1.923426509
8.285393715 8.993879318 3.168950558
7.206606865 8.23157692 3.442470312
7.520709038 8.427253723 3.993234634
5.761446953 7.289438725 0.3591386378
4.623322487 6.51546526 0.7957146764
4.833850384 6.644573689 1.14129591
5.642251015 7.183842182 1.532454133
5.819068909 7.289446354 1.935965061
5.400686264 6.985079765 2.276998281
9.906559944 10.04253006 3.446720362
7.5630126 8.40032959 3.996170282
5.993303299 7.402961254 0.341245532
4.649442196 6.491584778 0.794496417
4.740592957 6.540144444 1.139810324
5.719122887 7.19192028 1.534065008
5.697808743 7.159463882 1.922039986
5.660937309 7.118830681 2.30766058
9.921916008 9.985115051 3.442281723
7.252859592 8.157330513 3.439297915
7.568288803 8.3510952 3.989860535
5.167640209 6.792961597 0.4078603387
4.691044807 6.480272293 0.7927109003
5.450066566 6.980044842 1.142079711
5.909759998 7.274160862 1.540886283
5.806062698 7.188314915 1.928814411
5.753438473 7.134873867 2.31590414
8.041222572 8.656891823 3.108313322
7.239189148 8.096920967 3.429950237
7.870446205 8.497656822 4.060515881
4.708791733 6.450510502 0.7918099165
4.995940208 6.630530834 1.138911128
5.735126495 7.111439228 1.530715346
5.819628716 7.150449276 1.926995277
8.862598419 9.170725822 2.719483376
8.372800827 8.820236206 3.159829617
7.254733562 8.056302071 3.426999569
7.258615494 8.037964821 3.893881798
4.770280838 6.452214718 0.7892792225
5.162763596 6.701423168 1.138632059
6.230966091 7.398332596 1.5517658
5.639378071 6.985941887 1.908207774
5.660338879 6.984800816 2.296347618
8.382427216 8.770331383 3.155678988
7.325964451 8.05255127 3.436106682
7.342549801 8.042612076 3.908359289
4.71377039 6.374851227 0.7911846638
4.854799271 6.453111172 1.136210799
6.235765457 7.355117321 1.549933076
5.877430439 7.099904537 1.926421523
5.490572929 6.827215672 2.270448446
8.199995995 8.594277382 3.118441105
7.314579964 7.991484165 3.427084446
7.30189085 7.962534904 3.890226603
5.400193691 6.775224686 0.3917365968
4.701126575 6.325177193 0.791434288
4.800646305 6.375507832 1.134945989
6.124638557 7.233347416 1.542679787
5.32695961 6.692008018 1.875125408
5.436288357 6.747084618 2.259713173
8.176980972 8.521386147 3.108564615
7.319398403 7.941318035 3.421618223
7.332959652 7.929645061 3.890703917
5.601537704 6.864823818 0.3763112128
4.726674557 6.300889969 0.7902497649
4.830440998 6.355670929 1.134099722
5.644652843 6.872017384 1.518611908
5.350422859 6.663538456 1.874423027
5.373879433 6.664603233 2.24818778
7.74321413 8.182915688 3.028322697
7.474469185 7.988391876 3.448362589
7.287115574 7.849786282 3.871822357
5.53361702 6.775263309 0.3823307157
4.756238461 6.281205177 0.7889265418
4.837665081 6.318984509 1.133116245
5.372797489 6.63651228 1.873775601
5.35212326 6.606930733 2.241809845
7.70896244 8.108531952 3.017168522
7.3557024 7.841121674 3.882028103
6.565086842 7.396137714 0.3010703027
5.214711666 6.536782742 0.771422267
5.248106003 6.542482853 1.133695126
5.685015678 6.809892178 1.516618967
5.397763729 6.608934402 1.873229742
5.351842403 6.563408852 2.238247633
8.448215485 8.525626183 3.137742758
7.897652626 8.153393745 3.525885582
7.589427471 7.936813354 3.934423208
5.589495659 6.721559525 0.379121691
5.261224747 6.523587704 0.7694404125
5.336781502 6.556171417 1.13298595
5.766192436 6.816646099 1.518344283
5.437784195 6.590897083 1.874000669
5.393332481 6.546600819 2.240075588
8.192045212 8.30532074 3.088371277
7.716443062 7.983751774 3.48083663
7.957947254 8.115363121 4.020940781
5.554842472 6.657038212 0.382445097
5.365588665 6.533323765 1.132102609
5.714158058 6.738399982 1.514069438
5.406917095 6.514153004 2.238512993
8.137302399 8.214345932 3.073461771
7.283979416 7.65863657 3.382873058
7.932001591 8.046834946 4.007122993
5.62549305 6.65724802 0.377451539
6.095033646 6.966969013 0.7375038862
5.98236227 6.878948212 1.133232117
5.731060505 6.704203606 1.512920022
6.145394802 6.950045586 1.929667354
5.444957256 6.494896889 2.23991704
7.565172672 7.804106712 2.971431255
7.286209583 7.610836983 3.377541542
7.943506241 7.999271393 4.002532482
6.022448063 6.860258579 1.132330656
5.840079308 6.729770184 1.515980244
6.156249523 6.91023016 1.927763462
5.465107441 6.466509819 2.239224672
7.600924015 7.77315855 2.972240925
7.364779472 7.607775688 3.388038397
7.9302845 7.939324379 3.992115498
6.264430523 6.967665672 0.3281085789
6.108904362 6.884572506 0.7365153432
6.277621746 6.972657681 1.132082701
5.979270458 6.770929337 1.520258784
6.018268108 6.780870914 1.913304687
5.484437466 6.435451984 2.238275528
8.256095886 8.125455856 3.077522755
7.49600172 7.639054298 3.409871578
7.97806406 7.914279938 3.996811628
6.049787521 6.801586628 0.738519907
4.995290756 6.137338638 1.126965046
5.979922771 6.728074074 1.518481374
5.722380638 6.553902626 1.885366082
5.487432003 6.396549702 2.235451221
8.272727013 8.079669952 3.074874878
7.748645306 7.743216991 3.457065344
7.952707291 7.847365379 3.983472586
5.19516325 6.233677864 0.7706716657
5.038171768 6.124848366 1.126196265
5.915565968 6.645719528 1.51386416
5.766600132 6.539036274 1.886621833
5.505565643 6.366972923 2.234562635
8.164300919 7.961048603 3.051611662
7.831880093 7.743008614 3.46864152
8.082808495 7.874494553 4.009276867
5.054619789 6.094025612 1.125302315
6.255912304 6.809252262 1.527002096
6.823349953 7.135529518 1.973558068
5.534768581 6.341929436 2.234917641
8.190982819 7.924789429 3.051038504
7.642833233 7.57643795 3.423115969
7.734373093 7.612016201 3.914731264
6.245841503 6.78724575 0.7304324508
5.115498543 6.089985371 1.124541759
5.812201977 6.496305943 1.50576961
6.82276392 7.086350918 1.970623255
8.161883354 7.869346619 2.560679913
8.694933891 8.170286179 3.129662991
7.682925701 7.548075199 3.425502777
7.771112442 7.581347466 3.916956425
6.281737804 6.762420177 0.7288472652
5.151517868 6.072724819 1.123756647
5.800744534 6.445471764 1.5034796
8.239942551 7.88035965 2.086900711
8.188295364 7.832994938 2.559984446
8.476481438 7.983994484 3.087981224
8.569167137 8.01862812 3.603418112
7.700442314 7.489976883 3.892769575
6.356075287 6.762633801 0.7258154154
5.114448547 6.009893894 1.122734308
5.76152277 6.378504753 1.500013709
9.091040611 8.330295563 2.155171871
8.406031609 7.906468868 2.582931757
8.692783356 8.057937622 3.118787289
7.855219364 7.547402382 3.449683189
7.706415176 7.441586494 3.887454271
6.407438755 6.746462345 0.7236451507
5.072721004 5.9468503 1.121763229
5.752027988 6.331696033 1.497946382
9.151274681 8.306729317 2.156790495
8.715909004 8.034773827 2.617427111
8.366890907 7.811515808 3.059657335
7.799965382 7.462757587 3.432394028
7.724591255 7.403001785 3.885564327
6.440546036 6.72163868 0.7221806645
5.097164631 5.920982838 1.12092638
5.805439949 6.319610596 1.498507142
6.911022663 6.949140549 1.967003345
9.017704964 8.152960777 2.65053606
8.617671967 7.904332161 3.096103907
8.009932518 7.515420914 3.949524641
6.444504261 6.675107956 0.7218049765
5.099036217 5.881969452 1.120041847
5.320671558 5.996267796 1.476118326
8.808473587 7.991713524 2.121586561
9.156675339 8.175000191 2.66336751
8.517792702 7.788470745 3.074263096
7.805243492 7.346028328 3.892188072
7.019513607 6.962470055 0.699724853
5.232526302 5.91874361 1.119460106
5.499639034 6.057993889 1.482105732
6.900958061 6.847056866 1.96066916
8.487457275 7.735160828 2.576596975
11.09111214 9.199872971 3.491145611
12.16717148 9.786904335 4.310344219
7.97908783 7.392818451 3.928429842
7.064879894 6.939580917 0.6977776885
5.145715237 5.828850746 1.118392467
5.785946846 6.181394577 1.492667079
6.933756351 6.817827702 1.960669518
8.682549477 7.790556431 2.596497059
11.14923 9.165975571 3.49454093
8.693922043 7.76121664 3.59257555
8.197735786 7.463362694 3.975550175
7.05978775 6.88785553 0.6977542043
5.195919037 5.817397118 1.117629766
5.957476616 6.235495567 1.49822855
6.985599995 6.799201488 1.96224761
8.600673676 7.68899107 2.582378149
11.04314613 9.039902687 3.471178293
8.389330864 7.535869122 3.524456739
8.220496178 7.423115253 3.974448204
7.063176155 6.84113884 0.6974111795
5.308081627 5.842409134 1.117029786
5.902754307 6.161587238 1.49426043
6.912014961 6.710294724 1.953545213
8.727319717 7.707203388 2.594033718
10.49317646 8.668619156 3.375773907
8.522602081 7.555903912 3.545772076
8.37038517 7.455712795 4.004828453
9.214014053 7.995453835 0.6151964664
5.344477177 5.822383881 1.116235256
5.900058746 6.117222309 1.492501736
6.871846676 6.643090248 1.947768927
8.916337967 7.756163597 2.613046169
8.827794075 7.691130638 3.10017395
8.865543365 7.69285202 3.609867573
11.97271919 9.375717163 4.877697468
9.224683762 7.943257809 0.6145398617
5.430757046 5.831748009 1.115573049
5.910273552 6.082286835 1.491379499
6.853318214 6.585948467 1.943672061
8.764539719 7.619735718 2.590755463
8.842671394 7.643765926 3.097630501
8.861439705 7.635127544 3.603128433
8.234165192 7.277925491 3.958739996
6.86689949 6.593362808 0.7043015361
5.356674671 5.750640869 1.114596725
5.87915659 6.0227108 1.488477707
8.874318123 7.64282465 2.105457306
8.663796425 7.509821892 2.57459116
8.894496918 7.619278908 3.10133791
9.136544228 7.73134613 3.653157234
12.25365829 9.39244175 4.92934227
6.900727272 6.564772129 0.7028126121
5.291849613 5.67736721 1.113699913
5.432144165 5.740304947 1.468523622
8.802958488 7.548632622 2.096652746
9.270277977 7.785016537 2.644244909
8.83932972 7.534230232 3.087574005
8.997104645 7.600295544 3.619132757
12.31785583 9.360315323 4.93678093
8.618193626 7.448171616 0.6370099187
5.280276775 5.631519318 1.11286056
6.339800358 6.187961578 1.504320621
8.642037392 7.410011768 2.080827951
8.776795387 7.464136124 2.580695629
11.60075569 8.955042839 3.526787043
8.688864708 7.383638382 3.551631689
12.33163738 9.297636032 4.931607723
8.61980629 7.394477367 0.6367253065
5.216524601 5.559991837 1.112001419
6.431324005 6.194922447 1.506514788
7.530258656 6.764704227 1.988379717
8.657887459 7.349169731 2.562746286
11.63045311 8.903761864 3.52572608
8.714835167 7.343435764 3.551251888
12.59815502 9.371574402 4.987966537
5.721984386 5.802361012 0.7473348379
5.414717197 5.626075268 1.111459017
7.744889259 6.845108986 1.558435321
7.553133965 6.730177879 1.987735629
8.683789253 7.308893204 2.562095642
11.61826134 8.833825111 3.518290997
9.139110565 7.514331341 3.630941868
12.48880959 9.243784904 4.953130245
5.710726738 5.755208015 0.7476013899
5.386877537 5.571713924 1.110620022
7.617592335 6.730877399 1.551529408
7.394826889 6.598405361 1.972468495
8.711321831 7.269434929 2.561664104
11.64051723 8.778815269 3.516132355
17.23401833 11.65953159 5.242601871
12.50384045 9.181566238 4.948403835
5.773655891 5.747082233 0.745031476
5.410199165 5.544412136 1.109851837
7.490659237 6.615641594 1.544607282
7.504930019 6.607412815 1.978734612
8.638031006 7.177782536 2.549217701
11.67840862 8.731916428 3.516506672
15.89673519 10.88070107 4.966788292
12.53081322 9.125595093 4.946614265
5.430857658 5.517642498 1.109125137
7.633080959 6.640595436 1.548598766
7.169906139 6.386728287 1.94953692
8.676426888 7.146906376 2.550337315
13.526721 9.611168861 3.804474831
17.18209648 11.45191669 5.213926792
12.59625626 9.092703819 4.954504013
6.949470043 6.271394253 0.6996774077
5.626651764 5.578641415 1.108528376
7.624540329 6.587289333 1.546505451
7.068929672 6.29079628 1.939219475
10.19959927 7.868466854 2.727702379
15.10769176 10.34298611 4.049123764
16.06768608 10.80257988 4.984158993
12.32256031 8.884851456 4.880961895
6.921828747 6.211267948 0.7005633116
6.918562889 6.197435379 1.108881235
7.443647861 6.449266434 1.537627935
7.057377338 6.238783836 1.93593204
10.29004955 7.857417107 2.734607458
15.14752483 10.28220654 4.048683167
14.69559002 10.02942181 4.703956604
12.36809921 8.842748642 4.884298801
7.012501717 6.213626862 0.6969251633
6.972681046 6.179099083 1.108033657
7.498631477 6.429131508 1.538134694
7.148098469 6.240627766 1.940868855
9.037009239 7.170806408 2.582439661
13.82110882 9.543622971 3.833043814
16.04273987 10.62521839 4.962862492
12.5690937 8.874217987 4.924273491
7.102444172 6.212695599 0.6933066249
6.999961853 6.147039413 1.107169271
7.493618011 6.381172657 1.53634584
6.980848789 6.111271381 1.925358534
8.939380646 7.068164349 2.5673244
13.82978916 9.47319603 3.828267574
16.82885742 10.92898369 5.109665394
12.63535023 8.837901115 4.932133198
7.172814846 6.201421738 0.6904394031
7.073741436 6.137934685 1.106338739
7.498313904 6.335824013 1.534876943
7.539361954 6.341245651 1.966942072
8.923296928 7.006631851 2.561899185
13.64437485 9.307764053 3.793062687
15.28726387 10.08792973 4.797753334
6.906111717 6.023723125 0.7005131841
7.09820652 6.106425762 1.105524421
6.932645798 5.997247219 1.917053223
11.23187542 8.081274033 2.829626799
13.83027172 9.324679375 3.816249609
15.17202473 9.951807976 4.767356396
13.71547699 9.226047516 5.172467232
6.849381447 5.953208447 0.702542007
7.105498314 6.064203739 1.10466516
7.514347076 6.24872303 1.532251716
6.933295727 5.95499897 1.914996862
11.22813416 8.016378403 2.825093508
13.78845978 9.234215736 3.804056168
14.92138577 9.755786896 4.710972786
13.73904228 9.164254189 5.169855595
7.124340057 6.029931545 1.10386169
7.828485966 6.340233326 1.982542276
8.017505646 6.418355942 2.446026564
13.63509464 9.087347031 3.774246693
15.14411068 9.783730507 4.747088432
13.74328613 9.096962929 5.163160324
10.12000179 7.435673237 0.5765454769
7.15297699 5.998055458 1.103025675
7.691510677 6.229095459 1.969659805
11.31024742 7.932982445 2.826812744
13.67638779 9.037849426 3.775206327
15.72185707 9.981769562 4.85279417
13.60534573 8.959233284 5.122703075
9.530062675 7.093920231 0.5990226269
8.045296669 6.375710487 1.102372766
7.492851257 6.099552631 1.526743889
7.456500053 6.068268776 1.949031353
13.88297081 9.080986977 3.122104406
14.28510571 9.247272491 3.863804579
15.75847435 9.913802147 4.85193634
13.65454388 8.910283089 5.126383305
8.02450943 6.331455708 0.6567542553
8.062500954 6.334589481 1.101479769
7.420409679 6.018874645 1.522396445
7.386793137 5.991550446 1.941526055
13.72027493 8.931629181 3.098596334
14.39879894 9.228962898 3.875881195
14.9180851 9.446922302 4.681358814
13.63791275 8.830695152 5.114684105
8.074164391 6.305549622 0.6546851993
7.94265604 6.232075691 1.100631714
7.477170944 6.001298904 1.523142457
7.279558659 5.895853996 1.931068778
8.17896843 6.300385475 2.452548504
14.04998779 8.992905617 3.816076279
14.91550064 9.368569374 4.67372036
14.88024426 9.332638741 5.397850037
7.292118549 5.896767139 0.6846360564
7.487252712 5.973333359 1.099775076
7.640119076 6.029975414 1.527892828
7.292402744 5.858622074 1.930019379
8.194084167 6.258254528 2.451254606
13.7776413 8.79856205 3.768645287
15.38785172 9.510837555 4.758507252
16.02610397 9.77701664 5.657091618
7.278588772 5.844873905 0.6850143671
7.525811672 5.946914673 1.098991275
9.595731735 6.861911774 2.10458684
16.95163345 10.18962479 3.458188534
13.7779665 8.726558685 3.763195753
14.76466942 9.154475212 4.63121748
14.91739273 9.200317383 5.390627384
7.3185606 5.819839001 0.6833423972
7.542459965 5.910383701 1.098214984
9.671760559 6.844150066 2.107984781
13.08639336 8.368156433 3.008490801
13.77664566 8.65763092 3.757824898
17.93755913 10.50385857 5.237008095
14.84825993 9.096993446 5.366923332
7.362128258 5.796237946 0.6815335751
7.607283592 5.893188 1.097394109
7.506308556 5.836690426 1.518539071
7.332829475 5.745687962 1.927015066
13.20311832 8.351196289 3.017714024
14.12066841 8.742622375 3.805534601
15.03988934 9.128985405 4.6709342
14.60293674 8.91267395 5.30206728
7.357232571 5.74849081 0.6815873384
8.828613281 6.390655041 1.09621954
7.490562439 5.783772945 1.516497135
9.514824867 6.667575836 2.091120005
13.22168255 8.290089607 3.015680075
14.30370998 8.750415802 3.828154564
14.79433537 8.944494247 4.616922855
16.32747841 9.594399452 5.69391489
7.399661541 5.721860886 0.6798198223
8.943698883 6.392608643 1.095343232
7.567881584 5.772091389 1.517991304
7.362665176 5.668777466 1.925183535
13.51933575 8.354748726 3.045797348
14.01147652 8.549307823 3.778040409
14.81901741 8.883740425 4.615348816
16.35609436 9.52955246 5.692588806
11.1755209 7.33412981 0.5340954065
8.128097534 5.986669064 1.094872236
7.510663033 5.703531265 1.514489055
12.85599804 8.016123772 2.339595795
13.88693047 8.447626114 3.083799601
14.03303623 8.490208626 3.776319981
14.97369289 8.879146576 4.638726711
16.34316444 9.446809769 5.681732655
8.038445473 5.902002335 1.094150901
7.504484177 5.657608032 1.512931466
10.30527496 6.852278233 2.1438694
10.615448 6.972333908 2.707302332
14.34927177 8.557554245 3.819539309
17.29770279 9.797857285 5.076515198
14.90834236 8.757459641 5.343216419
8.052854538 5.873957634 0.6542564631
7.872032642 5.782847404 1.09345603
7.669826984 5.683038235 1.517736435
10.29370213 6.793403625 2.140612125
10.66761398 6.936666965 2.709866762
13.83129311 8.267988205 3.735766649
13.5692873 8.13658905 4.357946873
14.89951229 8.678842545 5.333669662
7.51487875 5.596814632 0.674890697
13.66077137 8.197650909 1.088964462
7.529192924 5.579742908 1.511179924
10.32700634 6.750938892 2.140639782
10.70687008 6.895299911 2.710982084
14.04485607 8.287220955 3.763132572
13.53079128 8.050997734 4.344682693
14.90118408 8.604913712 5.326627731
8.094623566 5.796244621 0.652390182
13.65476608 8.124597549 1.087823391
7.724176884 5.616462708 1.517076254
10.34729767 6.702919006 2.139708281
10.75885677 6.859101772 2.713558912
14.05034637 8.218166351 3.758911133
15.56541729 8.827986717 4.725770473
14.86099434 8.513825417 5.310070515
8.107936859 5.754173279 0.6517532468
11.26673317 7.028028488 2.206151962
14.5387888 8.369149208 3.137360573
13.93656731 8.100012779 3.736708879
17.86245918 9.69678688 5.155360699
17.21710396 9.411467552 5.84254837
8.14056778 5.722520828 0.6503789425
7.339277267 5.378390312 1.09092319
7.695781231 5.513146877 1.513332725
11.29615307 6.983099937 2.20591855
10.60940838 6.684947491 2.690354824
14.06843948 8.08698082 3.751952887
17.86952209 9.617826462 5.149889469
19.01729393 10.06049919 6.245862961
8.164708138 5.684864998 0.6493289471
7.391065121 5.357626915 1.090215921
7.644365788 5.448935032 1.510186791
11.29876804 6.924188137 2.203577995
10.60266113 6.628015041 2.686583042
14.09334469 8.026219368 3.75081706
13.373559 7.715812683 4.292229652
19.1980629 10.04755306 6.278857708
15.09842777 8.457098007 0.381267935
7.134056091 5.209226608 1.089773536
7.637907982 5.401159286 1.508652449
13.93334198 7.929703712 2.397239447
10.74432659 6.628121376 2.699356079
13.96054459 7.905727386 3.726246595
13.40330601 7.663424015 4.292591095
15.07160664 8.310267448 5.330273151
11.07856274 6.76447916 0.536475122
7.084043503 5.146073341 1.089160562
7.626764297 5.353933334 1.507028103
14.81939411 8.213137627 2.46010685
10.74384975 6.570659161 2.696176529
14.28304482 7.963803291 3.769919872
13.52196789 7.642818928 4.309484959
18.89715004 9.747357368 6.193222523
11.12677574 6.724615574 0.5344750881
7.052309036 5.090700626 1.088543057
7.632922649 5.311523914 1.505989075
14.92268562 8.180308342 2.464731216
10.79496574 6.533694744 2.698805094
14.08999252 7.816765785 3.736210823
13.51780701 7.573289394 4.303249359
18.86399269 9.645293236 6.177355289
11.1209631 6.663235188 0.5345672965
7.120100498 5.076968193 1.087856531
7.655666351 5.275697231 1.505567908
13.31831264 7.478861332 2.343135834
11.30088997 6.676852703 2.752376795
14.07703495 7.741561413 3.729604721
19.95607376 10.0093174 5.508064747
19.157341 9.674604416 6.236032486
11.20141315 6.638673306 0.5313328505
13.80193996 7.638921261 1.079230905
13.15917492 7.370945454 1.703897476
18.18490028 9.300163269 2.699531555
11.20301628 6.582937717 2.738492012
14.29177952 7.75790596 3.757299185
13.70863628 7.518211365 4.328876019
18.98522568 9.523411751 6.189243793
11.26881218 6.608595848 0.5286054015
7.085948944 4.982796192 1.086697817
8.296310425 5.437245369 1.526392579
14.1401844 7.666508675 2.398513317
11.18828773 6.521728992 2.733930111
14.41243744 7.736889839 3.770909071
13.73777676 7.464600086 4.329276085
18.93309593 9.419289589 6.169778347
13.05349541 7.235392094 0.459426105
13.70418835 7.469966888 1.077427745
13.56029701 7.397303581 1.714915752
14.00578594 7.548799038 2.386002779
11.2440033 6.487466812 2.737230778
15.06124306 7.914732456 3.863135099
13.71328926 7.3907094 4.319687366
18.92630959 9.332818031 6.16066885
11.21008778 6.471065521 0.530641675
13.90960217 7.475505829 1.076106906
13.41448784 7.274481297 1.707857013
14.08673573 7.509757996 2.389215231
14.74398518 7.738017559 3.121969223
15.07254982 7.845685482 3.860117435
13.68519211 7.309056759 4.308980942
13.19646549 7.156775951 0.4536272883
14.20031929 7.514905453 1.074704885
15.63911915 8.03692627 1.785790205
14.12273693 7.45354414 2.389149666
11.21821785 6.358425617 2.728242874
15.49974918 7.9306283 3.918854952
13.68520069 7.241563797 4.303855419
11.17923832 6.342469215 0.5316089392
14.15834618 7.432665348 1.073827982
15.30380344 7.83747673 1.771823406
14.23533726 7.42540741 2.394699812
14.87401676 7.645493507 3.129199028
15.49619484 7.854701042 3.913638592
13.71640396 7.185632229 4.304601192
11.15966034 6.279959202 0.5322644711
14.09273434 7.33877039 1.072956562
15.11004543 7.692523956 1.762994885
14.12933922 7.320458412 2.384456396
14.96656895 7.60693121 3.135788202
17.11703873 8.371368408 4.148935795
13.65925884 7.101065159 4.289220333
13.18854332 6.958498478 0.4535715282
14.76270485 7.515482903 1.070985317
15.06662464 7.607225895 1.759665489
13.98451328 7.199040413 2.371322393
11.16024399 6.169934273 2.713467121
15.62312508 7.755255699 3.923404455
13.56941223 7.00205183 4.267613411
13.31573486 6.941611767 0.4485347867
15.11325264 7.569172859 1.069433451
15.46069908 7.675102234 1.771776199
13.96954727 7.12861824 2.367814541
11.24597931 6.143111229 2.720074415
15.61767769 7.682487488 3.918280363
13.56533337 6.9375453 4.262253761
13.2783165 6.862094879 0.449872911
15.10810757 7.494234562 1.068461895
15.29833126 7.547110558 1.764266729
14.86615658 7.376503944 2.430241346
11.28665924 6.099924564 2.721744776
17.63191414 8.31489563 4.210250854
13.62155819 6.891014576 4.267871857
8.051167488 4.948174477 1.079823494
15.41005516 7.512695312 1.766379714
14.23105621 7.083406448 2.381723881
11.35916138 6.067624569 2.726920366
16.73492241 7.921636105 4.073538303
13.55291843 6.800995827 4.250451088
21.23944664 9.436825752 6.616436481
14.24834251 7.067521572 0.4120631814
8.09663105 4.921041489 1.079181433
14.8643465 7.250249386 1.745391846
14.25059509 7.021172523 2.380649805
14.94847965 7.247885227 3.116680145
13.63010502 6.764868259 4.260262489
21.27861214 9.359681129 6.617683887
13.5088625 6.747383595 0.4406301081
