# .PCD v0.7 - Point Cloud Data file format
VERSION 0.7
FIELDS x y z
SIZE 4 4 4
TYPE F F F
COUNT 1 1 1
WIDTH 1326
HEIGHT 1
VIEWPOINT 0 0 0 1 0 0 0
POINTS 1326
DATA ascii
21.40460396 29.43143845 5.444050789
20.27740288 27.83251381 6.45167017
14.61079788 19.64137077 0.4138673544
23.51913834 32.16474152 1.602681637
23.60389709 32.29407883 3.02976799
20.76657104 28.3020401 4.017818451
21.22291756 28.9422493 5.382045746
20.55880737 28.0177021 6.503355026
14.64397812 19.53661346 0.4156506956
23.68551064 32.15403748 1.605750918
23.76000977 32.26844025 3.034920931
19.81008148 26.75271606 3.855151415
20.20426559 27.30178452 5.141408443
19.68635941 26.58790207 6.235347271
14.66022778 19.40917587 0.4178527892
23.82644081 32.11916733 1.608090281
23.89286804 32.20972824 3.037893295
20.057621 26.89354706 3.879612207
21.10288048 28.35173798 5.315345764
19.81619453 26.56731606 6.245988369
14.74748993 19.38795853 0.4181323946
24.01441956 32.14843369 1.612061977
24.07619667 32.2322197 3.046102047
20.16921616 26.85442543 3.88373518
21.28438568 28.3990097 5.334656239
19.90771484 26.50329208 6.247360706
14.81823921 19.34379959 0.4188343287
24.1424675 32.08224106 1.613860846
24.1408329 32.09108353 3.043205023
20.26900291 26.79880142 3.886074305
20.31492233 26.86101723 5.108069897
20.84650612 27.59755707 6.480165958
14.84728336 19.23562813 0.4207023978
24.27866936 32.02680969 1.615960836
24.28042221 32.04050827 3.046890736
20.34391022 26.69917488 3.883987665
20.45238495 26.8460598 5.117948532
21.20284843 27.87459183 6.551393986
20.85983658 27.40926361 7.725333691
14.96160126 19.24309921 0.4204687774
24.4374218 32.00133514 1.618849754
24.53184509 32.14008713 3.060965061
20.29606438 26.43464088 3.863377094
21.78141212 28.44598389 6.682217121
21.00449753 27.39961243 7.742012501
15.01985359 19.17475128 0.4216219783
24.58670235 31.96234894 1.621434569
24.53762054 31.89658356 3.051850557
20.37665367 26.34465408 3.862385273
19.92078018 25.73523331 4.968402863
20.57960129 26.61722565 7.569408894
15.11139393 19.14353561 0.4220994413
24.77692986 31.97701073 1.625422955
24.74778366 31.9384613 3.062108994
20.46638107 26.25722122 3.862184286
22.83086395 29.40633774 5.558353901
19.75602341 25.32500839 6.085842133
20.6145134 26.47545242 7.552337646
15.14876652 19.05509949 0.4236341119
24.92072678 31.94093895 1.627977729
24.88884354 31.89929771 3.066464424
21.04839325 26.83836365 3.936999559
20.15938759 25.67689323 4.98289299
19.55353737 24.87888145 6.009819984
20.46023178 26.08513641 7.473679543
15.24036312 19.03813744 0.4238700569
25.13098907 31.97934151 1.632665753
25.05173874 31.88812256 3.072828054
19.83753967 25.06389046 3.744078159
20.2165966 25.56084061 4.976836681
19.78691864 25.00871658 6.050431728
20.91076279 26.48169327 7.591112614
15.28792191 18.95630646 0.4252906144
25.27472115 31.9295311 1.635131717
25.2518158 31.90066338 3.081685305
19.88272858 24.93623734 3.738578558
20.01305962 25.10658455 4.917103767
19.69927979 24.69998932 6.003518581
20.99100685 26.38030815 7.586208344
15.30176544 18.82431221 0.4276289344
25.47929382 31.94577599 1.639536738
25.38052177 31.83140182 3.084514618
20.04525948 24.95150375 3.749919653
19.30404282 23.9966774 4.753252029
19.73589516 24.56420898 5.990977764
21.73430824 27.14467812 7.796752453
15.38530731 18.78970718 0.4281989336
25.60594559 31.87248421 1.641471028
25.61354637 31.89540672 3.096781015
20.12764168 24.87211609 3.750035524
19.42943764 23.97938347 4.762401104
19.46445084 24.03471184 5.897749424
20.86547852 25.83157921 7.487923145
15.45642853 18.73903465 0.4290675223
25.78233147 31.87390709 1.645196319
25.86706352 31.98329926 3.110851526
20.15677261 24.72514153 3.742401123
19.57883263 24.00079918 4.777256966
19.52635956 23.935812 5.892539024
20.67656326 25.40102005 7.399223804
15.51899147 18.68455696 0.4300132692
25.97216988 31.87939644 1.649269462
25.95533943 31.86007881 3.110086918
19.45854378 23.66987228 3.629250526
19.5050106 23.73026276 4.745942116
19.94867897 24.30153656 5.982367516
21.2158947 25.9049263 7.54467392
15.5510931 18.58495331 0.4317856431
26.1024971 31.80894089 1.651386857
26.02991295 31.73180962 3.108589172
19.57115936 23.63620758 3.634408712
19.42088318 23.44969177 4.712870121
19.52025414 23.58511353 5.849851608
21.03948593 25.49347878 7.460630894
15.59772491 18.50407028 0.4332216382
26.29904175 31.8205719 1.655714154
26.18336296 31.69071579 3.113737822
19.91455269 23.88933182 3.673018694
19.51647186 23.39586639 4.716309547
19.67546082 23.60482025 5.869241714
21.25353241 25.57318115 7.500713348
15.64272022 18.42154312 0.4346930981
26.45319748 31.77839851 1.658658981
26.53404999 31.89266968 3.136363029
19.69992828 23.44817924 3.6308496
19.97009659 23.78442574 4.791575432
19.71061707 23.47482109 5.857679844
15.65194511 18.29554558 0.436963886
26.62001801 31.7510376 1.662040114
26.63037491 31.77831841 3.136447668
19.88384056 23.50140381 3.646358967
23.69529724 28.1821537 5.519665718
20.64273262 24.44713974 6.076085567
21.37184906 25.34566307 7.483159542
15.63891125 18.14344215 0.4397170246
26.78189468 31.71673012 1.6652776
26.76677322 31.71309471 3.140109539
20.02413559 23.49974823 3.655559063
20.26054001 23.79053688 4.817844391
22.08761787 26.02999878 6.423674107
21.54465866 25.37133598 7.510108948
15.77030277 18.16734314 0.4392604828
26.95913696 31.70018959 1.669036984
27.00226593 31.76737022 3.152480602
20.08725166 23.4037571 3.653734207
21.75671005 25.42688942 5.098615646
20.3452034 23.7305603 5.958516121
21.84283066 25.54740143 7.575907707
15.69270134 17.94590569 0.4432914853
27.15522194 31.7167263 1.673528671
27.18933678 31.77295494 3.161006927
20.10752296 23.26519585 3.646421909
20.26983452 23.46329689 4.789262295
20.35423279 23.57666397 5.941512585
21.91461182 25.45701218 7.57255125
15.78795052 17.92627335 0.4436404407
27.33556366 31.70150566 1.677421093
27.26955795 31.63820076 3.159825563
21.28642654 24.50183868 3.802802563
20.53011703 23.60248947 4.825127602
20.37556839 23.43002129 5.926814079
21.64295197 24.9474411 7.462073803
23.08174706 26.67043304 9.220529556
15.89873409 17.92454338 0.4436675608
27.48851967 31.66424179 1.680538416
27.4354496 31.60553551 3.16613698
21.4812088 24.55388451 3.819201946
20.80397224 23.76349258 4.864220619
20.37703705 23.26089096 5.907322407
21.21950912 24.27277565 7.307208061
23.13949585 26.55538559 9.210046768
15.97273731 17.88544846 0.4443823099
27.67778206 31.66898537 1.68485117
27.60743523 31.59060287 3.17338872
25.25583267 28.827034 4.339561462
20.92242241 23.7384243 4.872754097
20.38619804 23.11063957 5.890966892
19.91856003 22.5719986 6.884958267
23.17154503 26.4105587 9.190437317
16.01934624 17.81416321 0.4456898868
27.81064606 31.5950489 1.687259316
27.80948067 31.60979271 3.183234692
25.40821648 28.80688095 4.348721981
25.9325428 29.42463875 5.832069397
22.00691032 24.84709167 6.276774406
20.97339058 23.64211464 7.183161736
16.12244606 17.80207443 0.4459214807
28.04645538 31.64023972 1.693015695
28.02587509 31.62125587 3.193511963
20.38747406 22.76910591 3.634795189
20.36916924 22.751688 4.735183239
22.39414024 25.10763931 6.351230145
21.0342598 23.5326767 7.176029682
23.12730408 25.97878647 9.109799385
16.16204071 17.70966339 0.4476265013
28.18855286 31.57545853 1.695763707
28.29333496 31.70134926 3.208543777
20.57422829 22.81022072 3.650167704
20.33933449 22.55172157 4.714917183
22.35868073 24.8848896 6.321630955
20.97988701 23.29930115 7.135400295
23.65862083 26.40448952 9.268521309
16.1907692 17.61834145 0.4493149519
28.35817146 31.54168892 1.699420214
28.45132065 31.65365219 3.214198112
20.47814178 22.54250336 3.627275705
19.91419792 21.90091324 4.618816853
22.56677818 24.95215034 6.353432178
22.59948921 24.99475479 7.601038456
23.7592144 26.32945061 9.272345543
16.25796318 17.5647316 0.4503207207
28.58205414 31.56867409 1.704838991
28.58913994 31.59375763 3.218547344
25.45040894 28.03127098 4.304468632
20.5003109 22.40805626 4.717327595
26.73832321 29.51761436 7.358004093
21.31879997 23.35692024 7.190977097
23.959795 26.36813736 9.31184864
16.28385544 17.46448708 0.4521833658
28.75474548 31.53613281 1.708631873
28.77260208 31.56213951 3.22602272
23.22776413 25.31995201 3.986242533
20.32191277 22.04393768 4.669176579
24.8307457 27.14061165 6.865850925
21.85671425 23.7871685 7.327066898
23.50681686 25.66644096 9.119530678
16.27379417 17.31819725 0.4548938572
28.93156052 31.50724602 1.712576866
28.91599655 31.4959259 3.230508566
23.08592224 24.96881676 3.955284119
20.25218201 21.80572891 4.64211607
20.81801414 22.44506073 5.865124702
20.42631149 22.01884651 6.877802372
23.6114006 25.59913826 9.125657082
16.40365601 17.34147835 0.4545091093
29.12558937 31.50789642 1.717174768
29.12838745 31.51734352 3.24121356
23.51726341 25.2775135 4.004071236
20.20630455 21.60427284 4.620512009
20.93563271 22.42166328 5.876373768
21.97397041 23.59259605 7.316586494
23.62022972 25.43408585 9.099696159
16.53116608 17.36112976 0.4541957974
29.32021904 31.49655914 1.721725583
29.29971886 31.49180222 3.248459578
23.71578026 25.3236351 4.020859241
20.99084663 22.31530762 4.755419731
22.03537178 23.48458862 6.125535488
23.03507805 24.60339546 8.86425972
16.53958321 17.24273682 0.4564099312
29.58381271 31.55962944 1.728488564
29.4246254 31.39174271 3.251084089
23.82152367 25.25706482 4.024452686
20.91499901 22.07043839 4.727386951
21.08610535 22.26375008 5.876611233
20.54952431 21.67976379 6.848413467
21.85632133 23.130373 8.423267365
16.73042297 17.31752777 0.4551065862
29.75920868 31.51295471 1.73238349
29.60704422 31.36548996 3.258924961
24.06490707 25.33121109 4.046189785
21.3472271 22.37402153 4.794309139
20.65534592 21.63288307 5.75516367
20.63281059 21.61396408 6.851353645
22.88366127 24.07689285 8.752087593
16.82242584 17.28987122 0.4556758702
30.01182556 31.5601902 1.738827825
29.80181885 31.35156822 3.267806053
24.76948929 25.91141129 4.130627155
20.71979713 21.53288078 4.663305283
20.94886398 21.79442596 5.808222771
20.7212162 21.55361366 6.855864525
22.89453888 23.91566086 8.727537155
16.83948708 17.18130684 0.4577265382
30.09325981 31.43277931 1.739945412
30.08390427 31.43024063 3.283938885
25.18264771 26.16912079 4.175376892
20.94898224 21.63134193 4.693608761
20.98569679 21.67658424 5.799694061
21.01241875 21.71135139 6.919619083
23.33219719 24.22370911 8.85218811
16.90757179 17.13413239 0.4586585164
24.89506149 25.66106987 1.574197769
24.90163422 25.67445946 2.847922325
21.61533165 22.18083 3.686599255
21.08670616 21.62199783 4.706123829
21.68568802 22.27594757 5.950027466
20.89631844 21.43838692 6.865632534
23.4720192 24.19935226 8.872097015
16.89217567 16.992136 0.4613284767
24.94631195 25.53046799 1.574604511
24.98387718 25.58605576 2.849090338
21.8088131 22.22566414 3.70324111
21.20554924 21.59176445 4.715129375
24.24578857 24.83258438 6.539874554
20.91024208 21.29847908 6.848739147
23.63062096 24.19417572 8.898439407
16.26009178 16.20258141 0.4758069515
25.0658474 25.47228813 1.577188849
25.07865334 25.50171852 2.851035118
25.11597252 25.54785156 4.134791851
22.22599983 22.51065254 4.890581608
21.45173836 21.70917892 5.859844685
21.4332962 21.70318222 8.11887455
17.04296494 16.90126038 0.4631623328
30.87707329 31.36087799 1.758823633
25.2186985 25.46464539 2.8567307
25.18845177 25.44005394 4.133965492
22.69918633 22.84330559 4.964262962
21.97037125 22.09544182 5.965120316
20.99962234 21.08584976 6.833292007
21.46550941 21.58069038 8.104771614
17.15636635 16.89494896 0.4633745551
31.01708031 31.28180122 1.761837482
30.96329498 31.24582291 3.321005106
21.76551437 21.7023983 3.670269728
22.85021973 22.83560753 4.978454113
21.84736061 21.80830956 5.91906929
21.10272598 21.04097557 6.842549801
21.56864929 21.53261566 8.114967346
17.10694313 16.72018433 0.4666605592
31.28364372 31.33269691 1.76884675
31.30018616 31.36991882 3.341537476
21.85502052 21.6378746 3.67324996
26.6346035 26.5751915 5.656864643
21.91077614 21.71656227 5.917053223
21.18667793 20.97591209 6.846360207
23.471241 23.34296799 8.734465599
17.14458656 16.63607788 0.4682998359
31.54533195 31.37641907 1.775718927
31.59366989 31.44634056 3.358484745
24.70198059 24.39735031 4.039246559
22.67485237 22.32808113 4.919774055
22.05375862 21.71381569 7.073449612
21.66732025 21.32501793 8.099178314
17.21833038 16.58896637 0.4692707658
31.68429756 31.3045063 1.778832078
24.70317078 24.22309303 4.02961874
25.34316444 24.8908329 5.392205715
25.70901871 25.27141571 6.767236233
21.32923126 20.81963348 6.846988678
21.81645966 21.33116341 8.126306534
17.41418648 16.67100716 0.4678912759
31.98773003 31.38700485 1.78704536
32.02882004 31.43811226 3.379996777
24.74673843 24.10157585 4.026138783
22.6026268 21.94231224 4.881438732
22.58068085 21.93543816 6.023619652
22.37122154 21.7311554 7.123339176
21.89444923 21.25659943 8.128299713
17.6053791 16.7403698 0.4667554796
32.18907166 31.37569809 1.792147756
22.48001862 21.65382957 3.720810175
22.63017082 21.81965256 4.874361515
25.13451958 24.34241676 6.59726572
22.4438076 21.64766502 7.123357773
23.59098434 22.81697464 8.672563553
17.72615623 16.74398613 0.4668152034
32.33678436 31.29852867 1.795538306
23.56710052 22.58879662 3.85410428
21.65517807 20.69011307 4.68626976
25.30965805 24.35121727 6.620212555
24.60015678 23.6518898 7.710930824
21.95356941 21.01830101 8.10149765
17.72790527 16.62298012 0.4691523015
32.55117416 31.28678894 1.801030874
25.89764404 24.73281288 4.147580624
21.72008324 20.60480881 4.686041355
25.8835125 24.74508858 6.73378849
22.18298531 21.08622551 7.010795116
21.64484024 20.56082535 7.975451469
17.73902702 16.51197433 0.4713121057
32.81581879 31.32296753 1.808108091
22.60632706 21.31971741 3.712139845
25.04385567 23.72417831 5.269037247
25.50237274 24.18387985 6.627144337
22.32277679 21.06424141 7.029269218
21.7742691 20.54010582 7.995363712
17.72825432 16.37429047 0.4739682376
32.96084976 31.24044228 1.81148839
24.89225388 23.38858795 3.9982512
25.19866562 23.70475578 5.283243656
25.41259956 23.92256737 6.588685036
22.41682625 21.00428963 7.035954475
22.22251511 20.83039856 8.120455742
17.65469742 16.18884659 0.4774798155
33.2191925 31.26716995 1.818411469
22.60574913 21.01196861 3.695532084
22.32437706 20.74692154 4.758629322
25.50970459 23.85355186 6.593970299
24.40820885 22.79363251 7.570958138
24.89884186 23.27954674 8.977773666
17.6551342 16.07031631 0.479788363
33.45503998 31.27032471 1.824657679
21.9528904 20.23144913 3.603672504
22.50650978 20.77226639 4.779251575
22.63196564 20.90884972 5.92336607
25.04239082 23.25096893 8.99932766
17.81842232 16.10803795 0.4792687595
33.71591568 31.295681 1.831700563
22.20900154 20.32961464 3.628653288
22.73352051 20.83912086 4.807760715
21.97725487 20.13121796 5.75982666
24.63945389 22.68839645 7.593281269
24.25265694 22.32765388 8.715779305
17.70062828 15.87790108 0.4836089611
33.98460388 31.32650185 1.839006186
24.44617653 22.30610847 3.906283617
22.58869362 20.5508213 4.770608902
22.62652206 20.6026001 5.891484737
24.53012085 22.43103027 8.781892776
17.88286972 15.93254566 0.4827947021
34.12436676 31.23383713 1.842347264
34.40672302 31.52309608 3.504486799
22.5907135 20.3956852 3.661766768
22.48544884 20.30461693 4.741048813
23.89222908 21.64818954 6.161086559
26.25082588 23.88449478 7.994663715
24.04875755 21.81498718 8.601171494
17.94006157 15.86868191 0.4841325283
34.40849304 31.27578163 1.850174427
35.36051941 32.19020462 3.573279858
22.55116844 20.21068764 3.649036407
24.93926239 22.45565033 5.160039902
22.17581749 19.88310623 5.760462761
25.48936462 22.99886131 7.764748096
24.26611137 21.86176872 8.647997856
18.02487183 15.8304739 0.485011667
34.59515381 31.22496986 1.855015516
35.32917786 31.93083191 3.564388275
22.81544113 20.30962753 3.674875975
24.96056557 22.31327438 5.151463985
22.69985771 20.22671318 5.863206387
25.11539459 22.48503685 7.642054558
24.36445045 21.79586792 8.656222343
18.14787483 15.82711411 0.4852668047
34.9643898 31.3528614 1.865555048
35.72200012 32.06476974 3.588862181
22.15006065 19.54781914 3.583297968
24.08980942 21.35552979 4.988072395
22.57285118 19.96271515 5.820288181
25.23235893 22.43922234 7.654786587
24.76585007 22.01802254 8.763278961
18.20619774 15.7695694 0.4864969552
35.85227203 31.95282364 1.892086983
22.39353752 19.63593102 3.607031822
26.83900833 23.73187256 5.455150127
23.32317734 20.51406097 5.973480701
25.91825104 22.91574097 7.821956158
24.83654022 21.93217087 8.763641357
18.31168365 15.75487232 0.4869586527
35.51995468 31.42116737 1.881007314
35.87714767 31.77100945 3.58906889
22.83805084 19.90504074 3.655945539
23.9069519 20.88811302 4.93384409
23.30308151 20.3543663 5.955080032
22.43383789 19.57065964 6.858686924
24.85193443 21.78795433 8.745235443
18.37268066 15.69355965 0.4882777035
36.98829651 32.52238464 1.925367832
36.02318192 31.67522621 3.594284773
29.83314705 26.08872414 4.524917126
24.398592 21.1814785 5.007618427
23.23170853 20.14196968 5.924795151
25.77127266 22.45305252 7.741901875
18.41561127 15.61600399 0.4898948073
35.84259415 31.26076698 1.889347911
35.99368668 31.42140388 3.585895061
28.98753166 25.14083672 4.409792423
22.81375122 19.60321617 4.722881794
23.21051216 19.97651482 5.905825138
25.85183334 22.3632679 7.743830204
24.35702133 21.02860069 8.541745186
18.56575012 15.63410759 0.4897941053
36.20823669 31.36170959 1.899837136
36.13573456 31.32231522 3.590911388
23.01051712 19.62678146 3.655719995
29.40988159 25.34767532 5.847159863
25.56262589 21.93225861 6.408947468
27.30368996 23.49901962 8.113806725
24.60227203 21.09558105 8.597459793
18.67579269 15.615592 0.4903600216
36.35338211 31.26439285 1.903578758
23.16963005 19.62439919 3.668388605
23.03407478 19.51359558 4.739819527
23.37369156 19.83149147 5.91353035
24.39852524 20.7509861 7.316001892
25.41586494 21.66506958 8.832876205
18.80395889 15.61235428 0.4906577766
36.59745026 31.25354767 1.910384059
25.14561272 21.21929932 3.906395674
28.16614723 23.88799286 5.607731819
25.64402771 21.67888451 6.395416737
24.46221542 20.64876747 7.314012051
25.72857094 21.78381538 8.908981323
18.90355873 15.57751274 0.4915430248
36.84143448 31.22971916 1.917181611
23.337677 19.47806549 3.674774647
23.2159462 19.38129044 4.749774456
23.60043526 19.73437691 5.934659958
24.38008499 20.4266777 7.274240017
25.84424973 21.71923065 8.921630859
11.16489315 8.762829781 0.6141187549
37.13909531 31.26203346 1.925684094
24.20419693 20.08677673 3.774774313
23.30711365 19.3185215 4.755111694
24.89146233 20.70363235 6.201042175
24.17449379 20.09190559 7.201158524
11.17700481 8.712072372 0.6151669025
37.27464294 31.17531013 1.929304004
24.07356644 19.84179878 3.752285242
23.93800354 19.73498726 4.853164673
24.87793732 20.55596352 6.185242176
24.24643707 20.0293045 7.205475807
11.20912838 8.668457985 0.6161127687
37.52402115 31.15159225 1.936351418
37.8051033 31.41849327 3.684497118
23.88876724 19.5309639 3.722245693
23.47794533 19.18947029 4.764462471
24.40108109 19.98999977 6.067227364
24.39665413 20.00441742 7.2270751
11.23649979 8.620862961 0.6171332598
37.75748825 31.12399292 1.942967892
37.89550018 31.25666428 3.685451508
23.77488136 19.28362846 3.701105118
23.76361084 19.29128265 4.802787781
19.46084976 15.48040295 0.4946104288
38.1186676 31.21385574 1.953543663
38.1206398 31.23138046 3.697314024
23.82003784 19.1868515 3.700239658
23.81937027 19.20361137 4.802737713
24.45104599 19.74752808 6.05141592
23.60391617 19.04981041 6.985736847
25.97611427 21.06715012 8.85477066
19.3232975 15.25544357 0.4989052117
38.33155441 31.16540337 1.959584951
38.17763901 31.06394577 3.696380854
24.24337196 19.40713882 3.745569706
23.85700607 19.09378624 4.799209118
24.91643333 20.00015259 6.138604641
24.31554031 19.50716591 7.155922413
26.12919998 21.04179764 8.880777359
19.39034843 15.19686699 0.5002441406
38.56302261 31.13119125 1.966223717
39.75327301 32.14839172 3.810723543
28.81766319 23.06896591 4.295734406
28.28360367 22.63705254 5.531986713
24.96132088 19.89056778 6.134687901
24.42957878 19.4588623 7.169216156
19.62234497 15.27412605 0.4991667867
38.86568832 31.15425301 1.975066423
38.94417572 31.24697495 3.743689775
29.15247345 23.18916893 5.665955544
24.85823822 19.65892982 6.099259377
23.93477058 18.90619469 7.0239048
19.75297737 15.26635838 0.4996147752
39.2648735 31.25415611 1.986886144
39.51901245 31.49072456 3.781824827
28.86011696 22.7792511 5.605511189
24.89110565 19.54098701 6.09307003
24.41510963 19.16144753 7.132862568
19.72083092 15.12544537 0.5024394393
39.54268646 31.25198746 1.99502635
40.12078094 31.75104332 3.821923018
28.67051506 22.44459343 4.254691601
29.62633324 23.2361412 5.721734047
24.94639969 19.4417572 6.09176302
24.59516907 19.1668911 7.163519859
19.82334328 15.0942173 0.5033173561
39.73537445 31.17920876 2.000598192
28.77686501 22.37807083 5.569040298
24.7053051 19.10272598 6.027684689
24.8334465 19.21822357 7.209177017
19.95709419 15.08747864 0.5037674904
29.04623795 22.41628456 4.285001755
30.01717567 23.20934296 5.763563156
24.68824959 18.94737053 6.011403561
24.82333183 19.06781387 7.190635681
19.7060318 14.77372074 0.5096692443
40.43199921 31.2785511 2.021332741
29.22044373 22.38941765 4.298517704
29.66791344 22.75962448 5.694374084
24.87432289 18.94810867 6.037536144
24.90323257 18.98313713 7.194660187
19.79632187 14.72743797 0.510846436
40.61066055 31.17860603 2.02655983
29.26144028 22.24777031 4.295702934
24.95522118 18.87121582 6.042107582
26.24853516 19.90865517 7.524316788
20.51811028 15.18138981 0.503166616
40.94559097 31.21200752 2.036597252
29.12710953 21.97718239 4.272357941
25.02346802 18.78424454 6.044085979
20.86452293 15.33570671 0.5008081198
41.19836807 31.19043159 2.04416728
29.12314034 21.81067085 4.26473856
25.17694473 18.76384926 6.063999653
21.0337677 15.35573006 0.5008154511
41.42455292 31.1467514 2.050955296
29.09715271 21.63611031 4.254939556
26.00382233 19.27195549 6.225331306
21.12087631 15.31149864 0.5019637346
41.70245743 31.1299839 2.059346199
26.17469406 19.26656342 6.249156475
21.19007301 15.24739552 0.5034880042
42.0077858 31.13225365 2.068606853
26.32422447 19.23648071 6.267893791
42.2817421 31.10866737 2.076943874
21.41422844 15.18320465 0.5054320693
42.72704697 31.21209526 2.090540409
21.5676403 15.17516708 0.5060157776
42.97247314 31.15104103 2.098079205
21.78599167 15.21997452 0.5056637526
43.04210663 30.97005272 2.100289345
21.73092842 15.06215668 0.5088620186
43.39775848 30.9997406 2.111257792
42.01622391 30.01543427 3.89375186
21.90608978 15.07344151 0.5091136694
40.29209518 28.53098679 3.761981487
40.66635513 28.8240242 5.559296608
21.61718369 14.75322628 0.5151225328
44.06681442 31.03237915 2.132002592
40.49254227 28.47241402 3.772733212
39.6378479 27.87167549 5.430524349
13.46970654 8.781326294 0.6193467379
44.35957718 31.00928116 2.141159296
38.75726318 27.0080986 3.640800953
39.52749252 27.58206367 5.409216881
13.47738171 8.715679169 0.6207757592
44.68039703 31.0042572 2.151208639
38.74689865 26.79619408 3.636102676
39.50303268 27.35614395 5.398097038
13.51739597 8.673221588 0.6218056083
45.05225754 31.03325081 2.162853956
38.83971786 26.65865898 3.639052629
39.16741943 26.91056252 5.350848675
45.33593369 31.0092411 2.171827793
39.10832977 26.64495659 3.654942513
39.35972977 26.84159851 5.365246773
41.60384369 28.45525551 7.427987099
22.49115944 14.80115604 0.5166695714
45.66644287 31.00439262 2.182285786
39.37731171 26.62973595 3.670876503
39.33516693 26.63011932 5.3548913
39.853508 27.01314926 7.136433125
22.49816132 14.68955326 0.5191043019
45.95639801 30.96914101 2.191544294
38.10363007 25.55191231 3.574195385
39.46317291 26.51563072 5.361942291
40.55893326 27.29759026 7.236564636
22.69415855 14.70842648 0.5193001032
46.25161362 30.93563271 2.201002121
38.2542038 25.44965553 3.581483603
39.49908066 26.33727074 5.358393192
40.58779907 27.10887337 7.229053974
22.12350464 14.19678593 0.5286343694
46.48442078 30.85759163 2.208591461
38.43952179 25.38038254 3.59152317
37.93520355 25.05480194 5.169760227
40.56839752 26.88779831 7.21403265
22.43172836 14.29837799 0.5273948908
47.03162766 30.991539 2.225834131
38.42165756 25.17223167 3.5867908
38.09468079 24.97943497 5.181316853
40.08057785 26.34939003 7.125105381
22.62902641 14.31712341 0.5276150107
47.36138916 30.9746933 2.236470222
38.07048416 24.75035477 3.558039665
38.16773987 24.83542633 5.182603836
40.97194672 26.74767303 7.254290104
22.90822983 14.38908005 0.5269409418
47.63508224 30.91815186 2.245432854
45.45974731 29.48816681 4.091666698
38.21546173 24.67459679 5.181050777
40.82525253 26.44258499 7.219568729
23.08084488 14.38234138 0.5276510715
47.93560791 30.87778664 2.25525713
45.79468536 29.48184013 4.112155914
38.25032425 24.49607849 5.177762508
40.19304657 25.81720543 7.108722687
23.32525444 14.43319035 0.527338028
48.27986145 30.86425972 2.266462803
38.41036987 24.39027405 3.572908163
38.3238678 24.36275101 5.179682732
40.3548317 25.72294617 7.123023987
23.48415756 14.4205637 0.5281444192
48.56432343 30.8093853 2.275879622
38.49370193 24.26292992 3.575991869
38.42461395 24.23779869 5.184445381
40.08843231 25.34759712 7.070272446
23.66004181 14.41788578 0.5287941694
48.92617035 30.80292702 2.287710428
38.47041321 24.05688858 3.571254253
38.01399994 23.78068542 5.130846977
40.29048538 25.28021622 7.091095448
23.83283424 14.41199398 0.529510498
49.23307419 30.75861931 2.29790163
38.60395432 23.95288658 3.577917576
38.18810272 23.70523071 5.144192219
40.31588745 25.09783554 7.084363461
24.21159172 14.53627014 0.5280506015
51.71944809 32.10325241 2.375030994
38.59254456 23.75583649 3.574157238
38.23465729 23.547369 5.143046379
40.24865341 24.85680962 7.063312054
24.20111465 14.41105747 0.530798316
51.89595413 31.97450447 2.381297112
38.63082504 23.59121895 3.574043512
38.28226852 23.39052582 5.142099857
40.26118088 24.67777061 7.055366993
24.24159622 14.32437801 0.5328710079
37.96289062 23.01220322 5.099859238
40.35514069 24.55078697 7.06019783
24.37172318 14.29366779 0.5340147018
51.89754868 31.48324776 2.383187532
37.94527054 22.82625961 5.092032909
39.63115311 23.90196991 6.937666893
24.48413658 14.24537182 0.535494864
51.92505646 31.24942017 2.385029078
44.11166763 26.44552612 3.960241795
38.20327377 22.80305862 5.115218639
39.80099106 23.81611443 6.954115868
24.57265091 14.1818285 0.537237525
51.92090225 30.99695587 2.385931969
43.53652573 25.87950134 3.915899038
38.09540558 22.55289459 5.097025394
40.10743332 23.81363678 6.991745472
24.66614723 14.12096024 0.5389441848
52.13752747 30.88022041 2.393669844
38.16292953 22.41172409 5.098773479
40.26548386 23.71827888 7.006437302
24.63284874 13.98309612 0.5419300199
42.92251205 25.09138489 3.866106272
38.71002197 22.56136513 5.154694557
40.44877243 23.63754082 7.025076866
24.58345604 13.83637905 0.5450627804
39.28761292 22.72489166 5.213978767
40.47908401 23.46381378 7.020206928
24.72584724 13.80470562 0.5463081598
39.18981934 22.48075104 5.197190285
40.47973633 23.27288437 7.010893345
24.99406052 13.84640121 0.5463650227
43.82848358 24.98384857 2.141596317
38.45231247 21.83853531 3.538305521
39.31177521 22.3684063 5.205217361
40.48809052 23.08728218 7.00289011
25.25422478 13.88136196 0.5465509295
43.84764481 24.78941154 2.1432302
38.39680862 21.62557602 3.532056808
39.4849205 22.28573608 5.219045162
40.73323441 23.04159164 7.03130722
25.46823883 13.88757038 0.5472230911
43.91784286 24.62529564 2.146471977
38.54386902 21.53176498 3.540338516
39.50489807 22.11293793 5.215744019
41.75444412 23.44692421 7.178525925
25.54743767 13.81458569 0.5491945744
43.95798874 24.44400215 2.148815155
39.08144379 21.6627636 3.576526642
39.21906281 21.7639904 5.178293705
40.69198608 22.63815308 7.006955624
25.59691811 13.72436047 0.5514523387
57.52183914 31.99820709 2.570314169
44.27744675 24.44736481 3.944770813
39.25079346 21.60046196 5.17651844
40.76628876 22.49235535 7.00947237
25.59988976 13.60190392 0.5542755127
57.52479172 31.73424911 2.571918726
48.45828629 26.61725998 4.240293026
39.46915817 21.53443718 5.195406914
40.69707108 22.26489449 6.990205765
25.75940895 13.57970142 0.5554124713
57.61370468 31.51971817 2.57622838
39.45094681 21.35184097 5.188457012
40.20551682 21.80033302 6.906813145
25.79059029 13.47901726 0.5578579903
57.43090057 31.16684723 2.572055817
39.89310837 21.39614677 3.626024008
39.26728821 21.06844139 5.162903309
40.31621552 21.68754578 6.915702343
25.90813065 13.43218517 0.5594087243
57.46702194 30.92472267 2.574795723
43.36071014 23.13652802 3.870610952
39.43688202 20.99245834 5.177047729
40.36289978 21.52967072 6.914528847
26.5488739 13.66593361 0.5565630198
57.60029602 30.73661423 2.580597401
44.93695068 23.81633759 3.980640411
39.76015854 20.99124718 5.208068848
40.42461777 21.38034058 6.915734291
26.6382103 13.59423828 0.5585888624
58.17712021 30.78995323 2.600262642
45.14172363 23.72453499 3.993090868
40.33894348 21.12735558 5.267473698
40.1135025 21.02735329 6.860589027
26.7942524 13.5581913 0.5600628853
58.38388443 30.6391201 2.608456135
39.37371826 20.40022469 3.581730604
40.10890961 20.84405518 6.852032661
26.85690117 13.47122955 0.5623484254
58.9004364 30.65341949 2.626368999
39.91887665 20.51576996 3.618670464
40.33811951 20.76377296 5.257754803
40.25546265 20.74271774 6.866416454
27.06413078 13.46088409 0.5634455681
59.32952118 30.61760139 2.641615868
39.74456406 20.24429512 3.604623556
40.45161438 20.6436882 5.265634537
40.59946442 20.74602699 6.910639286
27.10702133 13.36263561 0.5659264922
59.76262283 30.581007 2.65705204
39.89194107 20.14473152 3.613431931
40.20042801 20.3306179 5.233243465
40.97726059 20.76482201 6.959939957
27.21338081 13.29758453 0.5678995848
60.24754715 30.56864357 2.674174309
39.97011566 20.00832939 3.61738348
40.23145294 20.1682663 5.232171059
41.40482712 20.807024 7.016705036
27.48304176 13.3164959 0.5685902834
60.80768585 30.59186745 2.693722486
40.13819504 19.91849136 3.627743959
40.25123215 20.00042534 5.229935169
41.55526733 20.70199966 7.031787395
27.41861343 13.16211033 0.5719603896
61.29044724 30.57140923 2.710915565
40.00968933 19.67529488 3.617170334
40.17122269 19.78169823 5.216775894
41.46758652 20.47356415 7.011194229
27.42653084 13.04551601 0.5747520328
61.88783646 30.60598373 2.731779575
40.28543472 19.63113022 3.635163069
15.83646011 7.18240118 2.532013178
43.53239822 21.3466835 7.313423634
27.50068283 12.95663834 0.5771778822
62.07400513 30.41518211 2.739897251
15.83582497 7.100016594 1.906407118
15.86043739 7.121716499 2.532928467
15.8368721 7.11917305 3.158781767
28.03373718 13.10282898 0.5760088563
62.99444962 30.60450363 2.771078348
15.85062218 7.034854889 1.906903982
15.86857224 7.056585312 2.532212257
15.84323597 7.053296566 3.157034874
28.29751778 13.11143208 0.576951921
63.57303238 30.61730194 2.791585207
15.84633446 6.967223167 1.906124473
15.86218166 6.984412193 2.529931307
15.85288715 6.989231586 3.155819893
15.87957668 6.892974377 0.6710359454
15.84837532 6.886861324 1.287761688
15.83953857 6.895190239 1.905163407
15.85905552 6.914139748 2.528041124
15.86228371 6.925195217 3.154606819
28.7057724 13.06500912 0.5798546076
15.91134739 6.849050999 1.290340543
15.89702034 6.854804516 1.908756018
15.85384655 6.843103886 2.525954962
15.82868862 6.840292931 3.147025347
28.86062622 13.01603222 0.581715703
15.8787899 6.786944866 2.527204037
15.85712337 6.785984993 3.148733616
28.98301888 12.9506073 0.5838341117
15.87311172 6.706685543 1.906206489
15.87481785 6.716932774 2.525315285
15.85189915 6.71887064 3.145591259
28.98179817 12.83220482 0.5866812468
15.88009644 6.645513535 1.906316638
15.89081097 6.660069942 2.525712252
15.86250973 6.659561157 3.144841433
29.23353958 12.83301353 0.5877968073
67.27866364 30.74768257 2.923490286
42.6484108 19.1952343 3.791105509
15.87600422 6.588747025 2.522768021
15.86344242 6.592410088 3.142570257
29.38463974 12.77905655 0.5897877216
42.62026978 19.00084877 3.788147211
15.88201809 6.524105549 2.522059917
15.88563919 6.53543663 3.143493891
29.48669243 12.7015934 0.5921317935
43.01153946 19.00136948 3.814761162
42.66296005 18.86564827 5.443194866
29.65586281 12.65433311 0.5940564871
69.1506424 30.7492733 2.991340637
43.17110062 18.89289665 3.825109005
42.67687988 18.69196892 5.441209316
30.0546093 12.71003914 0.5945378542
42.94155121 18.606884 3.808133364
44.124897 19.17114067 5.595564365
30.22601318 12.66076279 0.5965358615
70.37226868 30.71682549 3.036185503
43.00537491 18.45544434 3.811849594
44.1451416 18.99517632 5.594311714
30.47419548 12.64459515 0.5980884433
70.93482208 30.67283821 3.057201624
44.06029129 18.74600029 3.885296822
44.44272995 18.94349289 5.623315811
31.07223701 12.78079128 0.5975497365
43.94902802 18.50399017 3.876758337
44.8788147 18.95114136 5.667416573
31.39716148 12.78676987 0.5989336371
72.06890869 30.57741928 3.099786758
44.45864868 18.54421616 3.911944628
31.47908783 12.69849873 0.6014969945
44.67604828 18.45416832 3.926638603
31.66979218 12.64995289 0.6036035419
73.57254791 30.62517166 3.154624939
30.92691422 12.20459557 0.6110750437
73.91371155 30.46678925 3.168976784
61.37952042 25.23496056 7.444405079
31.15689087 12.17400265 0.6129395366
50.7505455 20.46928024 4.351841927
60.497715 24.61108589 7.344813347
31.77993965 12.31177139 0.6125230789
50.86777115 20.27923775 2.431085825
60.90075302 24.54419708 7.384813309
31.9497757 12.25181866 0.6148412824
50.83768082 20.05902481 2.432518959
32.06216049 12.16745472 0.6174964309
50.86219406 19.86197281 2.435745955
32.25408936 12.11464691 0.6197587252
50.8377533 19.64552307 2.437415123
58.92281342 22.99815178 7.159917355
32.44976425 12.06213093 0.6220393181
50.83471298 19.43838882 2.439805508
50.73958969 19.44189644 4.349547863
58.71336365 22.67551041 7.133943081
32.60081863 11.99076939 0.6245808005
50.83456421 19.23299599 2.442317724
32.78902435 11.93307495 0.6269695759
50.83359146 19.02787781 2.444830418
50.69376755 19.01467705 4.346123219
59.01207352 22.31969833 7.159862995
32.80004883 11.80560303 0.6302444935
50.82434845 18.82011414 2.447101116
58.83612823 22.01428032 7.137844086
33.00106049 11.75124168 0.6326280236
50.84040833 18.62266922 2.450226307
58.84818649 21.78334808 7.136226177
33.55176544 11.82828808 0.6334447265
50.8033905 18.40546608 2.451642513
59.00436401 21.60793304 7.150249958
34.1127739 11.90516186 0.6343253255
50.81411362 18.20710373 2.454647303
50.77843857 18.23552513 4.352347851
34.30537415 11.8410759 0.6369364262
50.76787567 17.98793793 2.455810547
50.75101089 18.02351952 4.350635529
59.53138733 21.33548355 7.201687336
34.36652374 11.72754383 0.6401482821
50.8032608 17.79973602 2.459682465
50.72271347 17.81198883 4.348918438
59.09276199 20.93751335 7.151901722
35.03819275 11.83578873 0.640814662
50.76711655 17.59574509 2.461090326
50.78730011 17.63504601 4.353781223
59.04454041 20.68638992 7.144285679
34.31242752 11.44332695 0.6471551657
50.76028061 17.40302467 2.46348691
59.11509705 20.49083328 7.149668694
34.61694336 11.4234581 0.6492367387
50.76716614 17.20573044 2.466501474
35.65578842 11.65335178 0.648691833
50.76575089 17.00595284 2.469269276
36.00944138 11.62980747 0.6511384845
50.73712921 16.79721069 2.471161127
50.84796906 16.86818695 4.359887123
36.5973053 11.69854355 0.6524271369
50.75113297 16.60387802 2.47449398
50.90926361 16.69081497 4.364800453
37.14468002 11.74221039 0.6541615725
50.69251251 16.38614464 2.475437403
50.84607315 16.48079872 4.360987663
37.42362213 11.69164562 0.6569428444
50.79779434 16.22456932 2.481868982
50.84092712 16.271595 4.361377239
51.3008194 16.19519615 2.501628399
38.83544159 11.71581078 0.6637898088
39.52287674 11.78687572 0.6655927896
40.76031494 12.02745247 0.665892303
41.7784996 12.19020939 0.667073369
43.21906662 12.46795464 0.6675038338
78.70691681 23.61450958 9.229660988
43.18703461 12.2931385 0.671957314
66.02822113 19.31459427 3.021752596
79.45658875 23.5449028 9.308758736
43.37068558 12.18397236 0.6758494377
66.01810455 19.07255936 3.025325298
66.01052856 18.81930161 3.029224157
66.04034424 18.57768631 3.034428358
45.97296906 12.4544735 0.6828548908
66.06925964 18.33609962 3.039641142
48.80544662 12.90885925 0.6862722635
55.72259521 14.65647602 0.6775486469
56.16796112 14.56980801 0.6823520064
56.20303726 14.35819817 0.6882588267
61.74296188 15.41219902 0.6906577945
73.54129028 18.03038406 3.338469267
74.59916687 18.03953934 3.38007617
78.86071014 18.82915115 3.5336833
79.06462097 18.58748627 3.546349525
80.33674622 18.96975708 6.48727417
80.69006348 17.78365517 3.626513004
80.70376587 17.49065971 3.632894039
56.25535965 4.036028385 0.9829985499
49.36673355 3.257871628 0.9642940164
77.41189575 5.147172451 3.792172194
76.11286926 4.778699398 3.749139786
43.94089127 2.191539764 0.9633024931
43.91148758 2.035549879 0.967864871
43.87632751 2.065185547 2.503414154
43.88669205 2.105710983 4.044017792
43.97644806 2.144331455 5.602397919
51.95325089 2.391522884 1.006422639
75.11812592 3.914862156 3.73257041
43.97834396 1.990550041 5.6062603
43.92185211 2.019726276 7.161543369
43.91204453 2.06009984 8.737113953
51.97039413 2.210608244 1.012050629
69.54073334 3.313841581 3.520822763
51.9649353 2.028424501 1.017589688
74.90185547 3.376753569 3.739027262
52.02474594 1.84975338 1.023433685
74.78829193 3.108703136 3.742076159
52.00603485 1.666852593 1.028935313
75.5998764 2.887885809 3.781789541
52.01865005 1.485608339 1.034589887
76.28703308 2.655683041 3.816772699
53.16160583 1.352239609 1.045746088
75.9991684 2.376735449 3.813125849
76.67276001 2.137999296 3.847840309
75.52024841 1.828604341 3.809666634
75.31726837 1.558304787 3.809396505
75.30508423 1.295048475 3.816805124
112.9892273 1.9160676 1.3974545
75.92724609 1.048259377 3.849840879
76.00117493 0.784969449 3.860887051
75.85842133 0.5172234178 3.863208294
75.58682251 0.2484728992 3.860311985
75.6140213 -0.01484994963 3.869582653
77.11502075 -0.2661537528 3.939136982
85.89745331 -0.7928195 4.316879272
43.53854752 -3.388872862 4.189476967
43.46005249 -3.528830767 4.188680649
43.69847488 -3.703809023 4.213321209
43.37321091 -3.842423916 4.193814278
43.20121384 -3.982091665 4.186040878
43.12819672 -4.128055096 4.186070442
43.61210632 -4.351678371 2.697640181
42.57960892 -4.236345768 4.148591042
43.43830109 -4.490417957 2.695502043
42.37123871 -4.361230373 4.137621403
43.36160278 -4.636367798 2.697627783
43.44852829 -4.609350681 4.229058266
43.27775955 -4.78885746 2.69972682
40.87902451 -4.533692837 4.03119278
40.64366531 -4.695206165 2.588555574
40.9570694 -4.684601307 4.043103218
40.63396835 -4.837300777 2.593364716
40.85395432 -4.818784714 4.040657997
40.64364624 -4.981331348 2.599063158
40.93491364 -4.97061491 4.052914143
42.98882675 -5.14005518 5.73836422
40.64163971 -5.117192745 2.604007483
40.88044357 -5.109199047 4.054419994
42.87637711 -5.279929638 5.732102394
18.81217384 -2.992724419 0.3107891381
40.39802551 -5.234391212 2.598415136
40.94445801 -5.260076046 4.065441608
42.86309052 -5.42204237 5.736987114
18.82827187 -3.00272131 0.9723925591
18.8557415 -2.990684748 1.635282159
40.5945282 -5.358869553 4.043035984
18.81907654 -3.126544237 0.3145556152
18.80491257 -3.066562653 0.9743940234
18.80258942 -3.051188707 1.635384798
18.79354668 -3.03168726 2.297483921
18.8597908 -3.023850441 2.971367359
18.80914307 -3.133556604 0.9766727686
18.81472778 -3.119081736 1.638440609
18.79771805 -3.098563433 2.300596476
18.81255913 -3.084971905 2.968954086
18.82549667 -3.070958376 3.643338203
18.80316162 -3.049336195 4.318831444
18.81352615 -3.166925192 2.304671049
18.80853653 -3.150971174 2.971572876
18.81160927 -3.135813951 3.64460516
18.7854023 -3.113628387 4.319154263
18.80078506 -3.099394798 5.010074139
18.83330154 -3.086758137 5.717270374
40.11903381 -5.913488865 2.612653017
41.00375366 -5.983474731 4.100188255
42.23075104 -6.100991726 5.698265553
18.79865265 -3.181619883 4.325353622
18.78478622 -3.163867235 5.010491371
18.81157112 -3.150640488 5.715908527
73.33587646 -10.38199234 1.551087499
40.0594902 -6.048014164 2.615376234
40.78277588 -6.107749939 4.08881855
42.01668167 -6.223393917 5.680404663
41.9186058 -6.476914406 1.229297996
40.40753555 -6.236030102 2.636766195
40.44576645 -6.208126068 4.067712784
42.02194977 -6.380395889 5.688477039
41.89985275 -6.61580658 1.233898401
40.56467819 -6.400788784 2.649520397
41.61008453 -6.508513927 4.168539524
42.24328995 -6.551594734 5.721142292
72.64216614 -11.06634426 1.570131302
40.62617874 -6.553457737 2.657944441
41.5869751 -6.645728588 4.172787666
42.75420761 -6.771669388 5.788177967
72.45571899 -11.29811096 1.576904178
40.37855148 -6.662641525 2.652144432
43.10084915 -7.015693665 4.303088665
42.42209625 -6.876824856 5.756715775
72.48828888 -11.57389164 1.586508393
40.1049614 -6.766411304 2.645104647
41.73147202 -6.969977856 4.197971821
42.29513931 -7.016901493 5.749649048
72.45243835 -11.81403255 1.594501019
39.90622711 -6.879570484 2.641496658
41.67812729 -7.110704899 4.200230122
41.82408142 -7.090281487 5.701434612
72.7735672 -12.1221447 1.606970072
39.80198288 -7.005970955 2.642268181
41.73884201 -7.226448059 5.698895454
73.42529297 -12.48502064 1.623307109
39.90853882 -7.164823055 2.652893066
41.77288437 -7.422896862 4.221409321
41.60408401 -7.354465008 5.690559864
72.97557068 -12.68817043 1.627605915
39.83973694 -7.303632736 2.655646563
41.67076492 -7.555872917 4.219786644
41.93667603 -7.563349247 5.737793446
39.8090744 -7.441203594 2.659920692
41.67053223 -7.704937458 4.226592541
42.28715515 -7.770236015 5.786956787
71.52674866 -12.96681309 1.628589153
40.74139786 -7.740355968 2.709649324
38.5710144 -7.337097168 3.9771626
42.56025696 -7.966959476 5.827160835
70.94017792 -13.12255573 1.63048923
38.81295776 -7.555929184 2.624304295
38.49885559 -7.463113785 3.977598429
38.23588181 -7.386164188 5.322289944
70.29824829 -13.26462364 1.631603837
38.7609787 -7.679308891 2.627218246
37.99817276 -7.514208794 3.942480326
38.21252441 -7.519349098 5.326761723
69.70561981 -13.39871597 1.632748246
38.70346069 -7.808464527 2.6301682
36.8950882 -7.454882622 3.857125759
37.33115387 -7.494154453 5.228848457
69.11462402 -13.54175758 1.634227157
36.80223465 -7.564238071 3.855350018
37.1471405 -7.595283985 5.214122295
38.36164093 -7.781322956 6.743225574
68.55886078 -13.68745995 1.636021018
37.12182999 -7.793742657 2.56585741
36.64393997 -7.674253941 3.848752737
36.86128235 -7.676542282 5.187235355
37.77276993 -7.811720371 6.660047054
68.17355347 -13.87416649 1.640260816
37.42000961 -7.990952969 2.586005449
36.80583954 -7.836985588 3.868636847
36.50578308 -7.749447346 5.152335167
38.37229919 -8.066626549 6.76213789
37.10846329 -8.066106796 2.576604605
36.38958359 -7.890053749 3.840128183
36.47338867 -7.875108719 5.155696392
37.66474152 -8.07047081 6.660364151
66.90011597 -14.11613655 1.641249776
36.91574478 -8.155869484 2.572608232
35.89126968 -7.924198151 3.804622412
36.45225143 -8.002905846 5.160459995
37.85753632 -8.2371521 6.698516369
66.34609222 -14.23532677 1.642186284
36.90764236 -8.288081169 2.577820063
36.03628159 -8.083148956 3.823182583
36.56638718 -8.150947571 5.181165695
37.90864563 -8.384267807 6.715110302
65.84061432 -14.37288666 1.644063711
37.04721832 -8.443742752 2.589961529
35.60955048 -8.120861053 3.793260098
36.49755859 -8.269626617 5.180326939
36.95657349 -8.323607445 6.574299812
65.27471161 -14.48262501 1.644626021
36.61359406 -8.488574028 2.574486256
35.53892517 -8.235656738 3.793673038
36.02888107 -8.299315453 5.130949497
36.7322731 -8.411866188 6.547688961
64.78620148 -14.62874317 1.646931887
36.45243454 -8.594511032 2.57253027
35.58496094 -8.374625206 3.803997993
35.48779678 -8.323719978 5.073441982
36.38260269 -8.479235649 6.501797199
64.32727814 -14.76618004 1.649118185
36.38025665 -8.711930275 2.574646235
35.46539307 -8.485224724 3.800644636
35.58943176 -8.474600792 5.093159199
36.48875427 -8.634159088 6.527095318
59.3495369 -13.92103672 1.590493798
36.03894043 -8.776828766 2.563791037
35.65651703 -8.65623188 3.82342577
35.52213287 -8.596321106 5.092886448
36.22571182 -8.717102051 6.494804859
59.21389008 -14.10791111 1.596322775
35.87648773 -8.872554779 2.56142211
35.01200867 -8.6440382 3.775024176
35.23275375 -8.662365913 5.065315247
36.24779892 -8.854212761 6.507027149
64.13877106 -15.44134045 1.67191577
36.01389694 -9.034993172 2.57390666
34.90667725 -8.748526573 3.772537708
35.34647369 -8.816737175 5.086713314
36.12660599 -8.959751129 6.496704102
64.20449066 -15.69192982 1.681188107
35.68136597 -9.090816498 2.563084364
35.01865387 -8.902109146 3.788685083
35.10321808 -8.890921593 5.064731598
36.20366669 -9.109521866 6.517784119
14.36580467 -4.310815334 0.4753523767
64.27117157 -15.94357681 1.690517664
35.67378616 -9.22017765 2.568409681
35.14357376 -9.059703827 3.80603385
35.12690353 -9.025259018 5.075294495
36.87721252 -9.397517204 6.633547306
14.32151508 -4.306451797 0.9906752706
35.37028122 -9.279569626 2.55894351
34.7440567 -9.094782829 3.778337479
34.89294815 -9.099415779 5.054425716
36.06919861 -9.343923569 6.514499187
14.30564213 -4.355437756 0.9923323989
35.84755707 -9.524787903 2.58864212
34.69748688 -9.21165657 3.780986309
34.86753082 -9.221860886 5.059069633
36.5177002 -9.583296776 6.59495163
14.2915411 -4.404844284 0.9940177798
35.2407074 -9.508955002 2.563883543
38.22151566 -10.1966629 4.092393875
34.70850754 -9.311942101 5.047370911
36.59221649 -9.735933304 6.616151333
14.29279518 -4.458056927 0.9959295392
35.24282455 -9.633332253 2.569465399
34.810215 -9.495811462 3.804215908
34.74790573 -9.449895859 5.060064793
37.45669556 -10.07603455 6.763023853
64.81186676 -17.25553322 1.740472317
35.54710388 -9.840427399 2.590694904
34.76422501 -9.613200188 3.807049036
34.66499329 -9.551383972 5.057378769
36.19629288 -9.901222229 6.571371555
64.62257385 -17.44776154 1.746307254
34.41611099 -9.683795929 2.539018631
34.7947197 -9.743479729 3.816227913
34.66300583 -9.67941761 5.065104961
36.03756332 -9.995313644 6.555474281
64.69597626 -17.70724678 1.756053448
34.41601181 -9.811742783 2.544738531
34.81771088 -9.885199547 3.82550478
34.78749847 -9.840147018 5.088532925
35.97626114 -10.11340904 6.555202007
64.73248291 -17.9701004 1.765728474
34.3075943 -9.917872429 2.545230627
34.38673782 -9.902032852 3.794796228
34.83665466 -9.988883018 5.10316515
35.91865921 -10.2389183 6.556061745
64.79608154 -18.22883797 1.775421977
34.23906326 -10.02767086 2.547483444
34.22222519 -9.993012428 3.787667513
34.74666595 -10.09496212 5.100215912
35.89670181 -10.36695957 6.562233925
64.81504059 -18.48857117 1.784916997
34.57513428 -10.2465477 2.570611715
34.04564667 -10.07335949 3.779117823
34.76596069 -10.23641205 5.111296177
36.00601196 -10.53020287 6.589636803
35.11791229 -10.51824093 2.604282856
34.12625885 -10.21646023 3.792845964
35.64642334 -10.5995512 5.228922367
35.58800507 -10.54486084 6.531580925
63.96862411 -18.7149601 1.78841877
34.36410141 -10.44078445 2.571170568
34.04878998 -10.31666374 3.792700529
34.82301712 -10.49956703 5.13433218
35.72881699 -10.71689701 6.564228535
38.53222656 -11.78407288 1.395984054
34.1518364 -10.51671886 2.566329718
33.60119247 -10.32549572 3.760531425
34.79859924 -10.63008404 5.14019537
35.93561172 -10.91535568 6.608235836
38.4862709 -11.92346382 1.400802374
33.85687637 -10.56768131 2.557129383
33.62935638 -10.46637726 3.77042079
34.26744843 -10.61706257 5.082612991
35.56715012 -10.95317173 6.559118271
38.42446899 -12.05096245 1.405109406
33.78438187 -10.67454529 2.559229374
33.74097824 -10.62547016 3.787443638
34.01913834 -10.67495537 5.059928894
35.56732178 -11.08731079 6.569303036
38.3718338 -12.18098068 1.409567118
33.63487625 -10.75858307 2.557287931
33.37176895 -10.64527798 3.761713743
33.89857101 -10.76844692 5.053268909
35.33357239 -11.15383244 6.541485786
61.75508118 -19.28847885 1.797149539
33.54838562 -10.86045647 2.558655024
33.40604019 -10.78186226 3.771921396
33.73587036 -10.84886646 5.041306496
34.68463516 -11.096838 6.445892811
61.68986511 -19.4918766 1.804242611
33.77708817 -11.05025864 2.576420307
33.21627045 -10.84554577 3.761773586
33.66041946 -10.94796276 5.039924145
34.47014236 -11.15798378 6.420505524
61.74310303 -19.74313927 1.813746929
33.72407913 -11.1627388 2.579630136
33.31071472 -11.00056839 3.777466297
33.46124649 -11.01577091 5.023340225
34.70407104 -11.35946941 6.468998909
64.44346619 -20.81316948 1.867662668
33.60961533 -11.25613976 2.579578638
33.15876007 -11.08092308 3.771080732
33.47465897 -11.14737797 5.033688068
