# .PCD v0.7 - Point Cloud Data file format
VERSION 0.7
FIELDS x y z
SIZE 4 4 4
TYPE F F F
COUNT 1 1 1
WIDTH 1310
HEIGHT 1
VIEWPOINT 0 0 0 1 0 0 0
POINTS 1310
DATA ascii
-18.02371407 11.20335293 0.9341375232
-18.25581932 11.3995657 1.563067555
-18.13958931 11.30588245 2.188164711
-18.47237396 11.57461548 2.859349251
-17.97812653 11.24321461 0.9321596026
-18.03064346 11.31589794 1.554903388
-18.10344696 11.35333538 2.185913324
-18.44804382 11.63636684 2.858571053
-17.84117126 11.22481441 0.930986464
-18.01046944 11.37827015 1.55316627
-17.9114933 11.29228306 2.172097683
-18.25409889 11.57553101 2.837830305
-17.83081055 11.29715824 0.9283228517
-17.8103714 11.31374931 1.545762539
-17.91052628 11.37216282 2.172513247
-18.2069149 11.62394142 2.834469318
-17.8493824 11.38712788 0.9254183173
-17.80302429 11.38492584 1.544425011
-17.94621658 11.47930622 2.175664902
-18.19194031 11.69197083 2.834816217
-17.77269745 11.40372658 0.9237937927
-17.72458267 11.40391731 1.540875673
-18.00752831 11.5983696 2.180686235
-18.14306068 11.73515701 2.831172943
-17.73278999 11.45099068 0.9215777516
-17.66383171 11.43561459 1.537875891
-17.89965439 11.59669399 2.173133373
-18.1068306 11.78765297 2.829035521
-17.81450844 11.58904266 0.9178033471
-17.62063217 11.48020458 1.535417557
-17.8463192 11.63506317 2.169645786
-18.1404705 11.89262867 2.83519125
-17.74999428 11.6183939 0.9158613682
-17.92679214 11.78839588 1.543700933
-17.96188354 11.80056667 2.178759813
-18.13385391 11.96794319 2.836603165
-17.92774773 11.83099842 0.9107405543
-17.72959709 11.71769428 1.536485076
-17.94767189 11.86922264 2.178203344
-17.57000351 11.63731384 0.9126536846
-17.6203804 11.71260643 1.531982899
-17.94267464 11.94518852 2.178340197
-18.19540977 12.17702675 2.848389149
-17.66220093 11.78987408 0.908460021
-17.57311821 11.75450993 1.529378772
-18.06068993 12.11628342 2.187672615
-17.56882095 11.79626846 0.906889677
-17.81926155 12.01424503 2.170182943
-17.59225273 11.8931694 0.9037033319
-18.18482399 12.39474869 1.545531988
-17.88426781 12.14545155 2.175569534
-17.43591118 11.84951305 0.9030214548
-18.07559204 12.39147568 1.5409863
-18.1210804 12.4131155 2.193820715
-18.07626343 12.43912029 0.8907992244
-18.17638397 12.55419445 1.54278481
-24.43296242 17.59027481 0.7951876521
-33.85860825 25.18895721 2.013174534
-24.23744392 17.55287743 0.7936554551
-24.98979378 18.21660042 1.744539499
-24.20260048 17.64385414 0.7897568345
-24.38749504 17.85178375 1.724646449
-24.11000061 17.68805695 0.786708951
-24.06511688 17.70948219 1.713189602
-24.97050285 18.42894363 2.710425854
-23.9786911 17.70010757 0.7842558026
-24.04500771 17.8129425 1.710759759
-24.82910728 18.43803787 2.70067668
-23.78742218 17.66176987 0.7827550769
-23.97363472 17.8743515 1.706797957
-24.33267784 18.15217781 2.664268732
-23.64894104 17.66579628 0.7804592848
-23.93891525 17.96622467 1.703915715
-24.26784515 18.22114372 2.660255671
-23.65028381 17.79202843 0.7757072449
-23.90686798 18.06063843 1.701102018
-24.27617264 18.35151291 2.661747932
-23.55155373 17.82854652 0.7727686167
-23.653162 17.967659 1.691768885
-24.2091465 18.42516518 2.657627821
-23.6020546 17.98544121 0.7675921917
-23.83545303 18.24421692 1.695227861
-24.19662857 18.53277016 2.65752697
-23.97232246 18.42952156 0.7565232515
-23.80219269 18.33855057 1.692346811
-24.06081581 18.54138756 2.648196459
-23.53854752 18.18552589 0.7589105368
-24.27955055 18.8812561 1.704205513
-24.19856644 18.79180145 2.659521818
-23.43741417 18.21978378 0.755952239
-23.84585762 18.63669968 1.689550042
-23.93721771 18.69727325 2.640784025
-23.46271896 18.364151 0.7507844567
-23.75086975 18.67859459 1.684841275
-23.93814087 18.82398796 2.641772985
-23.44824409 18.47453308 0.7462641001
-23.65583611 18.72004128 1.680131793
-23.95638847 18.96678734 2.644081354
-13.56339264 9.796917915 0.4505942762
-23.4407196 18.59165955 0.741579473
-23.57569504 18.77433777 1.675850153
-13.85106564 10.14823437 0.9114215374
-23.8378334 19.1353035 1.68135035
-13.53086185 9.893262863 0.4448830783
-13.69240379 10.07052135 0.9118011594
-23.98490715 19.39647293 1.683502197
-13.22218037 9.677707672 0.4612018764
-13.08981895 9.588989258 0.9205420613
-23.95611382 19.49389076 1.680717707
-13.41174889 9.911643028 0.4447911084
-13.06099606 9.620659828 0.9188004136
-13.02965736 9.623021126 1.36956048
-13.52466011 10.07820034 0.4332871437
-12.97604752 9.603840828 0.9180077314
-13.20650482 9.84732151 1.373563766
-12.68822479 9.361206055 1.796141982
-13.47644615 10.09805965 0.4324330688
-13.09385109 9.776953697 0.9131655097
-13.29690361 9.994060516 1.375093818
-12.99993801 9.75167942 0.9125367999
-13.35279846 10.11013126 1.375630379
-12.59837437 9.39964962 1.790266037
-12.63579941 9.441351891 0.4811355472
-12.87722683 9.695491791 0.9126316309
-12.59992886 9.466036797 1.353605986
-12.58619308 9.444903374 1.789781094
-12.85805607 9.742070198 0.9104228616
-12.63321495 9.54942894 1.793820977
-13.0493679 9.976186752 2.288438559
-12.91512585 9.829179764 0.4540763795
-12.51999378 9.485307693 0.9147471786
-12.56164265 9.553030014 1.35054493
-12.68531704 9.66288662 1.798281908
-13.0304966 10.02509022 2.28822875
-12.86227226 9.84112072 0.4536947906
-12.48135281 9.508353233 0.913122654
-12.53575706 9.588765144 1.348845363
-12.53512955 9.583114624 1.787365556
-12.91085339 10.00691128 2.739276171
-12.43655109 9.494190216 0.4792191982
-12.70896339 9.785164833 0.906008184
-12.52122498 9.63555336 1.347453713
-12.48624611 9.593668938 1.784103036
-12.91034889 10.07044506 2.742822647
-13.16293335 10.25440693 0.4247521758
-12.67363644 9.812987328 0.9042341113
-12.64117241 9.8105793 1.34978056
-12.4559021 9.625067711 1.782277703
-12.98180962 10.16782951 2.288267612
-13.33336735 10.48588943 0.4085056782
-12.64264297 9.841877937 0.9024878144
-12.52820778 9.754078865 1.788255692
-12.87326622 10.15991497 2.743520498
-12.36907673 9.606245041 0.4723645151
-12.5799408 9.845760345 0.901172936
-12.50285912 9.794216156 1.786847353
-12.73007774 10.0520668 2.260966778
-12.45642948 9.785765648 0.9013438225
-12.24271679 9.60545063 1.335878253
-12.63746262 9.990467072 1.797629595
-12.93893433 10.3562994 2.762599945
-12.59820366 9.959469795 0.4477110505
-12.45496845 9.84954071 0.8986887336
-12.32387924 9.747766495 1.337051034
-12.58174992 9.998363495 1.793892145
-12.61973476 10.07001972 2.25127244
-12.91153336 10.39510059 2.761606216
-12.58422184 10.04536724 0.8930276632
-12.42189217 9.90400219 1.782217383
-12.6323204 10.15035057 2.255098104
-12.62061405 10.1695013 2.71418786
-12.616889 10.14241982 0.8896222711
-12.79503345 10.34962654 1.811318874
-12.89961433 10.49127388 2.291235685
-12.48402786 10.09807301 2.693943024
-12.55348492 10.2039032 3.171022177
-12.39493752 9.947033882 0.4496847689
-12.53704166 10.12552643 0.8888001442
-11.89537621 9.502130508 1.322480083
-12.1703558 9.776345253 1.764026046
-12.49616051 10.17523098 2.699883938
-12.55671692 10.27273083 3.177261591
-12.14706135 9.756337166 0.4637069106
-12.23571777 9.880278587 0.8932400346
-11.94340897 9.608884811 1.322791457
-12.50745773 10.21735287 2.245750666
-12.37567806 10.11534309 2.682235718
-12.54727268 10.32886982 3.180649281
-12.00212383 9.668710709 0.4702990651
-12.37407684 10.08311272 0.8874289393
-11.90746021 9.632539749 1.320825577
-12.12509251 9.851136208 1.761570692
-12.22935963 9.993091583 2.212504864
-12.2474947 10.04611588 2.663149118
-12.4261322 10.16709995 0.4347917438
-11.93771362 9.692635536 0.8953174949
-12.03727627 9.829493523 1.323192
-12.0731411 9.859624863 1.758110642
-12.28286266 10.11308289 2.221488953
-12.17343426 10.02926731 2.653498888
-12.40205383 10.20668316 0.4322342873
-11.73457146 9.54099369 0.8977171779
-11.91248131 9.760623932 1.318891287
-12.46421909 10.33406162 1.788686991
-12.54656029 10.45637226 2.257415771
-12.16610622 10.08573246 2.655995846
-12.50404835 10.48015308 3.187367439
-12.22374725 10.08402061 0.4413005114
-11.56557846 9.422904968 0.8993666768
-11.70733643 9.605149269 1.312530637
-11.94607735 9.851146698 1.749410033
-12.45317364 10.42419529 2.247724771
-12.33356094 10.32913113 2.689987898
-12.51645947 10.5609827 3.196021795
-12.17797184 10.09971142 0.4404252768
-11.55225468 9.468409538 0.8971742392
-11.6810503 9.638121605 1.310820341
-11.87523746 9.838389397 1.744495273
-12.59532261 10.64344215 2.268265486
-12.32635593 10.387784 2.692657232
-12.46127987 10.5695734 3.188999653
-12.25208569 10.2464447 0.4301557839
-11.54689884 9.522697449 0.8947609067
-11.55523872 9.564105034 1.306554317
-11.732481 9.747749329 1.734039068
-12.49902153 10.60809517 2.258215189
-12.2824831 10.4071331 2.68873024
-12.38265705 10.45227146 0.4156324863
-11.56692886 9.60778904 0.8915388584
-11.46666622 9.528987885 1.303260326
-11.7815733 9.863060951 1.738359213
-12.36706448 10.56974983 2.708308935
-12.46041107 10.60335922 0.4050240219
-12.18895531 10.38074303 1.320505381
-11.68758202 9.860671043 2.15817976
-11.72857094 9.907325745 0.8820095658
-11.73323154 9.94662571 1.307861328
-11.55326462 9.742105484 1.721855998
-11.75271606 9.9956007 2.168798685
-11.68637657 9.924058914 0.8804227114
-11.87461853 10.16669273 1.310322404
-11.40853024 9.64432621 1.711214542
-12.47642612 10.89774323 2.740798712
-12.25581455 10.61957932 0.862225771
-11.29927444 9.58427906 1.703304529
-11.25567532 9.596618652 1.700469375
-12.38903046 10.90577221 2.258481503
-12.07230759 10.5831337 2.675213099
-12.04535198 10.48306942 0.4144817889
-11.69909573 10.16551113 1.302591801
-12.14321232 10.69783401 2.228856325
-11.7685051 10.30608273 2.623450041
-12.0608778 10.56798172 0.4085333049
-11.36796665 9.819684982 0.8782866597
-12.01770306 10.65821934 2.673596382
-12.00602055 10.57362843 0.4082406163
-11.42009258 9.938892365 0.8741973639
-11.38477612 9.93334198 1.292695403
-11.61263752 10.18771076 1.729806423
-11.87146091 10.48428917 0.4147209525
-11.3859129 9.963377953 0.8723964691
-11.95191288 10.6445837 1.756760478
-11.75817776 10.42124462 0.4193108678
-11.65136814 10.33130836 0.8619809151
-11.7149229 10.43505287 1.738920093
-11.8068552 10.57936382 2.194221973
-11.69199562 10.41493893 0.4198329449
-11.53477001 10.26541328 0.8623527288
-11.27171612 9.994113922 1.286618948
-11.90327644 10.72628498 1.754227638
-11.76880836 10.60688591 2.191773176
-11.84175491 10.65732956 0.4025611281
-11.48617935 10.27795887 0.8607409596
-12.16091156 11.13946247 2.24613142
-11.5220623 10.34974861 0.4245865643
-11.44440651 10.29500103 0.8590714931
-11.65398407 10.57726574 1.293419719
-11.56124878 10.46406746 1.728856683
-12.14953995 11.19880199 2.247239828
-11.85203362 10.80810642 0.3918537796
-11.39138889 10.29517651 0.8578934073
-11.77029133 10.81741333 2.199465752
-11.60422802 10.65547752 1.289825082
-11.7093277 10.77539349 1.741657019
-11.75256729 10.82598019 0.3905911148
-11.47492123 10.53004742 0.8493068814
-11.39457703 10.47080898 1.283719778
-11.88340569 11.05671597 1.755929589
-11.72554207 10.86378288 0.3878765404
-11.54417706 10.68283844 0.8440412879
-11.35737514 10.49365997 1.281652212
-11.25331402 10.39633751 0.8502861261
-11.32641602 10.52412319 1.279726505
-11.6528635 10.92046356 0.383756727
-11.76414108 11.09427547 0.8305895329
-11.79283714 11.17063332 1.289141536
-11.5947504 10.91889477 1.735324264
-11.63419533 10.96887112 0.3802422285
-11.69919872 11.09012127 0.8292880654
-11.75949574 11.20263004 1.287076354
-11.59229088 10.98768044 1.735807776
-11.54406643 10.92847919 0.3830618858
-11.68110371 11.14045334 0.8265994191
-11.66897011 11.19861603 0.8236866593
-11.65468979 11.22222137 1.282017708
-11.45932865 10.96870327 1.726751924
-11.86560822 11.522295 0.8135985732
-11.62607288 11.26005554 1.280052066
-11.32283306 10.86397648 0.387393117
-11.82606983 11.54818058 0.8114927411
-11.58377647 11.2804594 1.277780294
-11.29295921 10.89734173 0.3848873973
-11.53776455 11.29594707 1.275426626
-70.23197937 87.51307678 10.21355915
-24.56975174 28.23632812 0.3520985842
-69.68766785 87.43028259 10.16255379
-69.12063599 87.31298065 10.10832787
-35.39555359 43.05729294 1.779797435
-68.48323059 87.09727478 10.04429626
-18.41190529 20.67085648 0.5512194037
-67.9586792 86.99449158 9.994478226
-18.26843834 20.61599922 0.5502547622
-18.02591324 20.37307739 1.40462327
-17.89796448 20.26862717 0.5572378039
-17.97224426 20.44293022 1.400915265
-17.76612091 20.15382195 2.235065699
-66.49334717 86.27430725 9.839164734
-17.55753517 19.95582199 0.5633420944
-17.95629501 20.57156181 1.397843003
-17.76659012 20.30269814 2.236565828
-66.35256195 86.74084473 9.844657898
-17.57155609 20.1215744 0.5559872389
-17.66857529 20.3286972 1.389196634
-17.76851845 20.45506859 2.23820281
-66.23029327 87.23651886 9.852949142
-17.52931786 20.21165276 0.5507358313
-17.54462624 20.3075695 1.383939147
-17.69336319 20.50253105 2.233703852
-66.08425903 87.70335388 9.858148575
-17.68864632 20.56027603 0.5384607315
-17.57007027 20.47173691 1.382084846
-17.47095108 20.33064842 2.217288494
-66.01374817 88.18274689 9.870445251
-17.27521324 20.12111282 0.5485671759
-17.33322525 20.27737236 1.374851704
-17.34967041 20.29733276 2.208944798
-65.91170502 88.65402985 9.879758835
-65.86759186 88.9705658 13.69693279
-17.1674366 20.10460854 0.5466036797
-17.24248505 20.29288292 1.370420575
-17.36049652 20.44922447 2.211185455
-17.56834984 20.82784653 3.084739447
-65.7472229 89.4226532 13.7145071
-17.03016472 20.05965614 0.545209527
-17.14489937 20.29818344 1.365859866
-17.22445297 20.40123177 2.201729536
-17.43935394 20.79224968 3.072236061
-16.98625183 20.13932991 0.5403277874
-17.12304497 20.41855812 1.362632394
-17.25596237 20.59897423 2.205806494
-17.16848183 20.55874062 3.039851904
-17.03444481 20.35187149 0.5315394402
-17.13352203 20.57940102 1.360131383
-17.13488388 20.57147789 2.197554588
-17.08972359 20.59186935 3.034373045
-16.89157104 20.29022789 0.5307412744
-16.8654232 20.3368187 1.352334261
-16.99151802 20.51045418 2.187499762
-17.00639153 20.61810684 3.028248549
-16.68941307 20.14766693 0.5322142243
-16.77054787 20.34368896 1.347848296
-16.96253967 20.61531448 2.186666489
-65.21170807 91.67195892 9.936861992
-16.86399651 20.54885483 0.517739892
-16.74416542 20.45840836 1.344496727
-17.00350189 20.8317337 2.191577673
-16.92653656 20.80577087 3.028770924
-16.70145988 20.45599747 0.5178619027
-16.74508476 20.60740471 1.341756582
-16.79684258 20.67495346 2.176398039
-64.93670654 92.67401886 9.952748299
-16.57200432 20.41041756 0.5165922642
-17.08250046 21.26242065 1.345053315
-16.82102013 20.86098289 2.179905176
-64.80636597 93.17491913 9.961405754
-16.58916664 20.58394241 0.5087510943
-16.51687622 20.56259918 1.332071781
-16.84957504 21.05574989 2.183794737
-64.6908493 93.70265961 9.972456932
-16.74403572 20.9680748 0.4945056736
-16.53173447 20.7349205 1.329522371
-16.64647102 20.90034103 2.16887784
-64.55274963 94.20067596 9.980483055
-16.5085907 20.76143837 0.4980581105
-16.73997688 21.20577621 1.330295205
-16.91838264 21.47003365 2.192612886
-64.47707367 94.79919434 9.99786377
-16.51991463 20.93058777 0.4902240932
-16.62567139 21.18468094 1.325401068
-16.53672028 21.11013412 0.4820232391
-16.6705265 21.41040993 1.323218942
-16.44571495 21.12333107 0.47887972
-16.50331306 21.30612373 1.317432761
-16.39980125 21.20702171 0.4735548496
-19.03585815 25.46901512 1.356208444
-58.01566315 88.24887848 16.48478127
-16.3801136 21.33291626 0.4668965042
-18.94907379 25.52136612 1.351179719
-18.67527962 25.16084671 0.3449918032
-18.80715179 25.4851284 1.345261812
-18.87290955 25.58035851 2.363511801
-18.55583 25.15738678 0.3417977989
-18.8601265 25.76296043 1.342440605
-18.80677795 25.66632652 2.36012435
-18.37052536 25.05553055 0.3415251374
-18.82355309 25.89823532 1.338154435
-18.70889664 25.70103073 2.354130268
-56.21236801 87.2620163 9.000495911
-18.20182037 24.96886253 0.3409624696
-18.7153511 25.92684746 1.332553744
-18.77068901 26.0077343 2.361434221
-55.73501205 87.18984222 8.957796097
-55.68078232 87.47657776 12.53047371
-18.07530403 24.95907784 0.3378197849
-18.44003487 25.66809082 1.324631333
-18.59123039 25.90878487 2.348719358
-55.24517059 87.05836487 8.9117136
-55.05220413 87.5302124 16.05432129
-18.03367424 25.07045746 0.3311505318
-18.48225594 25.92509079 1.321681619
-18.49270248 25.94261169 2.34269309
-54.84130478 87.03198242 8.877118111
-18.06523514 25.30542946 0.3205009997
-18.21009254 25.66596794 1.313901782
-18.48423576 26.11774635 2.344038963
-54.770298 87.59980774 8.894468307
-18.02215958 25.54482079 1.307414293
-17.94233704 25.48707581 0.3079523742
-17.92104149 25.56942558 1.3021909
-18.25365829 26.12891388 2.329232931
-17.85654449 25.53710747 0.3029536903
-17.74869728 25.47078514 1.295989871
-18.08845139 26.04732895 2.31766057
-17.88137436 25.89998817 1.293942571
-17.60846329 25.6345768 1.286217093
-17.51331139 25.66796875 1.281080246
-50.97629547 85.19892883 8.483271599
-50.96405411 85.56378937 11.92008114
-50.82172775 85.73573303 15.37064075
-17.70585442 26.21375656 1.279579043
-50.79496765 85.14656067 5.077480316
-50.59867477 85.21559143 8.453105927
-50.57224655 85.5570755 11.88078022
-50.49148941 85.84059143 15.34297848
-17.51638985 26.08140755 1.273192763
-50.40390396 85.1370697 5.052193642
-50.4360733 85.61789703 8.456602097
-50.48093033 86.52708435 15.41274929
-17.45561028 26.17916107 1.268411636
-17.38759422 26.26451874 1.263523102
-24.54881859 39.98832703 1.335247636
-23.89305687 39.4112854 1.315356731
-24.06833076 40.07181931 1.310732722
-32.9376297 57.92547989 1.382653832
-32.39974213 57.36549759 1.367977977
-18.70570564 30.86659431 1.235917687
-18.54634857 30.8104496 1.229389668
-18.22444534 30.43932915 1.22129488
-14.6310339 23.22424126 2.064221859
-14.52849674 23.10820198 0.322236836
-14.49861526 23.15876389 1.186753392
-14.51864147 23.19321251 2.056714296
-14.4601965 23.15521049 0.3175981045
-18.05337906 30.61314011 1.209619164
-14.44176769 23.23345947 2.052289486
-17.84666824 30.45140076 1.202882767
-17.5769825 30.14195061 1.196046233
-17.53268814 30.31178856 1.190519929
-7.509686947 9.396966934 2.113152742
-17.41983795 30.33883858 1.184526563
-7.506825924 9.464416504 2.117948055
-7.669520378 9.702332497 0.4437384307
-7.644797325 9.699595451 0.7843852043
-7.624269962 9.701605797 1.123458862
-7.503899097 9.540575027 2.123401403
-7.482294083 9.53980732 2.459112167
-7.631176472 9.700426102 0.4431771636
-7.604798794 9.694000244 0.7833289504
-7.543729782 9.610495567 1.457227707
-7.510285378 9.634192467 2.131047726
-7.481091499 9.621242523 2.467736483
-7.554980278 9.711050987 1.459112644
-7.529750347 9.706778526 1.797041655
-7.479964733 9.695961952 2.475660801
-7.463364601 9.711418152 2.821990013
-17.24620438 31.05236435 1.161811948
-7.527872562 9.784496307 1.800280571
-7.534244537 9.846549034 2.149303198
-7.48413229 9.787740707 2.486006021
-17.27934837 31.40631866 1.156306386
-7.527952671 9.86776638 1.803920031
-7.48851347 9.881466866 2.496599197
-15.46229172 27.63147163 1.143889666
-7.547569752 9.94289875 1.461363673
-7.535612583 9.969372749 1.80895412
-7.4835186 9.95539856 2.504066706
-17.06475449 31.49798203 1.144013286
-7.546010494 10.02462292 1.462227821
-7.511593819 10.05531216 2.163051605
-7.479640484 10.03303719 2.512069464
-15.28934956 27.74534798 1.133164406
-7.513725281 10.14789391 2.170289993
-15.11035061 27.59004211 1.127563357
-7.510547161 10.22964096 2.176229715
-14.53134251 26.50257874 1.121261597
-7.507708549 10.30894089 2.18202424
-14.74034214 27.23988342 1.116555691
-14.8480835 27.48718071 2.127737522
-14.55348873 27.05414963 1.111168027
-14.74450588 27.51401329 2.121563435
-14.46381378 27.09620857 1.105916142
-14.59614086 27.40747452 2.111000776
-14.33263016 27.03818321 1.100654006
-14.56493473 27.59389496 2.111274719
-14.23387337 27.05727577 1.095410824
-14.22519588 27.03153419 2.083303213
-14.17796421 27.19459152 1.08986187
-14.17689705 27.1874752 2.08215642
-14.04149532 27.12030411 1.084652424
-14.03004837 27.08748436 2.071790695
-13.96927738 27.20519447 1.079356551
-13.93946743 27.12607002 2.066607475
-13.98089981 27.50389099 1.073825002
-13.79026127 27.27572823 1.069067955
-13.75662708 27.46255112 1.063576221
-14.03513336 28.17980766 2.08529377
-13.62758064 27.40284729 1.058405519
-13.58112907 27.55957031 1.052883744
-13.45240974 27.49900246 1.047734857
-8.881839752 15.4377737 1.068565965
-8.744673729 15.12983322 0.5376754403
-8.760983467 15.26487732 1.066109419
-8.700263977 15.15452671 0.5346735716
-8.661837578 15.14773178 1.06358254
-8.617300034 15.08033657 0.5354900956
-8.570214272 15.04699421 1.586602926
-8.477546692 14.94394302 1.058588386
-31.13038826 81.09414673 15.79409695
-8.488380432 15.03063583 0.5332192779
-8.402107239 14.88570118 1.056019545
-8.456947327 15.04067993 1.579537392
-30.93354225 80.83798218 12.70929813
-30.78738785 81.00627136 15.74398041
-8.346784592 14.88379574 1.053288817
-8.170637131 14.37424088 1.55369091
-30.86447906 80.41819 6.712379456
-30.74489784 80.6529541 9.681705475
-30.60527992 80.78900146 12.67213726
-8.215200424 14.56692219 0.5475885868
-8.318260193 14.96765041 1.050121665
-8.254749298 14.78090763 1.563884616
-8.398663521 15.30626583 2.11248827
-8.29403019 15.09514141 2.622779131
-8.185598373 14.63612747 0.5427107811
-8.28395462 15.02791786 1.047150254
-8.204425812 14.79180527 1.560924888
-8.345895767 15.31587982 2.109082937
-8.45940876 15.75566006 2.688777685
-8.162596703 14.72612 0.5369612575
-8.096777916 14.62455654 1.046117067
-8.15789032 14.81389236 1.558339596
-8.305708885 15.35475731 2.107934952
-8.137024879 14.95307064 2.598373413
-30.30139732 82.74798584 12.86325932
-8.125638008 14.76792049 0.5332553387
-8.21862793 15.15311623 1.041266084
-8.187829971 15.05894756 1.56321454
-8.13507843 15.00570107 2.07963872
-8.130095482 15.1999197 3.150221109
-8.11856842 14.90911484 0.5253501534
-7.938182831 14.46425819 1.041466117
-7.978686333 14.58701038 1.544531703
-8.054467201 14.92515564 2.070129395
-7.846652985 14.38067818 2.528869152
-8.065765381 15.1710701 3.140892029
-8.064135551 14.9079113 0.5232601762
-7.900112152 14.5081768 1.038632631
-7.936499596 14.61974144 1.542354226
-8.003133774 14.93353081 2.066809416
-8.003834724 15.03688335 2.593904495
-7.987717152 14.83801651 0.5240046382
-7.831278801 14.44836521 1.036404133
-7.95665741 14.94854164 2.064152241
-7.988015175 15.15908337 2.602286339
-7.968814373 14.93838596 0.5178114772
-7.774997234 14.43475819 1.033843756
-7.872672081 14.7431488 1.539987445
-7.913054943 14.98131657 2.062524319
-7.94067812 15.18253136 2.600244045
-7.916256428 14.94232368 0.5154900551
-7.742096424 14.49538326 1.030914187
-7.792250156 14.65533924 1.533977985
-8.019188881 15.49821186 2.093855858
-7.777646065 14.82078457 2.558090448
-7.913526535 15.10637379 0.5064733028
-7.679372311 14.46037865 1.028468251
-7.778641701 14.89377499 2.048887968
-7.890359879 15.3671999 2.610802889
-7.868668556 15.13683796 0.5030029416
-7.697895527 14.69104958 1.024585724
-7.653198242 14.54356766 1.524096966
-7.728703976 14.90496635 2.04584384
-7.831937313 15.35601807 2.605144262
-7.734977722 14.87454987 0.5118397474
-7.686074734 14.82624722 1.021157146
-7.610807419 14.57527161 1.521912336
-7.666196346 14.87389755 2.039968491
-7.742590427 15.23964119 2.588597775
-7.714147091 14.99130535 0.5046316385
-7.587881088 14.68231106 1.019180179
-7.541413784 14.52514553 1.517060041
-7.661795139 15.04816723 2.047694206
-7.733047962 15.40248203 2.600826025
-7.645194054 14.93871307 0.5046719909
-7.525207043 14.64655495 1.016740322
-7.465818882 14.44330025 1.511434913
-7.569617748 14.91518116 2.035033226
-7.638420582 15.26444244 2.582154989
-7.61133337 15.00475597 0.4996746778
-7.543356419 14.8891201 1.012577295
-7.523509502 14.93905544 2.032883644
-7.533377171 15.08571053 2.559406996
-7.452190399 14.63672066 0.5131946802
-7.569739342 15.16659451 1.008098483
-7.638964176 15.40894222 1.53411603
-7.44741106 14.8571434 2.023736954
-7.491460323 15.12679577 2.559339285
-7.388999462 14.59647179 0.5127712488
-7.462546349 14.97660828 1.006616116
-7.519579411 15.17896557 1.523975015
-7.306477547 14.5403204 1.999164939
-7.484882355 15.29627991 2.572403431
-7.348780632 14.63676739 0.5088895559
-7.375461578 14.85349655 1.004752636
-7.423249245 15.02538395 1.51619947
-7.269525051 14.5921669 1.998981714
-7.421599388 15.26236343 2.56464839
-7.344530106 14.80791759 0.4993389547
-7.31866312 14.82765865 1.002389312
-7.38034153 15.06219006 1.514069557
-7.210050106 14.55273151 1.992996216
-7.334273338 15.1378479 2.547724962
-7.306804657 15.16584682 3.070961237
-5.963918686 9.929695129 0.7086705565
-7.263310909 14.81576538 0.9998037219
-7.455950737 15.66086292 2.061628342
-7.281584263 15.13986397 2.543727875
-7.254529476 15.15956593 3.065628052
-7.298719883 15.01487637 0.4860602915
-7.223549366 14.86162949 0.9967977405
-7.206222534 14.79670238 1.500182867
-7.189788818 14.86229038 2.005979538
-7.243517399 15.18723202 2.544546843
-5.801980019 9.57374382 0.7213549018
-7.177408218 14.88417244 0.9939528108
-7.133876324 14.7187376 1.494827867
-7.105386257 14.73809719 1.994344711
-7.166342735 15.09447193 2.531025171
-5.773754597 9.589373589 0.7192944288
-7.131156445 14.90656185 0.9911023378
-7.294408321 15.53646851 1.514907241
-7.056156158 14.7468853 1.991350174
-7.136021137 15.18267441 2.535771847
-7.137935162 15.00315475 0.4798596799
-7.075384617 14.89198303 0.9885395169
-7.149338245 15.18165016 1.501652837
-7.116131783 15.18703079 2.016023397
-7.089148045 15.20712376 2.534100294
-7.076934338 14.96914864 0.4791129529
-7.012923241 14.85003376 0.9862073064
-7.037545681 14.94814014 1.491950512
-7.082752228 15.26557827 2.017395258
-7.031163692 15.18697166 2.527980089
-7.209969044 15.70825386 0.4441301823
-5.664392948 9.623203278 1.027176976
-7.016011715 15.0710659 1.492226243
-7.026010036 15.25101566 2.012821198
-7.085439682 15.62692547 2.567750216
-7.004141331 15.09631252 0.4689605832
-5.6249547 9.593766212 1.025763035
-6.98511982 15.1590519 1.491496682
-7.022469044 15.45547676 2.022145748
-6.95102787 15.29309845 2.530394554
-6.910871029 15.06870365 0.9763084054
-7.001350403 15.59212112 2.027104139
-6.902235985 15.31112957 2.528119326
-5.556173325 9.486884117 0.7155453563
-5.690922737 10.13532162 1.017703176
-5.635978699 9.911108017 1.343425035
-6.949047089 15.58825874 2.023361921
-6.845250607 15.29409122 2.522390842
-5.543327332 9.55969429 0.7109588385
-6.846337318 15.22783375 0.9695922732
-5.589310646 9.846138 1.33979857
-6.905040264 15.63148975 2.022401571
-6.794196606 15.30205822 2.519158363
-5.508155346 9.545278549 0.710209012
-5.60991621 10.07821941 1.014713883
-5.469531059 9.55841732 1.639988184
-5.456124783 9.54712677 1.018002152
-6.773491383 15.37147808 1.481555104
-5.382233143 9.310126305 1.622421503
-5.434495926 9.506615639 0.7090896368
-5.364506721 9.369379044 1.624014258
-5.530712128 10.22606945 2.011254787
-5.533042908 10.34138012 2.362810373
-5.403926849 9.597639084 1.014212489
-5.454575062 9.829656601 1.331542253
-5.479030609 10.04127979 1.663342118
-5.491539955 10.20211792 2.006375313
-5.329150677 9.533450127 2.252282143
-5.37977314 9.536985397 0.7049641609
-5.418079376 9.803295135 1.010575294
-5.457942486 9.996738434 1.333897114
-5.477878094 10.18456745 1.67001605
-5.306034088 9.474330902 1.933249712
-5.305130482 9.569120407 2.254453659
-5.424173832 10.2413969 2.683062315
-5.352834702 9.550901413 0.7029828429
-5.300433636 9.400999069 1.012999535
-5.440658092 10.06384945 1.33373487
-5.441833496 10.17392826 1.667104959
-5.245285988 9.29199028 1.012440205
-5.222970963 9.281529427 1.610400915
-5.292753696 9.821107864 2.282734156
-5.290955544 9.9207201 2.622757912
-5.18621254 9.057004929 0.7229026556
-5.24525404 9.441041946 1.009262085
-5.19770813 9.307152748 1.609931707
-5.201385021 9.522033691 2.24055934
-5.334271908 10.31068039 2.685587645
-5.164926052 9.098002434 0.719655633
-5.20878458 9.413720131 1.007935047
-5.221977234 9.480319023 1.31320405
-5.159472466 9.268075943 1.605549693
-5.297495365 10.0659647 1.980924487
-5.181149006 9.578761101 2.245539188
-5.116850376 9.352140427 2.521412611
-5.219190598 9.519057274 0.6986960769
-5.194955349 9.500055313 1.005368114
-5.252371788 9.792331696 1.31904757
-5.159683704 9.424805641 1.612977386
-5.181245327 9.634355545 1.937135935
-5.148684502 9.573099136 2.242285967
-5.104147434 9.447216034 2.534719944
-5.116947174 9.15631485 0.7142170668
-5.154335022 9.450912476 1.004285336
-5.154538155 9.452934265 1.308855057
-5.048659325 9.005086899 1.585788369
-5.117545605 9.464227676 1.918580174
-5.126099586 9.619960785 2.245955467
-5.050077438 9.321060181 2.510921478
-5.090043068 9.171634674 0.7121268511
-5.111466408 9.387841225 1.00338006
-5.020409107 9.010528564 1.584188581
-5.086611271 9.464097977 1.916330099
-5.073235035 9.502873421 2.22811532
-5.092938423 9.726754189 2.576166868
-5.067517757 9.695455551 2.892036915
-5.068235397 9.214352608 0.7087386847
-5.172124386 9.879092216 1.315428257
-5.065307617 9.516757011 1.919110417
-5.051310539 9.553430557 2.232294559
-5.033103943 9.559300423 2.545639277
-5.109068394 10.11461639 2.974394798
-5.044331074 9.239070892 0.7062523365
-5.08198595 9.554186821 1.305884123
-5.042958736 9.565449715 1.92149961
-5.021291256 9.550912857 2.229652643
-5.014704704 9.747177124 2.896898508
-5.060036659 10.1442728 3.318937302
-5.034950733 9.251889229 0.4069734812
-5.0248909 9.297399521 0.7020922899
-5.033830643 9.459313393 1.301810384
-5.007418633 9.531429291 1.916166544
-5.000914097 9.613075256 2.235334396
-5.004056454 9.247243881 0.4061413109
-5.017971992 10.02934265 2.615838289
-5.000836372 10.19834042 3.32531929
9.332809448 48.5916214 1.047172308
9.422263145 48.29801941 1.038863778
9.58737278 48.25268173 1.029836893
9.738436699 48.12549591 1.020503402
10.00296688 48.43112183 1.010854125
10.1563673 48.34147644 1.001897335
10.41745758 48.65311813 0.9925197363
10.44789219 48.1439476 0.9845631719
10.71075439 48.45391464 0.9750937819
10.90536785 48.49978638 0.9657857418
33.608284 110.2302704 4.625381947
34.00591278 110.150116 4.606247425
15.35134697 55.57260895 0.8295611143
34.38378525 110.0118713 4.58531332
15.52202892 55.44986725 0.819498539
15.65748978 55.22851944 0.809997201
15.81448555 55.07094193 0.8002151847
21.09962845 64.97896576 0.6581996679
21.22878075 64.65035248 0.6478217244
21.45577431 64.60900879 0.6360926032
32.98102188 93.45679474 3.892805576
21.71445847 64.6145401 0.6233770251
33.66250992 93.29409027 3.860686541
34.02188492 93.25714874 3.846021652
41.00317764 101.3915176 3.957738876
19.72175789 53.13662338 0.5841900706
20.15297318 53.12266922 0.5630437136
42.10677338 101.090416 3.906619549
20.59109688 53.14212036 0.542001009
20.57052422 52.62256241 0.5369352698
20.79825211 52.63962555 0.526109159
24.26299858 55.09888458 0.3877018094
24.55821609 55.20775223 0.3748212755
24.62904358 54.88248825 0.3677551448
1.575061083 10.56133842 0.9670043588
1.609641433 10.54533291 0.9651759863
1.624380827 10.49216175 0.9638767242
1.653758526 10.4627552 0.9621501565
1.678711653 10.43331146 0.9606358409
1.567506552 10.18453503 1.332811952
1.695574999 10.38536167 0.9593009949
1.596938968 10.16160679 1.330950379
1.698478222 10.30571175 1.710025072
1.543219328 9.982009888 2.053766012
1.632092834 10.14907742 1.329355121
1.728301525 10.28242207 1.707934022
1.572880745 9.961087227 2.051709652
1.587538242 9.997696877 1.324403882
1.828446984 10.38438416 1.713962913
1.683213115 10.13603783 0.9571199417
1.564217806 9.882413864 1.320317745
1.755440474 10.13970757 2.070797443
1.994776964 10.47514343 2.890511036
1.717341185 10.12136936 0.9553461671
1.605371475 9.882135391 1.319069982
1.8630687 10.29615688 1.707162142
1.577558517 9.755221367 2.030584097
1.624711394 9.843510628 1.316894054
1.799173117 10.10963726 1.694575548
1.605384946 9.732478142 2.028393745
1.779866576 10.0791378 0.5814973712
1.818379521 10.14886475 0.9508842826
1.742279768 9.978916168 1.318989515
1.752077222 9.954768181 1.68406105
1.697292924 9.819789886 2.037788868
1.907156348 10.14156628 2.450334549
2.008476257 10.27183151 2.857727051
1.871343732 10.16693497 0.5738906264
1.510090113 9.54633522 0.9588011503
1.757224679 9.93562603 1.316764116
1.789074302 9.949505806 1.683239818
1.790316224 9.910920143 2.047593832
1.941737413 10.1306982 2.449702978
2.056555748 10.28274727 2.861495256
1.685938835 9.775510788 0.5934311152
1.82001996 10.0114975 0.9493054748
1.882760406 10.07769775 1.318910956
1.832173228 9.954421043 1.683082938
1.917466164 10.05810928 2.063315153
2.171524048 10.44459343 2.496665955
2.178618908 10.41722584 2.888517618
1.714820147 9.7538414 0.5919796228
1.88318944 10.04629803 0.9467171431
1.88316381 10.00556564 1.315940738
1.881577134 9.962438583 1.683084965
1.908533573 9.970925331 2.054414034
2.207792997 10.43014717 2.495641947
2.230684757 10.42550945 2.89207387
1.801256299 9.825619698 0.5850009918
1.79312706 9.818421364 0.9484690428
1.918493986 9.989284515 1.314246416
1.841328025 9.82379818 1.673691511
1.832885027 9.770309448 2.033600569
2.271331549 10.45704651 2.500756502
2.044737577 10.04450417 2.82225585
1.76769805 9.699016571 0.5896070004
1.790299296 9.743257523 0.9477880597
2.055183649 10.14521122 1.316656113
1.805837035 9.691466331 1.664704442
1.862720966 9.75014782 2.031775236
2.326251745 10.4727459 2.504205465
1.976175308 9.85771656 2.78902626
2.286400318 10.32297802 3.27668786
2.151115894 10.27252674 0.5537405014
1.799937963 9.693122864 0.9467957616
2.084153414 10.12777805 1.315111995
1.803299546 9.625390053 1.660059929
1.899246931 9.744417191 2.031469107
1.909261465 9.725421906 2.395555258
2.049771786 9.914777756 2.801496267
2.152634382 10.20145893 0.5550021529
1.797885537 9.624220848 0.9461501241
1.793501973 9.579090118 1.301136017
1.765865207 9.496273994 1.651342392
1.787610292 9.497599602 2.00577879
1.931626678 9.693260193 2.391934872
2.475059032 10.53437233 2.920402288
1.989924908 9.863066673 0.5720398426
1.837656975 9.621024132 0.9442580342
2.268342972 10.24705219 1.699060321
1.856358886 9.541941643 2.010787487
1.984244943 9.709907532 2.395508289
2.122376204 9.895918846 2.80172658
2.270067453 10.09171867 3.231254578
2.022187233 9.845476151 0.5702775717
1.852272868 9.576807022 0.9431029558
2.096072912 9.93302536 1.306875467
2.307203531 10.23718166 1.697979808
1.880100489 9.513260841 2.008117676
2.145678997 9.899461746 2.424559116
2.152617455 9.874929428 2.799744368
2.31043148 10.08523464 3.232633352
2.102415323 9.908463478 0.5638571978
1.917323589 9.614114761 0.9404690266
1.830569983 9.441200256 1.294507384
2.162579536 9.934412003 1.678165674
1.967380047 9.585673332 2.016124725
2.349983454 10.11728477 2.847719431
2.347652435 10.07361889 3.232857227
2.139088631 9.897239685 0.5616821647
1.997096896 9.677453041 0.9374286532
2.257400751 10.05397606 1.307217717
2.210022449 9.940061569 1.678112388
2.030230999 9.621527672 2.020277977
1.928429127 9.424450874 2.356889486
2.314491034 9.995023727 2.826515436
2.390690327 10.07442093 3.235858679
2.081022978 9.742763519 0.934218049
2.339579582 10.11327553 1.30730927
2.033002377 9.596018791 1.65574038
2.015531063 9.531874657 2.011220932
1.974165201 9.430780411 2.35901022
2.269123793 9.855500221 2.802112818
2.507891417 10.18608379 3.26489687
1.99467802 9.532299042 0.5780192614
2.006634951 9.557865143 0.9357190132
2.514809847 10.31704235 1.310617089
1.934993625 9.376725197 1.641354442
2.135082006 9.651801109 2.024307013
2.111617327 9.578565598 2.38205409
2.211024046 9.698173523 2.774291277
2.305127621 9.950117111 0.549849689
2.018434525 9.509967804 0.9346666932
2.4620924 10.16322708 1.305922151
1.962328792 9.354481697 1.639572501
2.269629478 9.792728424 2.03964138
2.138560534 9.554216385 2.379712105
2.388655901 9.903335571 2.81549716
2.231466055 9.767009735 0.5581196547
1.977889299 9.381461143 0.9351959229
2.041875124 9.412487984 1.642920017
2.312566757 9.791090965 2.039936781
2.30591917 9.74382782 2.409058809
2.553648472 10.04709053 3.241746426
2.098416805 9.498482704 0.5718805194
2.115406752 9.528213501 0.930365622
2.103848219 9.478046417 1.288428307
2.274161339 9.702162743 1.661037922
2.357751608 9.792590141 2.040581703
2.17969346 9.489690781 2.372672558
2.480720282 9.907164574 2.820662022
2.590906858 10.03451824 3.241972446
2.168064594 9.54633522 0.9281193018
2.17329073 9.518630981 1.288155913
2.010756493 9.237240791 1.631075144
2.460945368 9.884548187 2.050791979
2.205174923 9.463481903 2.37010622
2.534643173 9.923753738 2.825990915
2.679092646 10.1010685 3.260653019
2.729703665 10.13724136 3.678040743
2.691340446 10.26546478 0.5186491013
2.176124334 9.493122101 0.9271931052
2.313818693 9.665486336 1.290179729
2.259306431 9.480051994 2.373909235
2.412615538 9.675304413 2.780715704
2.60988307 9.930314064 3.223775864
2.734443665 10.07568073 3.665072441
2.694054127 10.19883442 0.519720614
2.25479126 9.546502113 0.9241163731
2.272110462 9.537138939 1.286231279
2.024997711 9.136770248 1.62406683
2.356454372 9.59527874 2.021218538
2.551591635 9.848229408 2.430003643
2.488624811 9.721979141 2.791947842
2.692152977 9.983998299 3.239686489
2.76524806 10.05278778 3.662930489
2.995475769 10.58596897 0.9007197618
2.565304279 9.911175728 1.293143868
2.317591667 9.508091927 1.647380114
2.601281643 9.857920647 2.432829618
2.504813433 9.680187225 2.786250353
2.54147768 9.697367668 3.17539835
3.001769066 10.52625942 0.8998144865
2.595548153 9.888364792 1.291446328
2.25649786 9.354148865 1.637294054
2.206292152 9.249670029 1.985642195
2.496852636 9.606883049 2.77438879
2.562725782 9.666396141 3.171187878
2.444643736 9.635565758 0.9162915945
2.274514437 9.354616165 1.278998971
2.206510782 9.221487045 1.628593683
2.28731966 9.305392265 1.992115259
2.587949514 9.67389679 2.789662361
2.589845181 9.64078331 3.168429375
2.624452114 9.82841301 0.5312054753
2.315266132 9.384875298 0.9196695089
2.273336411 9.289996147 1.276504755
2.129888058 9.048830032 1.61735785
2.315106153 9.286349297 1.990643859
2.384487629 9.352337837 2.361815691
2.404219627 9.349573135 2.729420662
2.619851589 9.622561455 3.167281389
2.649446726 9.80140686 0.5300631523
2.405025721 9.451732635 0.9162316918
2.260075569 9.211698532 1.273798943
2.090669155 8.935150146 1.609897375
2.503594637 9.463080406 2.379771709
2.429059267 9.322799683 2.726617336
2.685004234 9.78636837 0.5280014277
2.445868492 9.45016098 0.9143428802
2.6393013 9.693332672 1.282691956
2.126657009 8.927165985 1.609143972
2.191954851 8.991119385 1.960428119
2.566597939 9.489378929 2.385231972
2.640832186 9.562908173 2.775326729
2.707398176 9.621544838 3.173663616
2.743464231 9.803891182 0.5238255858
2.482518435 9.439176559 0.912552774
2.210873842 9.019298553 1.267601609
2.524085999 9.434004784 1.64105165
2.277710676 9.05268383 1.967589259
2.537781239 9.385935783 2.371292591
2.878766775 9.83278656 2.830095291
2.72971797 9.589092255 3.169399261
2.507633209 9.411702156 0.9111260176
2.302722692 9.089118004 1.267947912
2.260934591 9.001246452 1.613384247
2.54804635 9.371594429 2.002183914
2.514098644 9.290862083 2.358598232
2.673331976 9.482052803 2.764677763
2.784075737 9.601159096 3.175777197
2.607950926 9.490087509 0.9073302746
2.326578856 9.062366486 1.266308904
2.306574821 9.00557518 1.613437176
2.545614004 9.273314476 2.357539177
2.73216176 9.500806808 2.770870686
2.844369888 9.620894432 3.184044361
2.896752834 9.822189331 0.5133740902
2.868416071 9.790586472 0.8984537721
2.223061085 8.85858345 1.26109457
2.383872747 9.053414345 1.616254449
2.422219992 9.074629784 1.971880555
2.682175159 9.400154114 2.378213644
2.758580923 9.474571228 2.768359184
2.954324722 9.839715004 0.5092478395
3.062011957 9.993693352 0.8916553855
2.264625549 8.860676765 1.260128498
2.339428663 8.932789803 1.608416319
2.477677822 9.091129303 1.974330425
2.716133595 9.38788414 2.377936363
2.814152002 9.488051414 2.7736094
3.047708035 9.90265274 0.5019184947
3.243725061 10.1805582 0.8852387667
2.326509714 8.887418747 1.259602189
2.424026012 8.989843369 1.611835003
2.531893015 9.108385086 1.976846457
2.821093082 9.468673706 2.391793728
3.075126886 9.877589226 0.5005627871
3.052800417 9.851994514 0.8906655312
2.677294493 9.30971241 1.266976714
2.607246637 9.18248558 1.623845458
2.482205629 8.981777191 1.964038491
2.740489721 9.301299095 2.368165255
3.039695263 9.772264481 0.8904725313
2.33188653 8.781787872 1.255446196
2.83139348 9.424226761 1.638952255
2.708978891 9.230502129 1.991349936
2.669798374 9.146203995 2.346438885
3.043066978 9.580704689 3.192497253
2.991906404 9.643415451 0.8913725615
2.818216324 9.377149582 1.266061306
2.871537447 9.419311523 1.638477683
2.842046022 9.34762764 2.004669666
2.690118074 9.113793373 2.343246937
3.118390322 9.740857124 0.5001887083
2.983390808 9.535821915 1.268022656
3.034589767 9.574249268 1.648105741
3.014467478 9.514792442 2.023394823
2.812329292 9.215772629 2.360439539
2.975733519 9.490739822 0.5141990185
2.78799057 9.246506691 0.8967270255
2.885324955 9.346837997 1.263280749
2.766540051 9.158493996 1.621687889
3.091529608 9.554041862 2.028449297
2.862720728 9.22503376 2.363541603
3.025871515 9.502804756 0.8884573579
2.83210516 9.21906662 1.259762764
2.904273033 9.250868797 1.996718764
2.876909971 9.186845779 2.3594625
3.170844078 9.633665085 0.8831726313
3.02383256 9.412363052 1.26240325
2.846651793 9.150258064 1.620916724
2.934311152 9.232941628 1.995605469
2.894566298 9.15336132 2.356110334
2.880343199 9.196204185 0.892062068
2.806619167 9.069840431 1.254786491
2.868018866 9.118715286 1.618808508
3.404630661 9.781292915 2.055425644
3.330463171 9.717669487 0.8767770529
2.914837837 9.15045929 1.255222201
3.355937243 9.688293457 1.654655099
3.503100872 9.843659401 2.063094139
3.181365967 9.40103054 2.397661209
3.266723394 9.569618225 0.8782284856
2.735331059 8.859339714 1.248639941
2.853540659 8.983242989 1.610058308
3.213644028 9.37834549 2.396267653
25.87848663 37.7370224 10.11397457
3.697659492 10.05243492 0.8634421825
2.792761087 8.875267029 1.247883439
3.173265934 9.326478004 1.631625414
3.316612005 9.475856781 2.025488615
3.696894884 9.989317894 0.8628752232
2.814153671 8.848153114 1.246383429
3.191159964 9.291940689 1.629374623
3.338729382 9.445631981 2.023159981
25.85368919 37.20081329 10.01756954
3.355508566 9.499462128 0.8735660911
2.858057737 8.84642601 1.245302677
3.186389208 9.229337692 1.625363946
3.428241491 9.499156952 2.029901028
26.02456284 37.15485382 10.02444553
2.841792822 8.769747734 1.242862582
3.209091187 9.198318481 1.623353601
3.298673391 9.278596878 2.00705409
26.29263306 37.22665024 10.06054878
3.220304489 9.153300285 1.620472074
25.29652023 35.89400101 8.109750748
25.55566406 36.07914734 9.795576096
20.76579666 30.59710312 1.631470799
3.24395442 9.12375164 1.618577361
25.1725502 35.5105629 8.045655251
25.67186546 35.9843483 9.789486885
20.33330536 29.9654541 0.3049910665
20.69631958 30.30244637 1.622325659
3.260963202 9.089149475 1.616376042
24.83705711 34.86539459 7.929489136
26.60993958 36.85879135 10.02500057
20.3771801 29.81267738 0.3016085625
20.76290703 30.17493248 1.616207242
3.280516148 9.054883003 1.614205956
26.81475258 36.85000229 10.04199219
17.54135513 26.11757851 1.541512012
25.67046356 35.37591553 8.059704781
26.7324276 36.50174332 9.974597931
17.60138893 26.10041046 0.3911780119
17.66513062 26.08704376 1.537665844
25.44084167 34.87713242 7.972178459
26.91896057 36.48373795 9.988593102
17.80510521 26.16414261 0.3826854229
20.93611526 29.78498077 1.598317027
25.62333488 34.85242844 7.981205463
26.76063347 36.0516243 9.900108337
18.0439415 26.27624702 0.3730786443
21.02754974 29.6890831 1.592880845
26.05848312 35.13113022 8.051301003
17.83514977 25.84455681 0.3784314394
18.18860245 26.17797852 1.52944994
26.56229401 35.45967102 8.133407593
25.1554966 33.61831665 10.921628
17.77412033 25.60697556 0.3789878488
21.37034035 29.69293213 1.5855757
26.6217556 35.29878235 8.1147089
24.34233856 32.48020554 10.60161495
17.79688072 25.46828461 0.3767251074
26.80866241 35.51323318 4.897900105
26.21212578 34.71350098 6.401102066
24.58162117 32.53072739 10.63989067
18.37286186 25.95561218 0.3555710316
26.80513573 35.26760483 4.876178741
25.84795952 34.06633377 6.309452534
27.64209175 35.98303604 8.284214973
24.54071426 32.26579285 10.58314419
18.43630028 25.85205269 0.3518342376
26.96173859 35.20423508 4.874537468
25.98131943 33.99664688 6.307940006
27.6981945 35.80197525 8.262730598
29.57253456 37.65090942 12.23736095
27.02992821 35.0533638 4.863062859
26.88957977 34.77894592 6.44135046
27.68124771 35.55284882 8.22649765
30.15096283 38.0349617 12.38180923
34.0943718 42.9509964 1.782148957
26.06164742 33.63827515 6.271114349
27.74596977 35.38381958 8.207540512
28.2191124 35.78391647 9.993297577
34.21392822 42.79012299 1.774051905
26.62946129 34.14933014 4.773979187
26.38397217 33.76531982 6.301473141
26.64076424 33.94491196 7.925535679
34.36774445 42.66744614 1.766608357
26.69942284 33.99477005 4.762421608
26.83362579 34.02825165 6.353610516
26.62858772 33.70265961 7.890918732
29.4315815 36.6302681 10.2523632
29.97668648 37.09468842 12.1787653
34.48610687 42.50580597 1.758581519
28.71087646 35.9537468 4.985165119
26.61218262 33.55824661 6.289601326
27.22325134 34.11842728 7.992815018
28.49417114 35.3731842 9.95217514
26.22168159 32.81304169 10.89347935
34.97737503 42.75017548 1.756972194
26.20670891 32.8950882 6.194683552
27.8346405 34.54494858 8.097554207
28.64351654 35.29478455 9.954080582
26.11366463 32.47771835 10.8158884
35.16374969 42.65997314 1.750091076
28.86734772 35.63654327 4.962135315
27.91415596 34.38533783 8.081553459
28.34598923 34.7293396 9.831566811
26.51280403 32.68268204 10.90473366
35.08538818 42.28520584 1.73884201
29.49078178 36.04771042 5.014471054
26.46154976 32.7239418 6.188694954
27.72504807 33.95360184 8.007919312
25.83748627 31.86018181 9.110340118
26.34218979 32.28421783 10.80757141
29.50835228 35.83468628 4.996805668
26.51475334 32.57070923 6.174459457
26.06454277 31.89521599 9.13897419
26.4444561 32.18562317 10.80175591
28.66757774 34.72058105 4.878499031
27.30791092 33.18262863 6.283673286
28.88745499 34.62049103 9.868487358
26.94052315 32.48485565 10.92108822
28.40335083 33.88737869 9.700315475
28.80912971 34.1928978 11.48049545
30.45072746 36.21937943 3.337831974
27.08996773 32.52325058 6.199579716
26.91886139 32.14639664 9.266869545
30.46742249 36.00381088 3.325232983
28.20525551 33.55777359 4.767098904
27.63241005 32.87253189 6.266857624
27.56140137 32.59742355 9.405750275
29.63023567 35.01320267 1.600487709
28.52216339 33.66716003 4.785568237
28.4390564 33.47414398 6.375988007
26.60282707 31.40748596 9.115474701
27.6493988 32.36138153 10.98883438
29.66221809 34.80897903 1.593058109
26.88004684 31.6699276 6.095169067
35.05054855 39.69950867 11.32182121
29.83042145 34.75609207 1.588083267
29.43086624 34.24104309 3.21694231
28.60935783 33.30298615 4.757814884
29.70468521 34.19961166 8.195655823
27.95763206 32.24777985 11.00787735
29.97213936 34.66396332 1.58234036
29.45947838 34.03865433 3.205368757
27.52248383 32.00024796 4.616929054
26.8353405 31.21186066 6.043179035
30.57251549 34.73323822 10.06143665
28.25802422 32.32937622 11.06231213
29.6825428 34.15100479 1.570881486
29.00212669 33.36354065 3.1637187
27.68150139 31.94326019 4.617079258
27.29080582 31.46490669 6.095659733
28.44262695 32.50422287 7.868824482
29.74718475 33.98447037 1.564196587
27.33481979 31.29699898 6.080118656
29.09425926 32.93745422 7.978933334
30.52333641 34.23186111 9.977062225
25.80418968 29.5130558 10.2213707
30.66477394 34.64974213 1.568895936
27.87710953 31.70697212 4.603732109
28.0109539 31.73809242 6.165244102
30.92403412 34.38037491 10.04329205
25.86510849 29.3653717 10.2025156
29.92416763 33.68884659 1.551256776
29.28683662 32.97144699 3.143008471
27.94426918 31.55913925 4.593766689
28.57698059 32.07497787 6.233137608
27.50049782 30.84282875 9.121352196
26.03433037 29.33231544 10.21912956
82.79915619 85.00015259 2.246977568
29.25507355 32.71816254 3.128383875
28.4921093 31.68808746 7.765518188
27.61448669 30.74569321 9.118550301
25.7966156 28.91895676 10.11229706
32.17114258 35.42072296 1.566284776
29.3657341 32.6042099 3.122683764
30.3847332 33.49392319 4.828792572
30.6725769 33.66519928 6.521248817
28.55089569 31.54221535 7.75138092
29.67459869 32.51325226 9.617081642
26.0312748 28.94885445 10.14936066
32.25662613 35.26302719 1.559657097
28.85451126 31.9052887 3.079601288
30.55048561 33.32223511 6.478109837
31.32534981 33.96469116 8.297277451
