# .PCD v0.7 - Point Cloud Data file format
VERSION 0.7
FIELDS x y z
SIZE 4 4 4
TYPE F F F
COUNT 1 1 1
WIDTH 1297
HEIGHT 1
VIEWPOINT 0 0 0 1 0 0 0
POINTS 1297
DATA ascii
7.700713634 12.24247265 2.379225492
7.514763832 12.0174942 2.906889439
8.381999016 12.85730553 3.644637823
16.71669006 21.2974205 2.395493984
7.749998093 12.21351051 2.378304482
8.492193222 12.92037296 3.058182001
16.81799889 21.25043106 2.393352509
18.10653877 22.40760612 4.611960411
19.12565422 23.3480587 5.902739048
16.8590374 21.15015602 2.387815475
17.95759583 22.1736145 3.512964964
18.20816231 22.35939407 4.61244297
18.43167877 22.50934601 5.735537052
16.9877491 21.13689613 2.387844086
17.02080345 21.11102104 3.39662838
18.5436573 22.54040909 4.650614738
18.43237495 22.36829758 5.71697855
19.12906647 23.16866112 1.407783508
17.13448715 21.1475544 2.389384747
17.65407372 21.59047699 3.455696821
18.45101738 22.30046654 4.619814873
19.61883354 23.37342262 5.946194172
19.18222046 23.06595421 1.403464317
17.21206284 21.08274078 2.386198759
17.81040001 21.59903908 3.461337805
18.21992493 21.92874908 4.567213535
18.04917336 21.70293999 5.598208427
19.25834846 22.99357605 1.399727345
17.11139679 20.84533691 2.372036695
17.77188301 21.41852379 3.445446491
18.3180275 21.88491058 4.568187714
18.06437302 21.57383347 5.582611561
19.32225037 22.90168953 1.39560163
17.0683918 20.66564369 2.361572504
17.93899727 21.44359398 3.452857018
18.08348656 21.51571274 4.515768528
18.11688805 21.48814583 5.575834274
17.304245 20.76046944 2.368610144
18.12164688 21.47503662 3.461326838
18.1926403 21.47657967 4.517985821
18.3680687 21.5834446 5.609190941
17.49077034 20.79943657 2.37217617
19.31915092 22.46404266 3.580018044
18.83116531 21.93561935 4.603256226
18.39670563 21.46735573 5.596611977
18.48012352 21.47898293 6.686504841
17.52652168 20.69490242 2.366602898
19.82302475 22.78735733 3.62255168
18.99281311 21.94115257 4.613324165
18.67213631 21.58202934 5.6346488
18.25640106 21.12883759 6.608085632
17.65958405 20.68178749 2.36691165
18.94519043 21.81742477 3.515962601
19.38625336 22.16085815 4.659379959
18.66565895 21.43292427 5.61499548
18.46105957 21.17802811 6.638361931
19.51486206 22.266716 2.469699621
18.92573357 21.6542244 3.502352715
19.47691536 22.10449409 4.658942223
18.74575424 21.36446381 5.613104343
18.64892387 21.2101059 6.664239407
17.99083519 20.71308517 2.371334314
18.73301888 21.34010315 3.470972776
19.1594677 21.66649246 4.594830513
18.89363861 21.36492348 5.625868797
18.78139687 21.1972847 6.677175522
18.0120945 20.60157204 2.365377188
18.81734657 21.27505112 3.468735218
18.70345688 21.11439896 4.510729313
18.96769142 21.29029083 5.622811794
18.0392189 20.48908234 2.35944581
18.83886528 21.15995979 3.460448027
19.02326584 21.20602989 5.617004871
18.64366531 20.80036163 6.601812363
18.02091026 20.34288025 2.351303339
18.82485199 21.00638199 3.447958708
18.68055153 20.82091713 4.479394913
19.14836502 21.17710876 5.624284744
18.25021744 20.41989136 2.357559204
18.91058731 20.95007133 3.446582317
18.70481682 20.71095276 4.469726562
18.9935894 20.90564346 5.576729298
18.31023788 20.34401321 2.354002953
19.27489853 21.1411171 3.47426939
19.92202568 21.65150833 4.639752388
19.09522057 20.86332512 5.580406666
19.12684059 20.82823181 6.661240101
20.61905098 22.25222206 2.478653669
19.2316494 20.96180344 3.458881378
19.41672134 21.06241035 4.549157619
19.2270565 20.84012222 5.589197636
18.9251442 20.51337242 6.591357231
20.7308197 22.2012825 2.476992369
19.37337875 20.94599915 3.462753773
19.4897995 20.98570061 4.54602623
19.38882828 20.84224129 5.60385561
19.06605339 20.49936104 6.605629444
20.95090675 22.24443817 2.481460571
19.49806595 20.8527317 4.533273697
19.67506599 20.9509182 5.64284277
19.12222862 20.41139221 6.599257469
14.07057953 16.13087845 2.087009192
19.56741333 20.7731266 4.529736042
19.11747932 20.3319912 5.516795158
19.14519501 20.29511642 6.584944248
14.08074665 16.02757835 2.081636906
19.06560135 20.26431656 3.399544954
19.55191612 20.62092209 4.513690472
19.39159012 20.42331505 5.552710056
14.03004074 15.8781395 2.073221445
19.19092751 20.22862816 3.401486635
19.58410263 20.51024628 4.504837036
20.04523277 20.84038925 5.662774563
13.92565155 15.68959999 2.062205553
13.65893364 15.41893482 2.833055973
20.07416916 20.79323578 4.564034939
19.46458054 20.21930504 5.534584045
19.49991226 20.19590569 6.612421513
12.74619198 14.5964613 1.992258668
19.05427551 19.8568325 3.368439436
20.51760483 21.03236008 4.615992546
19.51014137 20.12875938 5.527832985
19.58507919 20.13181114 6.613343716
12.878088 14.61047649 1.994439244
19.20260429 19.85404015 3.373841524
20.30649185 20.71525383 4.571447849
19.68627739 20.14680099 5.546208858
12.88342953 14.52312183 1.989967704
19.13339806 19.66324806 3.35702157
13.53018951 14.97534847 3.57367301
20.02492142 20.29075432 5.594736576
13.67599201 15.07635689 2.027557373
20.73054123 20.84571457 3.50581193
20.30105019 20.43291855 4.543792248
19.97161484 20.10396576 5.567534924
13.39607525 14.74679756 2.007376909
13.70907021 14.96092796 2.800927877
20.40744781 20.38190842 4.545900345
20.02297974 20.0104351 5.561237335
13.61006546 14.8229599 2.013792992
13.89796162 15.01979923 2.812596083
13.82156944 14.9154892 3.587114096
13.91715336 14.97742939 2.025333881
13.70635986 14.76546383 2.786518574
13.89263535 14.87844563 3.588315725
20.21087265 19.89883804 5.565740585
14.08063698 15.09313869 0.454267621
14.09878159 15.06548882 1.242483854
14.01284981 14.95434475 2.025325775
14.08688736 14.9766531 2.816877842
14.06861115 14.9198904 3.604014158
20.27048492 19.81859398 5.561984062
14.1331234 15.03415585 0.4516546428
14.19834805 15.00730991 2.030287027
14.11083794 14.89575481 2.81197381
14.21459389 14.94113159 3.615830898
20.45731354 19.83219719 5.581311226
14.19725227 14.90604115 2.025185823
14.42942524 15.05268383 2.836009026
14.16341782 14.80111694 3.599219322
20.53692627 19.76704216 5.581344128
20.55953217 19.74952698 3.419371843
14.55474186 15.00799656 3.645133495
24.81534576 22.99874306 2.564783812
13.78785324 14.35241604 2.760019541
14.08358574 14.52987003 2.004998446
13.71235371 14.20272636 2.746308327
13.99038792 14.37755489 3.547980547
14.38573551 14.64603806 4.400871277
13.96860504 14.33889294 1.99406004
13.76333046 14.14661789 2.744429827
14.20141602 14.44260788 3.568517208
13.70088005 14.03793049 1.975697994
13.67363071 13.97857094 2.72890234
14.2468853 14.38010979 3.565927505
13.76565742 13.99256229 1.974367023
13.53866959 13.78719521 2.709896564
14.02390575 14.11518097 3.526213408
14.56715584 14.50653076 2.010400057
13.56750584 13.71607494 2.706143379
14.25210285 14.19577217 3.549486876
24.92806816 22.15486145 2.525014162
13.72173691 13.7432518 2.714508533
14.28234291 14.12244034 3.544972181
24.14951324 21.43065453 2.479153395
13.7647686 13.68227959 2.712117672
14.49142361 14.18128395 3.565017223
25.40641212 22.20834732 2.534401417
26.32625198 22.82244873 3.87407279
14.50709724 14.09665489 3.558542967
24.95312119 21.72183418 2.504654169
27.20960808 23.30787468 3.945032835
25.06430244 21.65100479 2.502934217
26.57460594 22.69284821 3.875887394
26.28396606 22.41945076 5.139059067
25.16200447 21.57762146 2.500930071
25.90556335 22.0526886 3.803620815
25.39960289 21.59655952 2.505395174
26.02451515 21.98305321 3.804107904
24.93023491 21.1428051 4.929177761
25.34285927 21.40450478 2.495574713
25.36556435 21.36152077 3.733641863
25.01354599 21.05353165 4.927408218
25.40106201 21.29491997 2.491388083
27.36141586 22.61566925 3.905036449
25.7485733 21.38810921 2.50110364
25.15748787 20.91644096 3.694879293
25.82509232 21.33124733 5.010673046
25.00429535 20.71930504 2.458683968
26.55436897 21.74493408 3.81165719
25.80449104 21.16635895 4.99496603
24.39710808 20.16067314 2.423513651
26.86993408 21.80797195 3.829907179
24.37829018 20.01194191 2.416457415
26.31654549 21.28233337 3.770723581
26.13834953 21.10995102 5.014794827
25.44254875 20.60126305 2.460377932
24.87709808 20.16128159 3.632890701
25.96486282 20.84236336 4.979222775
25.03574944 20.17944336 2.434747458
25.05815887 20.13965225 3.639717817
25.91200066 20.65826035 4.959756374
25.82811546 20.56652832 2.46518755
25.23111725 20.11146355 3.64580512
25.13364029 19.99165726 4.845558643
25.98796082 20.52536774 2.466039181
25.42749023 20.09773254 3.653941393
25.07725906 19.81127357 4.826273441
24.97729492 19.71723175 2.413235188
25.06781006 19.72356987 3.613580704
25.11640167 19.70195198 4.820158958
24.89060593 19.51839066 2.403020144
24.78430176 19.39621925 3.579756737
25.63805199 19.90041351 4.876068592
24.79952621 19.31819725 2.392706633
25.26183319 19.56622314 3.612685442
25.76413155 19.83836746 4.880570889
27.25263596 20.81124306 1.220292926
26.19985771 20.08283043 2.450302601
24.64919281 19.03001022 3.550506115
25.11384964 19.27711105 4.785104752
27.409338 20.76018333 1.21721065
26.23791504 19.96113205 2.445720196
24.62813759 18.8785553 3.540109396
24.97310448 19.04760933 4.755692959
27.75998688 20.83192635 1.214843631
29.73919296 22.04257584 2.59717989
24.91293526 18.92191887 3.556253433
25.21425629 19.06164169 4.775387764
28.09281349 20.89734268 1.212554574
25.11937332 18.96450996 2.383141756
24.68518257 18.64050484 3.528157234
25.11588669 18.86776352 4.752235889
25.26683044 18.91795158 2.383834839
24.81816101 18.59404755 3.53167057
25.35042381 18.8758812 4.771071911
25.30764198 18.81123543 2.380083084
26.96486282 19.78859329 3.70710063
25.47192764 18.77393532 2.381543636
26.98302841 19.66091919 3.700273752
27.59704399 19.98509979 5.033966064
25.32981491 18.55498886 2.3697927
26.95626259 19.49892998 3.689264059
27.64293861 19.86495972 5.028147221
25.28183937 18.38822746 2.361995935
26.49881744 19.07685852 3.641866922
27.66113091 19.72827148 5.018929482
25.19710922 18.2003479 2.352673054
26.24053764 18.77946854 3.611635685
26.14036942 18.66942596 4.81683445
25.23319435 18.08611488 2.348692894
25.56939507 18.2388382 3.546881437
26.83784294 18.9448967 4.893314838
28.77341461 20.05149651 2.496370316
25.54892159 18.09015274 3.537173748
28.05497551 19.52844048 5.034757614
29.05017853 20.07055283 2.50248909
25.46975899 17.91452217 3.523042679
27.01180649 18.73450851 2.409228325
25.56726265 17.84306717 3.523757935
26.99941444 18.58520317 2.403038502
25.58810806 17.72015762 3.517738342
27.09388542 18.54170418 4.883217812
27.09549713 18.49898338 2.40152812
25.53404808 17.55463219 3.505582094
28.89534187 19.4386158 5.095391273
29.34564209 19.64153671 2.49128437
12.87610531 10.22206497 2.452758789
27.35001945 18.36795044 2.401486158
27.54790497 18.33054924 2.404039383
27.82847214 18.34499741 2.410314322
12.95465374 10.01214695 3.107040167
28.03205681 18.30778503 2.413072348
12.93084049 9.949676514 2.440347195
12.96362591 9.942685127 3.102756739
27.71192169 18.0108242 2.39517498
12.93462276 9.884929657 2.436989546
12.96063423 9.878018379 3.097867727
27.77661896 17.905056 2.392530203
12.9467268 9.821201324 2.43413949
12.94806576 9.797327995 3.091073036
12.91601372 9.800175667 0.4729288816
12.94601727 9.792038918 1.124701858
12.96322918 9.780670166 1.777718902
12.96013069 9.754633904 2.431228876
12.95441246 9.727174759 3.086625814
12.92757511 9.732377052 0.4721829295
30.1807518 18.9172554 2.480870962
12.95919132 9.680571556 2.427197456
12.96397877 9.658950806 3.082617044
34.46675491 21.04045296 2.650327921
12.95087719 9.602891922 2.422616243
12.98030472 9.5944767 3.079468966
32.86685562 20.02993774 2.579063654
12.95635986 9.532784462 2.419186115
12.98228359 9.522622108 3.074645758
34.36162567 20.64836502 2.633746386
12.96508598 9.464589119 2.416054964
12.97717571 9.450961113 3.069277287
33.7238121 20.15947914 2.602262974
12.97205925 9.399292946 2.413009644
12.98237896 9.384892464 3.0651896
34.77248001 20.54198265 2.638841152
12.96812725 9.328589439 2.409131289
12.98702335 9.315120697 3.0608356
21.62158012 13.71193504 1.122170806
21.62505531 13.6788044 2.106094599
12.99738503 9.271397591 2.407737732
13.04284286 9.271459579 3.062602997
21.62860107 13.60535717 1.120023847
21.83361626 13.67414665 2.110533237
21.61833763 13.46164989 2.098300695
21.72423935 13.41056919 2.098888159
13.14222908 9.109101295 3.060241938
21.78022575 13.32895374 2.097326756
21.46754456 13.14178371 3.05752182
34.9301796 19.69111061 5.615743637
21.81618881 13.23746395 2.095004082
21.49387932 13.04722881 3.054250717
34.42263794 19.28033066 5.545521259
21.82662392 13.13370037 2.091713428
21.32214165 12.85738945 3.035582066
34.22106171 19.02145386 5.511481285
33.9965744 18.85162926 2.562835455
21.18720055 12.68694115 3.019905329
34.07967758 18.80147171 5.485198498
33.92887115 18.65942574 2.554849625
32.86780167 18.11677361 3.921162128
33.68492889 18.45555878 5.4290905
35.44947815 19.26501083 1.106037855
33.89928055 18.44637108 3.993538141
33.82509232 18.36378288 5.435437679
35.48787689 19.11731148 1.103045225
35.19672394 18.93223 2.593269587
33.64175034 18.16844749 3.966113091
32.63334274 17.65377426 5.287467003
22.73635292 13.014925 2.108817339
33.22261047 17.81100655 3.926071882
32.80713272 17.58170319 5.29812336
34.12183762 18.11377525 2.541475058
33.19850159 17.65340042 3.917336464
33.81636429 17.8250885 2.524994135
33.43477631 17.60651398 3.928267002
33.46344757 17.58163071 5.355493546
33.64174271 17.59034157 2.513378382
33.40245819 17.44548416 3.919028044
33.10365677 17.26678848 5.304824352
33.34255981 17.30976295 2.497385502
33.54373932 17.35457802 3.922751665
34.23778534 17.62501526 5.426148891
33.65083694 17.30014801 2.504483938
33.79153442 17.31757355 3.934950829
34.32203674 17.5135746 5.426926613
34.06016922 17.33274841 2.515366793
34.37965012 17.38249588 5.424259663
34.09885025 17.19406891 2.512042522
34.56882477 17.35295677 3.980272055
34.30893707 17.19610786 5.407052994
33.2039566 16.65480042 2.473821878
36.55181885 18.04517746 4.123003483
34.56384277 17.15756989 5.427453518
35.16433334 17.33722878 2.542399406
34.45192337 16.99833488 3.958012104
33.90572739 16.72342491 5.343800068
34.51511383 16.86961365 3.956000328
34.00828934 16.61376953 5.346681118
34.24204254 16.64369202 2.499021769
34.13943481 16.55824661 3.921151638
35.27541733 16.9868679 5.481200695
34.36317062 16.53979874 2.498980284
33.93545532 16.32113266 3.899354935
34.54647064 16.537817 5.390595913
34.31937408 16.36791992 2.492892265
34.56264114 16.43282318 3.940041304
34.88441467 16.5214386 5.42005682
33.86831665 16.03947449 2.472134829
35.23378754 16.50735092 5.450750828
34.88552475 16.29635048 2.505059481
35.17702103 16.32888412 5.435864925
34.81632614 16.11405182 2.4981637
36.65217209 16.79966164 4.075747013
34.95402527 16.09335709 5.402923107
35.02536011 16.04210854 2.501460791
36.78256989 16.69777489 4.079147339
34.6806221 15.83255672 5.364126205
36.6438942 16.48277664 4.062400818
35.21841049 15.88838863 5.415971756
39.61884308 17.51074409 2.659288883
36.58988953 16.30183411 4.052013874
35.31865311 15.77270222 5.419008255
40.13965225 17.53726006 2.673401833
36.44185638 16.08602142 4.034817219
40.18238068 17.3797245 2.670279264
37.46560287 16.3126545 4.103662014
39.82005692 17.07111168 2.652691364
40.34637833 17.22292519 4.308146954
35.6396904 15.36340809 2.498991251
37.81271744 16.12472343 4.116808414
37.93783188 16.01576233 4.120044708
42.88238525 17.71986008 1.026560664
40.49901962 16.81201744 2.663711309
29.13887215 12.6778183 3.473935604
41.02470398 16.82719994 2.677948475
29.07271957 12.51989079 3.464130402
42.65076065 17.26369286 1.021901608
40.75475693 16.54853058 2.663807392
29.01889992 12.37356949 3.455542088
42.85754395 17.18256378 1.019504428
29.53843689 12.47262764 2.26473403
29.10367393 12.28903008 3.457510471
42.80065155 16.98151016 1.017232299
29.19512939 12.22482777 2.249495745
29.25512314 12.12450123 2.248661995
28.57982635 11.86289787 3.410907984
42.19247437 16.47180367 6.087757587
29.23912239 11.99189663 2.245047569
28.49492836 11.70996189 3.400419474
42.17852783 16.29057693 6.078014851
28.76959229 11.70782661 2.225659132
28.5664444 11.61020374 3.401239634
41.99022293 16.05178261 6.049416542
28.58502197 11.5220089 2.216314316
28.89533806 11.59516907 3.420537233
29.47246552 11.71211624 1.033006787
28.69402695 11.43396282 2.217232466
28.97791481 11.4975071 3.422195673
28.44713783 11.2302742 2.205854654
28.89877319 11.34734631 3.41235137
28.47912025 11.11786461 2.204190493
28.89122391 11.220891 3.407687664
40.45754242 14.87576103 5.852863789
28.55455208 11.01920033 2.204059362
28.65493011 11.02888203 3.387016773
28.56306267 10.90547752 2.201791286
28.56235123 10.8774662 3.376463175
21.34224892 8.57876873 1.044049501
21.25094604 8.529301643 1.948473334
21.22556877 8.504971504 2.852677584
21.29808807 8.470524788 1.043089271
21.25885201 8.442225456 1.946825504
21.20417023 8.404586792 2.848189592
21.28794098 8.373071671 1.042072058
21.25626183 8.347415924 1.944748402
21.19574547 8.308462143 2.84466815
21.27613068 8.280098915 1.041128874
21.24373245 8.249871254 1.942364693
21.20417023 8.217592239 2.842381477
21.28251266 8.188049316 1.040109754
21.24040985 8.155320168 1.940327406
21.17844582 8.121509552 2.837872744
21.27194023 8.095902443 1.039198875
21.25660515 8.071295738 1.93907702
37.90181351 12.77031326 0.9967647195
37.6350174 12.53881645 0.9958537817
42.23020172 13.77471733 4.30531311
38.0798645 12.50829792 0.9931645989
37.52156448 12.32779121 2.481377125
44.42043686 14.21195221 4.45365572
41.55101013 13.28157711 2.613837957
40.66007996 12.87164783 2.580790043
50.94794846 15.50917912 0.9543917775
43.57132721 13.45815468 4.379711151
41.88031387 12.90679932 0.9770649672
51.53226471 15.25545788 0.9490456581
48.99801636 14.52585506 4.747544289
35.29388428 10.87528419 0.9922956824
35.56708527 10.8077364 0.9903274775
49.09161377 14.16100693 4.743847847
35.86161041 10.74381828 0.9883070588
48.44366837 13.85296345 2.821661949
49.32883835 14.03563118 4.755542278
36.16366577 10.67257309 0.9862110019
47.65869141 13.44131088 4.63546133
36.44237137 10.59369373 0.9841926098
48.33617401 13.45325089 2.811878204
47.86497498 13.30298328 4.645031452
36.76018906 10.52976418 0.9821301699
47.8146553 13.10241508 4.636962414
37.05826187 10.45171833 0.9800753593
37.35433197 10.37125778 0.978038013
48.37853241 12.86596298 4.667017937
48.90757751 12.82208347 2.818589211
51.73056412 13.40022564 6.883035183
37.96543121 10.20121193 0.9738863111
49.58470917 12.78204918 2.837872267
48.81316757 12.57466412 4.687916756
50.41634369 12.89670944 6.739156723
38.26124954 10.11479855 0.9718874693
49.8170929 12.63942814 2.842606306
38.57492447 10.03800392 0.9699003696
49.74434662 12.42933846 2.837421894
38.86273575 9.945993423 0.9679526687
49.39314651 12.16078949 2.823234558
39.19388199 9.868979454 0.9659345746
49.43011856 11.98591518 2.821903229
50.17985535 12.10906792 4.764929771
53.10242844 12.69387054 6.99680233
44.76013947 10.86279678 0.9473153949
49.50756836 11.80976963 2.821809053
50.07979584 11.90384769 4.754286766
53.14310455 12.49767494 6.995353222
45.01238632 10.74748516 0.9454587698
50.05907822 11.7059288 4.748948097
45.08171844 10.58536816 0.9441546798
49.99663925 11.509799 4.74104929
45.11518097 10.41596127 0.9429963231
45.15590668 10.24794769 0.9418457747
51.78231812 11.46546078 4.854914665
51.67540359 11.23667145 4.843776703
40.97584915 9.123768806 0.9536603093
51.93301773 11.0957756 4.857815742
40.91625214 8.960724831 0.9530574083
40.95376587 8.942196846 2.530224562
40.86925125 8.792534828 0.9524017572
40.91851425 8.776316643 2.527300358
59.8257637 12.10474968 5.385083199
40.84392166 8.636621475 0.9517430067
40.87996292 8.626238823 2.52449441
59.37091064 11.81050587 5.350676537
40.83907318 8.476617813 0.9510064721
40.8159523 8.456337929 2.520748138
40.76528931 8.313215256 0.9505679607
40.763134 8.288951874 2.51741457
59.83901215 11.43918419 5.374925613
40.69217682 8.142703056 0.9501216412
40.7412529 8.127171516 2.515123606
42.84200668 8.329257011 0.9421345592
42.87876892 8.161130905 0.9413105845
43.23790359 8.050532341 0.9394432902
43.21781158 7.889207363 0.9389343858
60.99578094 10.48412132 5.435923576
43.10216904 7.71420002 0.9387842417
43.06227875 7.542668819 0.9383747578
43.12081146 7.385290623 0.9376537204
45.8265686 7.586488724 0.9277161956
28.49351311 5.129049301 0.9879570603
45.43493652 7.345625401 2.651992083
28.42474174 5.006777763 0.9879050851
28.38329315 4.888523579 0.9877786636
28.34538651 4.771074772 0.9876610041
28.31036186 4.659966946 0.9875654578
28.28885841 4.550722122 0.9874411821
28.24176407 4.433242321 0.9874171615
28.22007942 4.318936348 0.9873241782
28.16218185 4.201082706 0.9873805046
28.14961815 4.088284492 0.9872963428
28.13718605 3.970102549 0.9872272611
28.07999229 3.853467703 0.9873441458
28.06968117 3.747072458 0.9873170257
28.03908539 3.63904953 0.9873806238
28.01455879 3.52627492 0.9874399304
27.97367859 3.412421942 0.9875779152
27.97227478 3.301930666 0.9875949025
27.93816948 3.19463563 0.9877465963
27.90008926 3.081851482 0.9879335165
27.90351295 2.972116232 0.9879924059
27.93649483 2.864247322 0.9879659414
28.01302719 2.758771658 0.9878046513
28.30457115 2.670296431 0.9868921638
28.66206551 2.577761889 0.9857745171
29.03528214 2.483529091 0.9846249819
29.4401989 2.388156652 0.9833882451
29.86457443 2.296627283 0.9820972681
30.21298409 2.193509579 0.9811119437
30.59705734 2.0892272 0.9800274968
31.04877472 1.984405875 0.978733778
31.46800995 1.881671667 0.9775671363
31.91093254 1.776755452 0.9763453603
32.35167313 1.662625551 0.9751791358
32.7960434 1.545506477 0.9740325809
33.29811096 1.419720769 0.9727417827
33.75167084 1.29625082 0.971632719
34.26071548 1.183187604 0.970318377
34.74146652 1.053484082 0.9691854715
35.25776672 0.9272047281 0.9679411054
35.81761932 0.7905398011 0.9666148424
36.40498734 0.6498081684 0.9652377963
37.53426743 0.3637681007 0.9627336264
38.13206482 0.2107910216 0.9614543915
38.72943878 0.0610169135 0.960185647
-5.016694546 -43.61128235 0.5925540328
-5.186265469 -43.78339767 0.5996294022
-5.606386662 -33.06309891 0.7650030851
-8.950997353 -71.46598053 0.438819468
-5.317791939 -22.16262436 1.702587485
-5.386399269 -21.96441269 1.70223105
-5.457007885 -21.85200882 1.703848958
-5.400264263 -22.0925045 3.325640202
-5.528094769 -21.75333023 1.705795765
-5.498741627 -21.87516975 2.507652998
-5.458709717 -21.83342171 3.305645466
-5.477314949 -22.48698616 4.197987556
-5.604950905 -21.76628685 1.710489869
-5.565108299 -21.76877022 2.505670309
-5.536133289 -21.85019493 3.312132835
-5.530124187 -22.19926834 4.165064812
-5.67022562 -21.65758705 1.711895466
-5.633398533 -21.64788437 2.503000498
-5.614969254 -21.8805809 3.31997776
-5.593851089 -22.05166054 4.150671482
-11.44518757 -75.65663147 0.5187633038
-5.751769066 -21.63942146 1.716196537
-5.70791626 -21.55818939 2.502486467
-5.698347569 -21.87223434 3.324597359
-5.671134472 -21.97216415 4.145864487
-5.830542564 -21.59510803 1.719779015
-5.790841103 -21.59575844 2.509684086
-5.772375107 -21.77049255 3.320097923
-5.760503769 -22.0206604 4.158135891
-8.422351837 -43.51290512 0.7797024846
-5.951574326 -22.02250481 1.735981584
-5.871754646 -21.61118698 2.515523434
-5.844825268 -21.69864655 3.318254709
-5.81067276 -21.76002884 4.12859726
-8.562803268 -43.37036514 0.7891482115
-6.100179672 -22.63567162 1.757787704
-5.952815056 -21.62631798 2.521369934
-5.920519352 -21.69826317 3.323176861
-5.89238739 -21.77688026 4.136403084
-6.229828835 -22.25510597 0.941813767
-6.217294693 -22.93422127 1.770994544
-6.027533531 -21.58363914 2.523579836
-6.012862206 -21.81191826 3.339632034
-5.972314358 -21.77569389 4.141836643
-6.305269241 -22.23604393 0.9461200237
-6.126258373 -21.4432621 1.73358798
-6.09922123 -21.55108833 2.52618742
-6.0904603 -21.78874207 3.342644691
-6.045602322 -21.71512794 4.139326572
-13.14070129 -76.46604156 0.5993915796
-6.204064369 -21.46608543 1.738586307
-6.175691605 -21.55993271 2.531436682
-6.141197205 -21.57206535 3.326237917
-6.144242764 -21.91080856 4.171041012
-6.276144028 -21.44101906 1.742225289
-6.250323296 -21.52047539 2.533864975
-6.22756815 -21.66158295 3.340163469
-6.289063931 -22.48202133 4.253533363
-13.75806999 -76.99200439 0.62556988
-6.357542992 -21.45884514 1.747333288
-6.331721783 -21.53621674 2.539837599
-6.317032337 -21.70629311 3.350233316
-6.279475689 -21.72981262 4.157814503
-14.0698595 -77.15223694 0.6401497722
-6.441435814 -21.46396446 1.752317548
-6.414595604 -21.53134727 2.544757843
-6.392297745 -21.66826057 3.351831198
-6.374752522 -21.81719017 4.175704956
-14.34183502 -77.11500549 0.6551762819
-6.531150341 -21.5406189 1.759184837
-6.508890629 -21.64145279 2.55687809
-6.477459908 -21.70693588 3.361111879
-6.461375237 -21.86343575 4.187813282
-14.61414909 -77.17776489 0.6688924432
-6.621424675 -21.61691856 1.766082048
-6.579463482 -21.60143471 2.559077501
-6.555992603 -21.69400978 3.365267038
-6.537853241 -21.83076286 4.189260483
-14.90064907 -77.23757935 0.6833881736
-6.700472355 -21.6380043 1.771142364
-6.671758175 -21.68910789 2.569838524
-6.644333363 -21.75177383 3.376550674
-6.634929657 -21.97907066 4.215074539
-12.98748779 -62.57606888 0.773601234
-6.790812969 -21.70769119 1.77791059
-6.761301517 -21.75269508 2.579087257
-6.731107235 -21.82357216 3.389028311
-6.744761944 -22.18133163 4.248661995
-15.47526646 -77.35407257 0.7124567628
-6.888177395 -21.8205204 1.786020756
-6.845209122 -21.77446747 2.585644484
-6.832099438 -21.933218 3.405949116
-15.76152515 -77.30979919 0.7282510996
-6.992147923 -21.94418144 1.794754863
-6.958032608 -21.95910454 2.603199482
-8.467907906 -32.33070755 4.46419096
-16.06571198 -77.46414185 0.7423820496
-7.094006062 -22.07394218 1.803501368
-7.054503918 -22.05509377 2.614752769
-8.568724632 -32.17589569 4.457123756
-16.32508087 -77.42217255 0.7566849589
-8.679789543 -31.50746536 2.098817348
-8.645215034 -31.61511993 3.252675056
-8.649432182 -32.01179123 4.44784832
-9.043779373 -32.23110199 0.9610584378
-8.794647217 -31.50086021 2.105410814
-8.77703476 -31.7108326 3.266515017
-8.757856369 -31.9536953 4.450165749
-9.162522316 -32.26581573 0.9668885469
-8.909207344 -31.49187088 2.111943245
-8.877518654 -31.64749718 3.269447803
-8.88137722 -31.98950195 4.462099075
-17.17289734 -77.53461456 0.800078392
-9.013745308 -31.45783043 2.117356539
-9.000908852 -31.68717003 3.279647112
-8.997981071 -31.98166847 4.469623089
-17.46511078 -77.59287262 0.8147466183
-9.135076523 -31.48745728 2.125127554
-9.103301048 -31.60247421 3.2815485
-9.086125374 -31.84104538 4.463130474
-17.74570847 -77.58313751 0.82967031
-9.242334366 -31.43592834 2.130339861
-9.218297958 -31.59215164 3.288448811
-9.223121643 -31.95206451 4.48293972
-18.04246712 -77.65891266 0.8443161249
-9.364284515 -31.46665382 2.138185024
-9.337524414 -31.60499191 3.296940565
-9.360282898 -32.05859375 4.502390862
-18.32950592 -77.67855835 0.8591631055
-9.487957954 -31.50479317 2.146297216
-9.473470688 -31.70768356 3.311564207
-9.480126381 -32.06471634 4.511550903
-18.60329628 -77.62644196 0.8742284775
-9.624923706 -31.61121368 2.156661272
-9.602509499 -31.76862335 3.32342577
-9.624703407 -32.20344162 4.534518242
-12.01278877 -42.54366302 0.9833418131
-9.767994881 -31.74454689 2.167968035
-9.730537415 -31.82121277 3.33477664
-19.17572594 -77.71820068 0.9030714035
-9.984204292 -32.24608612 2.191472292
-11.87434864 -42.30034637 4.06026125
-19.44960976 -77.66312408 0.9181296229
-12.01521778 -41.87566376 2.517287493
-12.01950073 -42.24291229 4.066655636
-19.74354172 -77.70503235 0.9329650998
-12.20039654 -42.02373505 2.531426191
-12.21154499 -42.4197464 4.089229584
-20.03799438 -77.74582672 0.9478250742
-12.35562897 -42.02027893 2.540566683
-12.40172577 -42.58012009 4.110791206
-20.2982769 -77.69067383 0.9621237516
-12.56472874 -42.2725296 2.558364868
-12.58107185 -42.71980286 4.1305089
-12.72142029 -42.30651855 2.568407774
-20.28278351 -78.32780457 6.623673916
-12.91393757 -42.46721268 2.58328867
-20.55806541 -78.26385498 6.63856411
-21.6443634 -79.84851074 1.004422545
-21.34746933 -79.95694733 3.8831563
-20.83652687 -78.21453857 6.654530525
-21.93971825 -79.78159332 1.020629764
-21.12251854 -78.1338501 6.669318199
-17.91124535 -61.1586647 1.050771594
-21.39795876 -78.07085419 6.684430599
-21.65894127 -78.00819397 6.69863224
-20.35431671 -70.6975708 3.627210855
-21.91971207 -77.944664 6.712817669
-22.17615128 -77.86278534 6.725741863
-22.44528961 -77.83439636 6.742533684
-23.05034256 -71.83552551 3.813380241
-23.33102989 -71.91645813 3.83204484
-20.37980843 -58.61685181 3.373660564
-20.47307205 -58.19907379 3.370544672
-26.42150116 -69.59346771 3.971480131
-26.70954323 -69.64168549 3.990138531
-23.04093742 -57.08111191 1.364164233
-23.2571125 -57.054245 1.375349998
-23.41726685 -56.86396408 1.385730743
-22.8473587 -55.89434052 3.467489958
-23.03481293 -55.79587173 3.476982594
-23.56669235 -56.00688171 1.403766751
-23.46904564 -56.40634537 3.516364813
-23.69635773 -55.74440384 1.41347146
-23.42030334 -55.63101196 3.497321606
-23.90994835 -55.71875763 1.424448252
-23.64944649 -55.65112686 3.511875391
-23.92633057 -55.80195236 3.532088518
-24.40287781 -56.49604416 3.575861454
-26.11222649 -58.62568665 3.725579023
-26.30208015 -58.53134155 3.735432386
-26.3278904 -57.34698486 1.524711967
-26.33577156 -58.00383377 3.726713419
-26.49396324 -57.1740036 1.535006046
-26.5613842 -57.97546768 3.740167618
-26.74081039 -57.20484161 1.546817303
-26.84143066 -58.08375168 3.759819984
-27.0617485 -58.03863144 3.772629023
-27.14527321 -57.04125214 1.568710208
-27.15481186 -57.6777153 3.771068335
-27.7791214 -57.42876434 1.595228434
-31.93449211 -68.12268829 4.282438278
-32.08890915 -67.81594086 4.285858154
-21.93037224 -37.60445786 3.037050247
-22.02798271 -37.46405411 3.040442944
-21.95245361 -36.96960831 3.025800228
-22.37487984 -37.96888733 4.58876276
-22.09049606 -36.9172554 3.033531666
-22.48660851 -37.85384369 4.591687202
-22.11304283 -36.63170242 3.029294252
-22.0368557 -36.60371017 4.491942883
-22.38814163 -36.51828766 1.578395605
-22.15349007 -36.38576126 3.026991129
-22.17551613 -36.5542717 4.500420094
-22.46212578 -37.27373123 6.064287663
-22.46763802 -36.35233307 1.584095955
-22.14562607 -36.04725647 3.019785404
-22.35881042 -36.59337616 4.517001152
-22.59511566 -37.20645142 6.071429729
-22.5223732 -36.15580368 1.588950276
-22.26435089 -35.96208954 3.025671721
-22.27462578 -36.11941528 4.48609972
-22.65888596 -37.00218582 6.060691357
-22.88220024 -36.53495026 1.601849914
-22.12816238 -35.39640427 3.005806446
-22.37817001 -36.00340271 4.488458157
-22.74130058 -36.83688736 6.054997444
-22.69320679 -35.85548401 1.600514889
-22.2022171 -35.22975922 3.007249594
-22.56888008 -36.05717468 4.506458282
-22.68274498 -36.41519547 6.014696121
-22.82771111 -35.80065918 1.607548952
-22.32898712 -35.16575623 3.014093161
-22.54946327 -35.70515823 4.487021446
-22.69577599 -36.10570145 5.990558624
-22.88871384 -35.59182358 1.61280632
-22.56513786 -35.29418564 3.031729221
-22.58974075 -35.45626831 4.477638721
-22.80167198 -35.99362183 5.991635799
-23.02238846 -35.53627396 1.619791031
-22.8317852 -35.49178314 3.052685499
-22.69027328 -35.33953094 4.479826927
-23.05344963 -36.14307404 6.028314114
-23.50878906 -36.14879608 1.636049271
-22.74943542 -35.04857254 3.038715839
-22.71351814 -35.09406281 4.469297886
-23.17521667 -36.09121323 6.035942078
-23.58042145 -35.97334671 1.641410708
-22.97239304 -35.16194916 3.05523777
-22.84268188 -35.03323746 4.476672649
-23.40547943 -36.21049881 6.06815052
-23.29249573 -35.159729 1.636822939
-23.14767075 -35.18471527 3.066935301
-23.09561539 -35.21539688 4.506337166
-23.44500351 -35.97395706 6.052780151
-23.75308418 -35.69585037 1.652683616
-23.29974937 -35.17863464 3.076588154
-23.19748878 -35.10250473 4.508929729
-23.49452209 -35.75853729 6.040151596
-24.00330162 -35.84496689 1.662871122
-23.35379982 -34.97969437 3.076184988
-23.41244125 -35.19527054 4.531067371
-23.62350273 -35.70515442 6.048524857
-23.94101715 -35.43504715 1.664459467
-23.51088524 -34.96746063 3.086056232
-23.43837166 -34.94558716 4.520671368
-24.09221458 -35.40696716 1.67190814
-23.63580513 -34.89710617 3.092735052
-23.6217308 -34.97951126 4.537338734
-24.61967278 -36.03622055 1.689864159
-23.78707314 -34.87324905 3.102023125
-23.76535034 -34.94145203 4.547188282
-25.13776588 -36.63798141 1.707671762
-24.08647156 -35.09314728 3.125600576
-24.00564384 -35.07252502 4.573417187
-24.41417313 -35.8987236 6.142531395
-24.82336998 -35.79624557 1.702082634
-24.1546936 -34.93614197 3.126968384
-24.25507927 -35.21615601 4.601047516
-24.55620384 -35.84875107 6.152694702
-24.90969467 -35.65084839 1.707725883
-24.34873009 -34.98272324 3.140407085
-24.45779228 -35.27570724 4.620685101
-25.1111908 -35.70158768 1.716634512
-24.66753769 -35.24038696 3.165995121
-24.51948166 -35.09161377 4.616648197
-24.79135513 -35.16255569 3.172511101
-24.72472382 -35.15312195 4.63664484
-27.38522339 -38.91613388 1.788415551
-27.223629 -38.96372223 3.403146505
-27.59827614 -39.708992 5.099402428
-27.30872917 -38.77511597 3.405044556
-27.46757507 -38.42908478 1.797509909
-27.54645348 -38.87170029 3.422320127
-28.42506218 -39.68112183 1.828795433
-27.87622452 -39.10105133 3.448122025
-28.51373863 -39.50883865 1.834771872
-28.06358337 -39.09370804 3.460158348
-28.76238251 -39.59433365 1.845444083
-28.21442795 -39.02606964 3.468680143
-46.20156479 -67.01988983 2.365654707
-54.22456741 -79.74987793 5.936908722
-46.48620224 -64.89815521 2.401184082
-46.66029358 -64.66418457 2.41166997
-46.93499374 -64.58308411 2.425196409
-47.27372742 -65.59246063 5.215444565
-33.68218613 -44.60018921 3.931111336
-31.80022812 -41.87409973 5.557528973
-47.26528931 -64.09246063 2.445495129
-31.11477661 -40.41587448 3.684405565
-31.66291618 -41.34497833 5.520494938
-30.79450417 -39.62974167 3.648691177
-31.81783104 -41.25728226 5.529509544
-32.50297928 -42.40555573 7.484119415
-30.79209709 -39.32231522 3.642794371
-31.90880203 -41.07497406 5.528582096
-36.42553711 -46.90788269 2.123393059
-33.04449081 -42.31626511 3.84658289
-32.0875473 -41.02257538 5.541380882
-36.58286285 -46.77949142 2.131917238
-31.66778564 -39.99528122 3.712884903
-32.29335403 -41.00884628 5.558368206
-33.14291382 -42.37132263 7.549028397
-33.94649887 -42.65485001 2.052983522
-29.25278664 -36.21100616 3.48370409
-31.40285301 -39.41012192 5.406142235
-32.33879852 -40.05012131 2.005745649
-29.34080124 -36.06164551 3.486733198
-28.18585014 -34.49754715 4.897138119
-32.15548325 -40.30818939 7.286763668
-32.47671509 -39.94266891 2.013134241
-32.61376953 -40.43503952 3.783335924
-28.24726486 -34.32253265 4.894172668
-12.07387829 -11.3380928 2.944146395
-30.17363358 -36.41997528 1.943335295
-31.2182312 -38.1632576 3.649351835
-28.18347359 -33.97189713 4.872159481
-12.11077976 -11.29967117 2.94517231
-30.37249947 -36.42236328 1.952383876
-29.67714882 -35.71981049 3.502609015
-28.55938911 -34.24176788 4.917338371
-12.16707134 -11.28864002 2.950363636
-36.72028732 -44.90091705 2.157100677
-29.95871544 -35.84180832 3.52345252
-28.47254181 -33.86224365 4.892030239
-12.1864109 -11.22572613 2.947688103
-37.18645859 -45.20443344 2.175305605
-29.58236504 -35.05378723 3.484110355
-28.75478554 -33.99697113 4.92281723
-30.08315849 -35.93549728 6.733938694
-41.65675735 -50.94218063 2.321768999
-29.6875248 -34.93478012 3.488887787
-29.02180862 -34.10762405 4.951186657
-32.98917007 -39.66223907 7.327280045
-37.86191177 -45.44677734 2.203608036
-29.91057014 -34.97631454 3.50441432
-29.6531353 -34.71134186 5.034246445
-30.53880501 -36.01930618 6.789403915
-29.16469765 -33.70936584 3.431880951
-12.4225502 -11.16073704 2.438114405
-11.95644283 -10.56220722 2.873061895
-34.32521439 -39.98071289 0.3078604937
-34.24248123 -39.96601868 2.093238115
-12.4216938 -11.07180595 2.433920145
-11.98808098 -10.5211668 2.873434067
-34.46264648 -39.8668251 0.3154745996
-34.4294281 -39.91739273 2.102176905
-32.16461945 -37.19580078 3.694284201
-12.48132515 -11.06427383 2.438789845
-12.02428913 -10.48640537 2.8747859
-16.27630615 -15.83922005 1.515160322
-28.01983452 -31.45150757 3.314885378
-12.16735172 -10.56232548 2.388129234
-12.06753445 -10.46103382 2.877617598
-16.38942337 -15.86584377 1.520013094
-28.22699738 -31.48922539 3.329334497
-12.17588234 -10.49059868 2.385579109
-12.7157259 -11.23196888 3.005544424
-28.12550354 -31.12380028 3.315985441
-12.30406189 -10.57540989 2.400742769
-12.68803215 -11.10799503 2.993353605
-12.6515646 -11.08837795 3.525668144
-12.61008835 -10.78037262 1.398491979
-16.65906715 -16.08936882 2.281931639
-12.32818413 -10.52391529 2.400510788
-12.64262867 -10.96236515 2.97763896
-16.85554695 -16.10100746 1.538767815
-16.71698189 -16.04159927 2.284929514
-12.71666622 -10.94080162 2.453821182
-29.23863792 -32.2545929 6.368299484
-16.94650459 -16.10052299 1.542864561
-12.36503983 -10.38178444 1.893306732
-12.79393196 -10.95856857 2.461458683
-30.34178162 -33.42673492 6.575853348
-30.97272873 -33.50960541 0.4694480896
-12.6823597 -10.62648964 1.403210402
-12.41846561 -10.37258148 1.896705031
-12.79572296 -10.8758173 2.45785737
-29.83761597 -32.53998184 6.45530653
-17.20726776 -16.1462326 0.7898789644
-12.63864326 -10.48986149 1.402539968
-12.87763691 -10.89453125 2.465967894
-29.9581356 -32.46403503 6.463112831
-17.29426765 -16.13261604 0.7923721671
-16.41280174 -15.18902397 2.249380827
-16.69116402 -15.57233524 3.016094208
-13.23239613 -11.28479862 3.066381931
-12.39060116 -10.28168869 3.924695969
-16.98530769 -15.66914749 1.548677444
-12.93129826 -10.76743793 1.937998772
-16.48217964 -15.1956625 2.980520487
-13.29224777 -11.27206516 3.072113991
-17.14734268 -15.71320724 0.8043243885
-17.07340431 -15.65907001 1.55271399
-13.01431561 -10.81204319 2.474405289
-13.18848515 -11.05710888 3.044994831
-12.65148544 -10.41962242 3.458170652
-12.94878387 -10.81389523 4.080294609
-12.89640903 -10.42903137 0.385645479
-12.87345695 -10.42981339 0.8998477459
-12.99386215 -10.60012627 1.4174124
-12.74526596 -10.37527466 1.918594956
-16.85643768 -15.4246912 3.02417779
-13.30790997 -11.11819649 3.062741518
-12.9025259 -10.35649204 0.390222311
-12.88924122 -10.36475468 0.9025530815
-12.45773888 -9.947126389 1.891766548
-17.90756416 -16.58427048 3.170007467
-27.08496475 -27.78404236 5.804237843
-12.80909538 -10.45081139 3.482479095
-12.85883999 -10.53706837 4.030870438
-12.91915035 -10.34486866 1.416437626
-12.70556068 -10.16431427 1.912208676
-12.78973961 -10.2895546 2.430955648
-27.24181366 -27.76951981 5.820789337
-12.83426285 -10.39639759 3.480482578
-12.91315556 -10.51727676 4.036952972
-12.87465 -10.50046921 4.56864357
-18.0750618 -16.34079742 0.802339077
-16.84809685 -14.92292118 1.549463987
-12.8774519 -10.29118156 1.92597127
-12.94367695 -10.39436436 2.449422836
-12.94053459 -10.4437542 3.499551535
-12.92535877 -10.45062923 4.030461311
-12.94914341 -10.50903702 4.583539486
-12.78369522 -10.02739048 1.4133147
-12.70650196 -10.00952721 1.909550309
-12.65843391 -9.975697517 2.405222893
-13.0759716 -10.49998856 2.992385387
-12.98755932 -10.44422436 4.039546967
-29.9323082 -29.92844963 0.5758482814
-12.80223083 -9.972114563 1.414642334
-12.6061306 -9.8371315 2.394384384
-12.58901119 -9.843644142 2.890698671
-13.16714954 -10.55171394 3.540971994
-26.87918663 -26.41445923 3.14897275
-12.6590395 -9.82324791 2.398537636
-12.5012598 -9.687332153 3.365425587
-12.98273468 -10.27794933 4.01789999
-12.99311829 -10.03978252 1.42250514
-17.48209572 -15.32056713 2.323396444
-17.34456062 -15.19464588 3.057801008
-26.51899719 -25.98342896 6.874657631
-12.72814178 -9.730218887 1.906127453
-12.65796661 -9.67133522 2.391761065
-12.98481941 -10.0987978 3.471772671
-13.06914711 -9.97322464 1.426470518
-12.68366909 -9.604633331 1.900951266
-27.39617729 -26.48997498 4.462131977
-12.66375732 -9.629199028 2.884021759
-26.81857491 -25.94973755 6.91247797
-13.12764263 -9.966860771 1.429114938
-13.11079216 -10.01599789 1.936865449
-28.30553246 -27.34226036 4.581776619
-12.70827198 -9.605798721 2.887456179
-26.81593895 -25.75722504 6.893459797
-13.27641392 -10.30518913 4.068563938
-18.09204483 -15.45494652 1.599842429
-12.79724503 -9.589491844 1.908346772
-17.60581589 -15.0472641 3.075017452
-12.74616241 -9.574788094 2.889616013
-26.81024742 -25.572155 6.874790668
-13.35557365 -10.31615067 4.082742691
-56.19592667 -57.74908447 2.908716917
-12.66889095 -9.372157097 1.89593637
-27.90449333 -26.49667549 4.508567333
-26.93125153 -25.52211952 6.886706829
-12.66327095 -9.293949127 1.894211411
-13.11829948 -9.821827888 2.440103769
-27.15079689 -25.58196449 6.92289257
-28.64590073 -26.68729782 1.966599941
-25.88816261 -23.82336807 3.037316322
-13.42987442 -10.08767891 2.479996681
-27.75617599 -26.00404167 5.754815102
-27.52220726 -25.79920387 6.995312214
-28.7919426 -26.65381622 1.973318577
-26.01190186 -23.78612137 3.045046568
-13.61690331 -10.21621132 2.502612352
-27.71582794 -25.76143646 5.733389854
-27.61918068 -25.71855545 7.001119614
-28.63131714 -26.28783798 1.969426513
-13.01693344 -9.463143349 1.921025038
-27.85222626 -25.73295212 5.747169495
-27.48441124 -25.38390923 6.950450897
-13.37735939 -9.946634293 4.04104805
-28.78236771 -26.20741653 0.6817343235
-28.70821571 -26.18089676 1.973725796
-13.1370554 -9.52063179 1.930138826
-28.16160011 -25.81958771 4.502890587
-29.93625832 -27.80952263 6.130937576
-26.98840523 -24.65966988 6.812315464
-28.83969688 -26.07987404 0.6872310042
-28.84348488 -26.13645744 1.980041862
-13.22910881 -9.546730995 1.936820149
-28.25191689 -25.72988701 4.50734663
-27.59231377 -25.08078957 5.672316074
-27.05732346 -24.55480957 6.812062263
-28.96105957 -26.0205307 0.6916605234
-28.80306244 -25.90531349 1.980243325
-13.38293266 -9.637836456 1.94879508
-27.69690323 -24.95081329 4.423199654
-13.85786343 -10.19156075 3.060404778
-27.11906433 -24.44257736 6.810156345
-28.98396111 -25.91834068 1.988053799
-13.38260078 -9.563969612 1.947523236
-28.58398438 -25.72063446 4.537481785
-27.33677864 -24.44661903 5.59935379
-27.21813774 -24.37049866 6.81733799
-13.39793682 -9.510784149 1.947667122
-29.6340313 -26.65093994 4.67358923
-27.5038166 -24.45458221 5.619360924
-27.42371941 -24.41986656 6.850991726
-51.23194122 -48.55745316 0.3685701489
-29.23641396 -25.81761932 1.999941587
-13.50276947 -9.551357269 1.955471992
-28.7479229 -25.53094673 4.54458046
-27.58220482 -24.36840439 5.622677803
-27.81621742 -24.66399956 6.929339409
-27.11680031 -23.6039505 3.116904259
-28.82473564 -25.42635536 4.547277451
-27.8792572 -24.49235344 5.665791988
-27.46982384 -24.12341118 6.829864502
-27.20494652 -23.5155201 3.121419191
-29.00550079 -25.4200058 4.563736439
-28.18686485 -24.63306236 5.711312294
-27.67368317 -24.15078354 6.861376762
-27.40298653 -23.54798889 3.135442257
-29.241745 -25.47848892 4.588071823
-24.80957222 -20.97833061 5.069617748
-27.96305656 -24.27326775 6.913928986
-63.62612534 -59.75753784 3.217095375
-27.56236267 -23.53106117 3.146016121
-29.5503273 -25.59921074 4.621738434
-24.86630249 -20.88333702 5.069941998
-28.09513664 -24.22327232 6.928172112
-27.60240936 -23.40128517 3.146589279
-29.97875595 -25.8471756 4.671854019
-24.90173531 -20.76704216 5.06637001
-28.09674072 -24.04916 6.912396431
-64.41889191 -59.70558548 3.251972675
-26.6796608 -22.30817986 3.065539598
-30.13370514 -25.81607437 4.684986115
-25.01633263 -20.73092461 5.077504635
-25.189394 -20.9462719 6.211269855
-18.89606094 -14.40764809 2.403747797
-30.28030396 -25.77579308 4.696984291
-25.22919655 -20.7923336 5.106753349
-25.18595695 -20.79002762 6.196508884
-18.67515182 -14.08293724 2.383308887
-30.40714073 -25.71519089 4.706326962
-25.33147812 -20.74222374 5.115570068
-25.32868958 -20.78005409 6.216152191
-18.97960854 -14.27709579 2.407305479
-31.570755 -26.67249298 4.854338646
-25.42095757 -20.67914009 5.122046947
-25.40419388 -20.70284271 6.220043659
-19.40828133 -14.49074459 1.66546905
-18.81215668 -14.00832844 2.391448498
-31.63109779 -26.53901672 4.854527473
-25.55849266 -20.66281509 5.137337685
-30.31957245 -25.36554718 7.352272034
-19.51662254 -14.48773003 1.67017591
-18.72194862 -13.81724739 2.382151604
-27.017416 -21.87877464 4.232236385
-25.54534149 -20.49938965 5.125094891
-24.75672722 -19.77193069 6.042317867
-30.1215744 -24.49828911 2.049106359
-26.26143074 -20.95336914 3.014703512
-19.1675148 -14.16953468 3.182421684
-25.20866394 -20.02528954 5.05403471
-24.88830185 -19.75432968 6.059841633
-25.7178936 -20.14936066 1.893265605
-26.34182549 -20.87766457 3.018979073
-19.24876595 -14.14192867 3.188938379
-25.26433372 -19.93227386 5.054657459
-25.05990219 -19.77426529 6.086593151
-19.27474976 -13.94098091 1.664032578
-18.84315109 -13.62634945 2.387348652
-19.30546188 -14.0906496 3.192203045
-25.3598423 -19.87739563 5.062552452
-25.11475754 -19.68169975 6.086338043
-19.15106773 -13.7220192 1.66040647
-26.63855553 -20.85391998 3.038939953
-19.74313545 -14.398139 3.245809317
-25.08176804 -19.46957016 5.002897739
-25.05025673 -19.47652435 6.058686733
-19.46430588 -13.91067028 1.672424555
-18.81419945 -13.39729977 2.381661654
-18.80621719 -13.41496849 3.117996931
-25.24961662 -19.48432541 5.024026394
-25.02199173 -19.30715942 6.039555073
-19.22027779 -13.582551 1.664454818
-19.29728127 -13.74531174 2.420434237
-18.75101471 -13.26360703 3.106733322
-25.20156479 -19.29685974 5.006242752
-24.9047966 -19.05620575 6.000226021
-19.41670799 -13.66116047 1.672288299
-19.04717636 -13.41273594 2.397912979
-18.90129089 -13.30309296 3.122521162
-18.96646881 -13.39323139 3.877506018
-24.95113182 -18.95908356 5.99849987
-19.42740822 -13.56919193 1.673444271
-19.31503677 -13.5575552 2.418646097
-18.9830265 -13.27851963 3.129287243
-19.01330376 -13.33602142 3.879531622
-25.09869576 -18.95533752 6.019904137
-25.12177277 -19.0121479 7.090453148
-19.55161476 -13.55548859 0.9242576361
-19.57423782 -13.60053253 1.679499626
-19.27223396 -13.41755867 2.413468122
-19.02942657 -13.22140121 3.131428719
-25.24940681 -18.95345497 6.04197979
-25.08700562 -18.84028244 7.065231323
-19.57952309 -13.47950459 0.9270699024
-19.68574524 -13.59899712 1.684284449
-19.43176651 -13.46116161 2.425143242
-19.21007729 -13.28552818 3.15111208
-25.5179615 -19.02258682 5.02712059
-25.28347397 -18.84477806 6.037567616
-25.06290436 -18.67946053 7.043157101
-19.57870102 -13.3782568 0.9301642776
-19.90797043 -13.69519711 1.693072319
-19.58437157 -13.49714947 2.436224937
-19.54994392 -13.49075985 3.191491604
-25.32332611 -18.70776367 4.983686447
-25.39033508 -18.80208778 6.049701691
-26.70871735 -20.02543831 7.480349064
-19.61036682 -13.30628872 0.9328884482
-19.14810181 -12.92176628 1.666327953
-19.52705193 -13.34525967 2.429872036
-19.48703957 -13.33372116 3.179354906
-25.64605904 -18.85785103 5.0323596
-25.52070999 -18.77990341 6.067139626
-26.78450203 -19.94581223 7.484872341
-19.2247467 -12.89208031 1.669817924
-19.38894081 -13.14698124 3.162717819
-25.49222565 -18.58257866 4.996431351
-24.89295959 -18.08418274 5.913958073
-26.02674484 -19.12513542 7.261461258
-19.53504562 -13.0655632 1.681783319
-20.65882492 -14.13784409 2.52042222
-25.54516792 -18.4919548 4.997261047
-25.64860344 -18.61618614 6.072128296
-26.08180237 -19.03232765 7.261012077
-19.46568108 -12.90746784 1.679975867
-20.31964302 -13.73697853 2.490719795
-25.46308327 -18.24472809 3.940704823
-26.02180672 -18.77161026 5.072875977
-25.75366974 -18.57036781 6.083904743
-25.79167175 -18.63719368 7.166701794
-19.43483925 -12.78390121 1.679554582
-20.77383423 -14.02646542 2.526620626
-19.39504242 -12.85773945 3.152097225
-26.21908569 -18.80393791 5.099038124
-24.84629822 -17.64455795 5.869475842
-25.78434181 -18.49260139 7.149705887
-19.53873253 -12.77616024 1.684028268
-20.42735863 -13.6240406 2.496399641
-19.4233036 -12.78498936 3.152007103
-29.93214989 -21.86232758 5.742662907
-24.91983414 -17.57684326 5.874762058
-25.73327255 -18.31116676 7.121026039
-19.51765251 -12.66192722 1.683946133
-27.04934311 -19.16338158 3.040456772
-19.58449364 -12.82591438 3.169039249
-25.76534081 -18.13849258 5.002484322
-27.01666069 -19.24196625 6.330058098
-25.78827858 -18.22218704 7.121217251
-19.60002327 -12.63550091 1.68762958
-19.57425499 -12.69813347 2.423014402
-25.65053368 -17.8688488 3.944247961
-25.54146194 -17.81366348 4.955106735
-26.18994713 -18.39617157 6.134626389
-25.77583504 -18.07588196 7.103302002
-20.07377243 -12.93535423 1.705612659
-19.66436005 -12.67772198 2.428937435
-25.77677345 -17.8422451 3.955376863
