# .PCD v0.7 - Point Cloud Data file format
VERSION 0.7
FIELDS x y z
SIZE 4 4 4
TYPE F F F
COUNT 1 1 1
WIDTH 1262
HEIGHT 1
VIEWPOINT 0 0 0 1 0 0 0
POINTS 1262
DATA ascii
-5.340424061 -3.131586552 1.142153382
-5.344649315 -3.179979563 1.298406243
-5.361306667 -3.231877565 1.459501028
-7.360607624 -7.701718807 2.179940224
-7.585269451 -8.240553856 2.602072477
-5.369139194 -3.297959805 1.954242826
-5.365810394 -3.308655977 2.123046398
-5.366024971 -3.325766087 2.297013044
-5.374210835 -3.361475945 2.481265545
-5.330471516 -3.028902769 0.6871879101
-5.334395885 -3.053254604 0.8378412127
-5.340965271 -3.081603527 0.9894345999
-5.33535862 -3.085499048 1.142446637
-5.348905563 -3.151674509 1.298105717
-5.346934795 -3.163914442 1.45484972
-7.640711784 -8.278248787 2.612404585
-5.371760368 -3.266479492 1.949870348
-5.362937927 -3.262724638 2.114284992
-5.36262989 -3.278334141 2.286261082
-5.385219097 -3.347981215 2.47974968
-5.334698677 -3.033831358 0.9912959337
-5.339125156 -3.05730629 1.142958283
-5.348944664 -3.116455317 1.297401071
-5.349453926 -3.132013798 1.453389049
-7.551983833 -7.965818882 2.219837666
-7.678465843 -8.280412674 2.616718292
-5.369231224 -3.222160339 1.942962885
-5.362260342 -3.22432065 2.107206345
-5.364559174 -3.245441198 2.279471636
-5.380433559 -3.29737711 2.466309547
-8.539989471 -9.761693001 0.3947317302
-9.720698357 -12.30566788 0.7371610999
-5.353432178 -3.048406839 1.143754721
-5.347484112 -3.073060751 1.296438575
-5.344789028 -3.081404209 1.450400591
-7.594405651 -7.972351551 2.224328041
-7.538500309 -7.883065701 2.555487394
-7.629549026 -8.114273071 2.948546886
-5.361060143 -3.179637432 2.098925591
-5.365238667 -3.204525232 2.270776749
-5.389418602 -3.274125576 2.462047577
-8.517799377 -9.619866371 0.4049451649
-9.782134056 -12.31647968 0.7387488484
-18.96398163 -31.74686241 1.468507767
-5.355382442 -3.053898096 1.296554446
-7.523010254 -7.703517437 1.860048294
-7.743595123 -8.211763382 2.258275509
-7.610728741 -7.958350658 2.572040558
-7.652714252 -8.081622124 2.946569681
-5.361401558 -3.142788649 2.092292786
-5.367443562 -3.171381235 2.264001846
-5.376092434 -3.206222534 2.442873478
-8.55442524 -9.60244751 0.4069167972
-9.834201813 -12.30719566 0.7408826351
-18.99870872 -31.54203033 1.472559929
-22.96706581 -40.2115097 3.154819012
-7.683225155 -8.000699997 2.23499155
-7.613084316 -7.882791042 2.563555717
-7.668329239 -8.037190437 2.94192791
-5.357398987 -3.097138643 2.083469391
-5.362936497 -3.12422061 2.253188848
-5.376054287 -3.170146465 2.433906555
-8.569190025 -9.540002823 0.4118440747
-9.883111 -12.29701805 0.7429413199
-19.04483032 -31.34902382 1.477017999
-23.02216148 -39.97698212 3.153626204
-7.496593475 -7.497478008 1.847332001
-7.888763428 -8.353844643 2.283734322
-7.62526989 -7.833090782 2.559145451
-7.752220631 -8.134313583 2.966759682
-7.481027603 -7.624926567 3.548336029
-5.373267651 -3.126827002 2.422682285
-8.648569107 -9.610261917 0.4080147743
-9.9413414 -12.29991627 0.7447362542
-19.07840919 -31.13271713 1.481132865
-7.578491211 -7.592972755 1.858698606
-7.881675243 -8.260184288 2.275264502
-7.659955025 -7.827302933 2.562277794
-7.726353645 -7.998324394 2.943437338
-7.593758106 -7.754456043 3.2395401
-7.470318317 -7.524735928 3.525238991
-8.682506561 -9.587017059 0.4103357196
-10.00196171 -12.30144024 0.7466589808
-19.1327095 -30.96144485 1.485718966
-22.88910294 -38.98023987 3.125313044
-7.648061275 -7.661086082 1.867689967
-7.971333981 -8.360136986 2.292036295
-7.616658688 -7.659209251 2.538162708
-7.610292435 -7.707278252 3.233385563
-7.575162888 -7.665193081 3.571783781
-8.698494911 -10.07252884 4.720523357
-8.702973366 -9.536865234 0.4144107699
-10.06038666 -12.30383587 0.748462677
-19.21281242 -30.83046913 1.491075277
-22.9134922 -38.66107941 3.120513201
-7.696016312 -7.679715633 1.872436881
-7.929641724 -8.192455292 2.274166822
-7.690289974 -7.730957031 2.554535151
-7.723954201 -7.830909729 2.918473721
-7.649617195 -7.711824894 3.239804268
-7.55560112 -7.547526836 3.543613195
-8.619590759 -9.803726196 4.640336037
-8.675623894 -9.392155647 0.4246733785
-10.11083603 -12.28989792 0.7506963611
-19.29025078 -30.70923996 1.496183753
-22.88994789 -38.266922 3.111185551
-7.76118803 -7.736395836 1.8805058
-7.860542297 -7.971700668 2.249307632
-7.67774725 -7.629004478 2.541446209
-7.963053226 -8.243268013 3.009380817
-7.689879417 -7.717955589 3.246664286
-7.539497375 -7.438818455 3.517926216
-8.666074753 -9.804114342 4.648635387
-8.779195786 -9.507731438 0.417845279
-10.15676403 -12.2668438 0.7531635761
-19.35253716 -30.57276917 1.500732303
-22.87284088 -37.89128113 3.102644205
-8.252394676 -8.651950836 1.966380358
-7.925872803 -8.025636673 2.259989262
-7.625116348 -7.447482586 2.514800549
-7.92214489 -8.083476067 2.980732441
-7.685535431 -7.632801056 3.23077631
-7.57366991 -7.434648514 3.522520065
-8.657083511 -9.694975853 4.620198727
-8.5307827 -8.933049202 0.4562161267
-10.21847534 -12.28042412 0.7545686364
-19.40415192 -30.40314293 1.505140424
-22.85562515 -37.53748703 3.094537735
-9.049304008 -10.1566515 2.106698036
-7.903640747 -7.903335571 2.247761011
-7.661572456 -7.451213837 2.519292593
-7.94820261 -8.057084084 2.980196476
-7.767440796 -7.726949215 3.259440184
-7.59272337 -7.403309822 3.518946409
-8.945749283 -10.18880939 4.792879105
-8.619132996 -9.024703026 0.450882256
-10.27990437 -12.28722572 0.7562440634
-19.49218941 -30.30650711 1.510454297
-22.90987015 -37.31266403 3.093547821
-9.064412117 -10.09080696 2.104539871
-7.865685463 -7.755468369 2.231929064
-7.663146019 -7.3816185 2.511521101
-8.051613808 -8.185257912 3.012201309
-7.771374226 -7.659221172 3.247909784
-7.623388767 -7.391991615 3.521511793
-8.919760704 -10.03855801 4.751396656
-8.790060043 -9.269079208 0.435608983
-10.33778763 -12.28665829 0.7581099868
-17.3501873 -25.89611626 1.458094954
-20.87851334 -33.01976013 2.879107714
-9.186095238 -10.23447895 2.121579409
-7.830086231 -7.610733032 2.216590881
-7.70720005 -7.396765232 2.518193722
-7.629383564 -7.270839691 2.824361563
-7.8099823 -7.661294937 3.25389576
-7.617596149 -7.30792141 3.502812147
-8.979322433 -10.06173706 4.767779827
-8.892181396 -9.3735466 0.42952618
-10.39667606 -12.28761673 0.7599335909
-17.43332291 -25.82810593 1.462835431
-17.3555336 -25.91251564 2.513888121
-9.188373566 -10.14351082 2.117131948
-7.842507362 -7.561793327 2.213762045
-7.729809761 -7.369452477 2.517632723
-7.655180931 -7.2508111 2.824777842
-7.841589928 -7.649283409 3.256374121
-7.685522556 -7.370737553 3.527144432
-8.901090622 -9.810910225 4.692371845
-8.831736565 -9.173053741 0.4432945251
-10.45047855 -12.27297115 0.7622466683
-17.55618286 -25.83595467 1.468608022
-9.262678146 -10.19240665 2.125573397
-7.887160778 -7.572078705 2.218916655
-7.688828468 -7.219094753 2.495918036
-8.036790848 -7.922823906 2.972044945
-7.716679573 -7.356591702 3.52927494
-8.939196587 -9.290172577 0.4363406897
-10.50667763 -12.26814842 0.764210403
-19.73738289 -29.72507668 1.528733134
-8.737669945 -9.060300827 1.631025553
-9.008062363 -9.612360001 2.07569766
-7.886329174 -7.498417854 2.212800503
-8.198719025 -8.125825882 2.656586409
-8.261169434 -8.279932976 3.053124666
-8.321022987 -8.4266119 3.464887619
-7.718884468 -7.289778709 3.515599966
-8.860269547 -9.546616554 4.620550632
-9.00022316 -9.318754196 0.4351533055
-11.94042301 -14.83693027 0.700791657
-19.78274155 -29.55357933 1.532819152
-8.691092491 -8.892774582 1.624752164
-8.887301445 -9.295074463 2.049910307
-7.888744831 -7.431895733 2.207593679
-8.18542099 -8.027654648 2.643959284
-7.681949139 -7.094466209 2.805562019
-8.462817192 -8.622973442 3.520638227
-7.739770412 -7.263299942 3.51350069
-8.902856827 -9.539096832 4.626525402
-9.007217407 -9.247004509 0.4404807687
-12.05989838 -14.92708778 0.7007098794
-19.86030769 -29.4437561 1.537737966
-9.18153286 -9.761548996 2.09722352
-7.864156246 -7.318875313 2.195971012
-8.340452194 -8.245103836 2.686236382
-8.271911621 -8.144953728 3.03498435
-8.487839699 -8.589606285 3.518455505
-7.740402222 -7.194885731 3.49928093
-8.940145493 -9.521213531 4.629050732
-9.018577576 -9.184085846 0.4452160299
-11.98272324 -14.64824677 0.7100156546
-19.91343689 -29.28982735 1.541981816
-8.728910446 -8.799872398 1.625355482
-9.188480377 -9.685303688 2.093937159
-8.003018379 -7.505722523 2.224756956
-8.35742569 -8.199964523 2.683089018
-8.308969498 -8.138299942 3.038905144
-8.485096931 -8.500130653 3.502256632
-7.786303997 -7.209604263 3.510015726
-8.981840134 -9.511671066 4.634449005
-9.084552765 -9.220862389 0.4434661567
-12.13708973 -14.80086517 0.7083690763
-19.9801178 -29.16220665 1.546567917
-8.733837128 -8.724407196 1.624195695
-9.226293564 -9.666975975 2.096076012
-7.932237148 -7.304521561 2.201457262
-8.329792976 -8.068675041 2.665128708
-8.233627319 -7.921984196 2.997757196
-8.586862564 -8.611250877 3.537069082
-7.844603539 -7.250473499 3.528311253
-8.993887901 -9.446141243 4.620849133
-9.011048317 -9.006034851 0.4580167234
-11.8642292 -14.18642044 0.7256837487
-20.02189255 -28.99074554 1.55045414
-8.777206421 -8.727948189 1.627050996
-9.278396606 -9.674744606 2.100694418
-8.003574371 -7.367298603 2.213558674
-8.333075523 -8.00370121 2.658204317
-8.246603012 -7.872229099 2.992319345
-8.621134758 -8.599058151 3.540077448
-7.868850708 -7.230485916 3.528229475
-9.065228462 -9.492092133 4.645243168
-9.132676125 -9.146348953 0.4495068789
-11.97527885 -14.26197624 0.7259091139
-20.05394173 -28.8036232 1.554046392
-8.818461418 -8.723385811 1.629614592
-9.599935532 -10.17106438 2.151753902
-8.019464493 -7.331244946 2.212199688
-8.380235672 -8.015974998 2.665038586
-8.316703796 -7.927705765 3.009625912
-8.56293869 -8.412725449 3.498591661
-9.077795982 -9.428133965 4.63219738
-9.209900856 -9.20153141 0.4465416372
-12.04966736 -14.27074242 0.7277920246
-20.10642242 -28.65500069 1.558171391
-8.862674713 -8.723882675 1.632469296
-8.76060009 -8.5692873 2.003104925
-7.920202255 -7.08412981 2.182403803
-8.411300659 -7.998608112 2.666699886
-8.341788292 -7.900164127 3.009030819
-8.604773521 -8.411661148 3.50474453
-16.80242157 -23.44418907 8.408041
-9.101902962 -9.386077881 4.626626968
-9.193645477 -9.09148407 0.4542517066
-12.01259899 -14.08271408 0.7344753146
-20.13048744 -28.45765305 1.561484933
-10.5810976 -11.70409775 1.801078916
-8.020619392 -7.198525429 2.201582432
-8.425970078 -7.951770782 2.663172483
-8.277135849 -7.711058617 2.973293781
-8.616472244 -8.355788231 3.496754646
-17.9549675 -25.33400536 8.995788574
-9.138692856 -9.367483139 4.629121304
-9.258267403 -9.123649597 0.4527562261
-12.040905 -14.01138592 0.7382726669
-20.12660217 -28.21360397 1.563986421
-8.897151947 -8.628700256 1.632841587
-8.85198307 -8.577157021 2.01096487
-8.040064812 -7.166931629 2.200964212
-8.460682869 -7.941137314 2.666042089
-8.346471786 -7.764294147 2.99023509
-8.621196747 -8.288024902 3.485650539
-16.78695488 -23.01501274 8.316610336
-9.167069435 -9.333681107 4.626416206
-9.334939003 -9.171757698 0.4502543807
-12.07782269 -13.95562172 0.7416725159
-20.08228874 -27.90236092 1.56531322
-8.984820366 -8.705137253 1.639978409
-9.014167786 -8.785159111 2.034623146
-8.964946747 -8.731303215 2.418890715
-8.490509033 -7.921772957 2.667382002
-8.325512886 -7.656285286 2.972004414
-8.662771225 -8.286663055 3.49178791
-16.71060944 -22.68203545 8.234801292
-9.296485901 -9.025604248 0.4602403343
-9.327863693 -9.108370781 0.860037446
-9.317254066 -9.205230713 1.67111814
-9.088582039 -8.836566925 2.043290615
-9.072180748 -8.836796761 2.438063145
-8.535936356 -7.929772377 2.673613071
-8.392233849 -7.703947544 2.987836361
-8.701202393 -8.275702477 3.495798349
-16.7826519 -22.60682487 8.231748581
-17.37765312 -23.74967384 9.637490273
-9.356357574 -9.048489571 0.4593138695
-9.364732742 -9.091491699 0.8618152142
-9.359872818 -9.112026215 1.266248703
-9.248991013 -9.031459808 2.066165924
-8.897697449 -8.455826759 2.390064716
-8.56922245 -7.912677765 2.675643682
-8.456941605 -7.743543148 3.002268553
-8.764151573 -8.311234474 3.511691809
-16.81195068 -22.46660042 8.208013535
-17.46600723 -23.69364548 9.641150475
-9.335960388 -8.935403824 0.4671291113
-12.27799606 -13.93609333 0.7483618259
-8.912316322 -8.405808449 2.387528896
-8.600921631 -7.89635849 2.677589178
-8.448719025 -7.659517765 2.989236593
-8.679426193 -8.08959198 3.460168123
-17.39417458 -23.29052925 8.478281021
-17.58504677 -23.70131493 9.665973663
-9.245146751 -8.706039429 0.4823981822
-12.31428623 -13.87971592 0.7517240047
-19.57746887 -26.13531876 1.560845494
-9.177654266 -8.752002716 2.046441078
-8.985917091 -8.456873894 2.399009228
-9.069422722 -8.627227783 2.813971996
-8.480527878 -7.645243168 2.991579294
-8.732305527 -8.108125687 3.471606493
-17.4310379 -23.1585331 8.457706451
-17.63446236 -23.58740044 9.648553848
-9.706432343 -9.395841599 0.438585043
-11.509655 -12.4248085 0.7878320813
-11.47527885 -12.40512657 1.329748511
-9.380719185 -8.989461899 1.671065331
-9.587350845 -9.36621666 2.110673189
-9.030630112 -8.45796299 2.403604746
-9.155796051 -8.697662354 2.832026958
-8.502344131 -7.613917828 2.990159035
-8.806074142 -8.16173172 3.492383957
-17.50905228 -23.09838676 8.459106445
-17.73909187 -23.56941986 9.66468811
-9.267360687 -8.592611313 0.4906702936
-11.55914688 -12.40200424 0.7901847959
-9.514773369 -9.134986877 1.682549238
-9.162006378 -8.573264122 2.036327124
-9.101851463 -8.503200531 2.414404154
-9.136752129 -8.589205742 2.817815542
-8.530013084 -7.592681408 2.990987778
-8.815850258 -8.105776787 3.484286785
-17.54075241 -22.95967293 8.436412811
-17.35948372 -22.72545815 9.391107559
-9.759253502 -9.3219347 0.4443665743
-11.55639362 -12.33033276 1.334347725
-9.489812851 -9.01468277 1.678624272
-9.196032524 -8.554997444 2.038254976
-9.081454277 -8.39484024 2.403733253
-9.158650398 -8.550518036 2.816190481
-9.030825615 -8.364023209 3.168827057
-8.846243858 -8.085053444 3.485514402
-17.32012749 -22.39707756 8.282953262
-17.39899063 -22.60289764 9.369987488
-9.760223389 -9.244101524 0.4498560727
-12.58337116 -13.85955715 0.7602655888
-19.08124161 -24.49798584 1.555268288
-9.423568726 -8.828144073 1.670753956
-9.235589027 -8.549542427 2.041278839
-9.101493835 -8.354694366 2.402588844
-9.16707325 -8.489798546 2.810547352
-9.330815315 -8.792981148 3.270723581
-8.915672302 -8.129440308 3.504100084
-13.86648464 -16.43598175 6.459682941
-13.52825642 -15.928895 7.036611557
-9.871471405 -9.344444275 0.4439164102
-12.30238247 -13.29752636 0.7750396729
-19.08449364 -24.30566216 1.557476044
-9.376368523 -8.678975105 1.66483748
-9.26017952 -8.515712738 2.041671276
-9.167859077 -8.390798569 2.412205935
-9.182752609 -8.445343018 2.807574749
-9.217954636 -8.530330658 3.218199492
-8.955654144 -8.127703667 3.510146856
-11.37062931 -11.69649982 0.813398838
-19.11196518 -24.15436745 1.560368538
-9.370862961 -8.595463753 1.662886739
-9.32121563 -8.541195869 2.048015594
-9.180931091 -8.342983246 2.409767389
-9.186398506 -8.377975464 2.80066061
-9.227258682 -8.471389771 3.211264849
-8.94857502 -8.044893265 3.494880676
-13.76949596 -16.00953293 6.356052876
-13.16768932 -15.06716728 6.762982368
-10.00562954 -9.399658203 0.4413363039
-11.38149548 -11.61183929 0.8171103597
-19.08328056 -23.91511536 1.56157589
-9.339488983 -8.471425056 1.658483386
-9.356203079 -8.524048805 2.050106764
-9.262341499 -8.42837429 2.815364122
-9.375276566 -8.638248444 3.255322695
-9.021099091 -8.089196205 3.514021158
-13.79302311 -15.90812874 6.339818478
-13.12964249 -14.87872124 6.711334705
-11.38540077 -11.52188301 0.820830524
-19.11406708 -23.77269936 1.56451571
-9.367379189 -8.439728737 1.659697771
-9.362582207 -8.461176872 2.047578573
-9.285777092 -8.363945961 2.422167778
-9.349737167 -8.492413521 2.832961321
-9.461344719 -8.70238781 3.276376963
-9.075006485 -8.105895996 3.525509119
-13.86480904 -15.89251804 6.349617958
-13.13753605 -14.76736069 6.686941624
-10.10743237 -9.401389122 0.4421379864
-11.38016319 -11.423316 0.8246332407
-19.13222122 -23.61182213 1.567057729
-9.405757904 -8.431960106 1.662052274
-9.346261024 -8.362989426 2.041433811
-9.350831032 -8.395558357 2.431343555
-9.367172241 -8.45091629 2.830587149
-9.621888161 -8.884242058 3.324330568
-9.13164711 -8.129948616 3.538709164
-18.2467823 -22.81439018 8.533344269
-13.11553097 -14.60898304 6.645648003
-10.15016747 -9.392994881 0.4430918396
-11.38948059 -11.34372425 0.8280699253
-19.13432121 -23.42756081 1.569095135
-9.421068192 -8.384268761 1.66214788
-9.393491745 -8.365914345 2.045550108
-9.33800602 -8.30714035 2.423099518
-9.316331863 -8.298146248 2.807823658
-9.680076599 -8.900617599 3.334854603
-12.85312462 -13.98043156 5.130496979
-18.59424782 -23.18389511 8.670544624
-10.18707752 -9.371557236 0.4448879361
-11.38962841 -11.25079918 0.831777513
-19.14401054 -23.25701904 1.571333885
-9.440437317 -8.343304634 1.662638068
-9.417163849 -8.331712723 2.045889616
-9.459875107 -8.427013397 2.445069551
-9.390847206 -8.344136238 2.821940899
-9.344532013 -8.296841621 3.203605652
-13.75950623 -15.3425312 6.220223427
-13.68648529 -15.27447987 6.915683746
-10.22611618 -9.353325844 0.4464668632
-11.40236187 -11.17810345 0.8350144625
-19.15817833 -23.0950737 1.573683858
-9.450907707 -8.288906097 1.662295461
-9.509860039 -8.404580116 2.057240248
-9.48913765 -8.400918007 2.446070194
-9.563980103 -8.542654991 2.864660978
-9.711236954 -8.798553467 3.325198889
-9.559399605 -8.591622353 3.686065674
-13.88253593 -15.41001225 6.256212234
-13.33786869 -14.59967613 6.688609123
-10.2397728 -9.296627998 0.450483501
-11.40698624 -11.09377384 0.8384837508
-19.16810226 -22.92831802 1.57588172
-9.468716621 -8.246254921 1.662656426
-9.609653473 -8.486931801 2.069655657
-9.543152809 -8.413032532 2.452627897
-9.698848724 -8.678692818 2.895950794
-9.756742477 -8.794563293 3.331169605
-9.572440147 -8.538798332 3.679310322
-12.60903835 -13.29898834 5.60175705
-13.4434576 -14.64478683 6.72061491
-10.29253769 -9.295294762 0.4509792328
-11.40212059 -10.99153233 0.8423966765
-19.20136452 -22.79845238 1.578767657
-9.589455605 -8.360461235 1.672706485
-9.65327549 -8.482050896 2.073118687
-9.638611794 -8.488022804 2.468396425
-9.578980446 -8.421692848 2.853517771
-9.804439545 -8.793664932 3.337902069
-9.591072083 -8.491455078 3.674418926
-12.43087196 -12.91415596 5.492417812
-13.51631641 -14.63788509 6.733984947
-10.32756233 -9.267188072 0.4531657994
-11.4110918 -10.9110775 0.8458104134
-19.23023415 -22.65426636 1.581593275
-9.804283142 -8.611027718 1.69148159
-9.69197464 -8.465921402 2.075630903
-9.734127045 -8.558040619 2.483798504
-9.585945129 -8.357756615 2.847535849
-11.6560812 -11.54021454 3.981405497
-9.625434875 -8.468578339 3.676241398
-13.85882187 -15.03948879 6.896841526
-10.34056568 -9.210371017 0.4571454227
-11.409688 -10.82050133 0.8493365049
-19.27502251 -22.53506279 1.584887624
-9.856805801 -8.614345551 1.69498682
-9.711856842 -8.421447754 2.075191498
-9.912633896 -8.751490593 2.517444134
-9.704925537 -8.463515282 2.873661995
-11.69509602 -11.49986935 3.981534243
-13.29739666 -13.97036648 5.2015028
-12.90956974 -13.42148304 5.681681156
-13.54501247 -14.43225384 6.69273138
-10.3914938 -9.209703445 0.4575414062
-11.4122591 -10.73668671 0.8526933193
-19.31619644 -22.42027092 1.58796382
-9.86316967 -8.552251816 1.694242954
-9.742100716 -8.396241188 2.07656455
-10.04012775 -8.869022369 2.539892912
-11.71870708 -11.44126415 3.976966381
-12.41679287 -12.53087139 4.815700054
-12.91788387 -13.32488823 5.664166927
-13.42668438 -14.13585758 6.60037756
-10.41763401 -9.172574997 0.4602416754
-11.41546726 -10.65464878 0.8559884429
-19.36467171 -22.31702614 1.591251254
-9.770012856 -8.367636681 2.077583551
-10.04640007 -8.804747581 2.535609245
-11.49365616 -10.98109722 3.365618467
-11.85251236 -11.54729557 4.010888577
-12.45276833 -12.48278999 4.813684464
-12.90957355 -13.20430279 5.638864994
-14.03320312 -14.93299866 6.908722401
-10.47428226 -9.179733276 0.4601169825
-11.42388439 -10.58095455 0.8590849638
-19.40693855 -22.20549965 1.594332218
-22.3652935 -26.70558929 2.853991508
-12.09718323 -11.7121973 2.435889959
-11.57880116 -10.98650551 2.864757061
-11.53503895 -10.95273018 3.367809772
-11.77602577 -11.34026527 3.971595764
-12.51029205 -12.46694851 4.820651531
-13.01370907 -13.25230503 5.667860508
-14.14059353 -14.97290707 6.940288067
-10.49733448 -9.141954422 0.462816745
-11.41162968 -10.48245335 0.8626011014
-19.42580986 -22.07815361 1.596495271
-22.34992599 -26.49789047 2.849117279
-11.5532856 -10.89932823 3.364454508
-11.53822327 -10.90802574 3.878170967
-12.56659317 -12.45408535 4.827944756
-12.67695522 -12.65845966 5.487960815
-13.98389053 -14.63247395 6.830054283
-10.50303268 -9.07227993 0.4675568342
-11.42913628 -10.41907692 0.8655144572
-19.47543907 -21.97044182 1.59986341
-22.34993172 -26.28394508 2.845144987
-11.62739086 -10.85007572 2.354684591
-11.4934454 -10.71959686 3.337902308
-11.52700043 -10.79864216 3.861731768
-13.28456783 -13.39779186 5.104363918
-12.72331333 -12.61910057 5.489032269
-14.22471428 -14.86322021 6.93311882
-10.54350281 -9.056090355 0.4688751101
-11.4316349 -10.33913898 0.8686739206
-19.51592636 -21.8589325 1.602845073
-13.03700924 -12.74642849 1.980960488
-11.64097023 -10.78220654 2.352642298
-11.52483177 -10.64446545 2.832901955
-11.53256798 -10.6849432 3.339208841
-11.54208565 -10.73291969 3.855091333
-13.17843151 -13.13663673 5.04345274
-12.90393257 -12.78022575 5.554763794
-14.20289326 -14.71262264 6.894460201
-8.681003571 -6.354446888 0.3274079561
-10.56482792 -9.016565323 0.4716459215
-11.43636703 -10.26721573 0.8715721965
-19.58194351 -21.79263496 1.606532335
-13.07640743 -12.70644474 1.982817531
-11.71052074 -10.79898834 2.359425545
-11.53230095 -10.57360554 2.828308344
-11.59353161 -10.69025707 3.347516537
-11.55143452 -10.66383171 3.847176313
-12.71143436 -12.36438084 4.837565422
-13.01960754 -12.84982586 5.590351105
-13.0833149 -12.9796257 6.265816689
-8.723698616 -6.360760689 0.326155901
-10.58303547 -8.969285965 0.4749084711
-11.43798256 -10.18750286 0.8746832609
-19.61447144 -21.67124748 1.609238029
-22.32706451 -25.66241646 2.832140923
-11.79036999 -10.82536125 2.367557764
-11.61601639 -10.61152077 2.840123653
-11.62166309 -10.64844036 3.346714735
-11.65936184 -10.73158836 3.872286558
-14.20640087 -14.4020834 5.42528677
-12.4464922 -11.92539215 5.301245689
-14.28379059 -14.60121727 6.886584759
-8.751393318 -6.343365669 0.3273848593
-10.62260437 -8.948283195 0.4765055478
-11.48903275 -10.17301846 0.8765287995
-19.69112587 -21.60390854 1.613409758
-22.43230247 -25.60436058 2.838016987
-11.82167912 -10.77846432 2.368060827
-11.6328249 -10.54579067 2.836945772
-11.70615959 -10.67780685 3.36058712
-11.64412498 -10.61933994 3.854984522
-12.93632507 -12.48144245 4.894947052
-13.07773972 -12.72278881 5.576842785
-13.16042614 -12.8774271 6.259323597
-8.783729553 -6.332304001 0.3279230297
-10.66628647 -8.936433792 0.4774976671
-11.55696297 -10.18559456 0.8777526617
-19.71079636 -21.4662838 1.615679383
-22.42884636 -25.39516068 2.83394146
-11.85538101 -10.73943138 2.369149685
-11.66543484 -10.50268936 2.837188959
-11.62681484 -10.47688293 3.329439402
-11.73892021 -10.66709328 3.875517368
-13.01680756 -12.49538517 4.910964489
-12.45984554 -11.74439335 5.268789291
-13.25038624 -12.90201378 6.28414917
-8.815899849 -6.326149464 0.3279841542
-10.6839695 -8.888977051 0.480730176
-11.61605644 -10.18955994 0.8790761232
-19.75917244 -21.36917686 1.618847132
-22.4173584 -25.19619751 2.829530001
-11.89474392 -10.7083807 2.371112108
-11.71908855 -10.49313736 2.842239141
-11.75327778 -10.57294846 3.355698586
-11.67280388 -10.48945713 3.841940165
-12.00346565 -10.98482513 4.491463184
-12.52640247 -11.74846935 5.28243494
-13.34284115 -12.92925358 6.310162544
-8.854091644 -6.32533741 0.3274275362
-10.71395588 -8.862039566 0.4826405048
-11.67483044 -10.18861198 0.8805707693
-19.79878807 -21.26072311 1.621722937
-22.40575981 -24.98945045 2.824975252
-11.89880753 -10.62888718 2.367756128
-11.68562698 -10.36758995 2.829195738
-11.81179142 -10.5692606 3.362855434
-11.73317719 -10.489007 3.850949049
-12.01754665 -10.91652489 4.482789993
-12.6133194 -11.77571011 5.304524422
-13.49132633 -13.03368092 6.365549088
-8.898300171 -6.332334995 0.3260187507
-10.74792862 -8.836956978 0.4844318628
-11.72772789 -10.17936325 0.882226944
-19.84855652 -21.16672325 1.624911666
-22.2911644 -24.64476204 2.811086655
-11.78337955 -10.38729858 2.34646225
-11.7447958 -10.36588573 2.835459471
-11.9484024 -10.67216969 3.391174316
-11.78441715 -10.47557259 3.856886864
-13.39799786 -12.73039627 5.014639854
-12.6982851 -11.7993536 5.325588226
-13.65073299 -13.15117455 6.426266193
-8.93783474 -6.332740307 0.3252978921
-10.78589821 -8.813692093 0.4861047566
-11.79264355 -10.18588829 0.8835716248
-19.90382957 -21.08067322 1.628265977
-22.27429199 -24.43597221 2.806158781
-11.83807278 -10.37894821 2.35084343
-11.86883259 -10.45176125 2.855313063
-11.92786503 -10.5594883 3.376861811
-11.78342152 -10.39070606 3.845508099
-12.11244583 -10.87284946 4.492108822
-12.7698698 -11.80383015 5.340417385
-13.62885284 -13.01729679 6.391821861
-8.976229668 -6.331370354 0.3247502148
-10.76310921 -8.713450432 0.4926183522
-11.84759521 -10.17467785 0.8853341937
-19.95992279 -20.99608803 1.631637216
-22.27170753 -24.24843025 2.802572012
-11.85355663 -10.31761932 2.349354029
-11.89968967 -10.40636539 2.8552742
-11.96778774 -10.52960014 3.378965139
-11.83675575 -10.38017464 3.852201462
-12.11276054 -10.78253937 4.477606297
-12.88385105 -11.86073971 5.373603821
-13.51799965 -12.76350594 6.311469555
-9.035284996 -6.354212761 0.3215512335
-10.70825577 -8.572161674 0.5017091632
-11.9091177 -10.17581749 0.8867813945
-19.9699173 -20.84315491 1.633582234
-22.27361107 -24.059515 2.799265146
-11.92804432 -10.33133411 2.356505156
-11.99495983 -10.4513588 2.868986368
-11.98241615 -10.4616766 3.373882294
-11.91318512 -10.39624977 3.865936279
-12.14301205 -10.73772621 4.475667477
-13.14670849 -12.12191868 5.474986553
-13.39647865 -12.4935503 6.225269794
-9.107880592 -6.396652222 0.3162607551
-10.78617954 -8.605753899 0.4997400939
-11.97803211 -10.18620014 0.888051033
-20.06622887 -20.81253815 1.638236046
-22.26764297 -23.87104034 2.795450687
-12.04523468 -10.40493679 2.370169401
-12.00343132 -10.38013649 2.864621878
-12.03149319 -10.44422531 3.378501892
-11.91721439 -10.31922531 3.856437445
-12.63513565 -11.31045723 4.653455257
-13.30757618 -12.24210262 5.529530525
-13.68398571 -12.78150463 6.351917744
-9.168640137 -6.422915936 0.3126829267
-10.80583096 -8.563024521 0.5025786161
-12.03126144 -10.17563438 0.8897201419
-20.09296608 -20.69879341 1.640545726
-22.26665115 -23.69085312 2.792123318
-12.0404129 -10.32086849 2.365879059
-11.94910431 -10.2268095 2.847329378
-12.1282444 -10.48953342 3.395810366
-11.96144772 -10.30018234 3.860707283
-13.41738319 -12.25936127 4.94227457
-13.96660042 -13.06332493 6.476192474
-9.217347145 -6.435687542 0.3105730414
-10.83139896 -8.528161049 0.5049073696
-12.07891178 -10.16159058 0.8913777471
-20.13265991 -20.59487152 1.643339992
-22.253088 -23.50475502 2.787859917
-12.09160328 -10.30659771 2.369724989
-11.99629879 -10.20798683 2.851107121
-12.13240719 -10.41651535 3.388901472
-11.98740101 -10.2529068 3.858510971
-13.45271301 -12.21487999 4.941384792
-13.28491879 -12.02569008 5.484101295
-14.0590477 -13.08367157 6.501139641
-9.263784409 -6.442519665 0.3090439141
-10.8502512 -8.488219261 0.507538259
-12.16911507 -10.19785213 0.8921619058
-20.14971161 -20.46253395 1.645380735
-22.25126457 -23.32679749 2.78453064
-12.10992718 -10.24954033 2.368726969
-12.08390903 -10.24550629 2.863487482
-12.19468403 -10.41566753 3.397012711
-12.04416466 -10.24608421 3.866351604
-13.95972157 -12.78281307 5.121130466
-13.22343922 -11.85095978 5.438932419
-14.02333546 -12.93469048 6.460675716
-9.307870865 -6.445990086 0.3078576028
-10.89776325 -8.481481552 0.5080672503
-12.27079964 -10.24776745 0.8927006125
-20.17466736 -20.34136772 1.647664666
-22.25089645 -23.15229416 2.781367064
-12.14997196 -10.22079182 2.370946646
-12.09718609 -10.18225098 2.860297441
-12.34891033 -10.53319168 3.429305792
-12.15735435 -10.31199169 3.892374516
-13.91590118 -12.62668324 5.088600159
-13.34314919 -11.9141283 5.474718571
-14.27381039 -13.16084385 6.565814972
-9.365704536 -6.46639061 0.3048242927
-10.91463757 -8.432572365 0.5112484694
-12.33568001 -10.25008297 0.8941305876
-20.21760559 -20.2437973 1.650526881
-22.2113018 -22.92941284 2.774727345
-12.15061665 -10.14171982 2.3674016
-12.14433861 -10.16282082 2.864070177
-12.5186348 -10.66844654 3.465467691
-12.30724335 -10.42370319 3.930038452
-13.9176836 -12.53104305 5.073774815
-13.36654568 -11.85141563 5.46765089
-14.42558384 -13.25526905 6.620306492
-10.96208858 -8.425502777 0.5117727518
-12.40012646 -10.24741268 0.8957250714
-13.12255764 -11.18337536 1.417705297
-13.05197239 -11.17765331 1.95337522
-12.18413258 -10.1050005 2.368699312
-12.55527687 -10.63182259 3.466627359
-12.35032845 -10.39702034 3.933271885
-12.04206657 -10.02934933 4.34513855
-13.41083622 -11.81128311 5.469053745
-14.43386936 -13.16323757 6.602237701
-10.99954796 -8.405776024 0.5130828619
-12.45396137 -10.23506451 0.8974205256
-13.15585709 -11.13878632 1.419622064
-13.08491516 -11.1283884 1.954693198
-12.20757771 -10.05570984 2.368543625
-12.62885189 -10.61159515 2.950435162
-12.20174885 -10.09800625 3.365805626
-12.40305996 -10.38249493 3.93960166
-12.09702015 -10.02030087 4.35351944
-13.57197571 -11.92458534 5.522683144
-14.49703598 -13.14202499 6.611896515
-11.04074097 -8.390551567 0.5140964389
-14.92941952 -13.21760845 0.8449275494
-20.2844944 -19.87775803 1.656992674
-12.31294632 -10.10901356 2.380310059
-12.46212673 -10.32043457 2.910753012
-12.23568821 -10.06562519 3.367076397
-12.43625641 -10.34317207 3.939723015
-14.88872814 -13.46743488 5.394484997
-13.80719948 -12.1341095 5.609239101
-14.47853661 -13.01702881 6.580788612
-11.11948299 -8.424424171 0.5119997263
-14.98739147 -13.1885891 0.8473083377
-20.25731468 -19.70407486 1.6574049
-22.17528915 -22.21141243 2.759501457
-12.30561733 -10.02526283 2.375880718
-12.44081116 -10.21768856 2.900927305
-12.29858875 -10.06547546 3.375469446
-12.43424606 -10.2639761 3.929251909
-14.51476479 -12.89575386 5.237821579
-13.53395748 -11.69714832 5.472745419
-14.0540266 -12.38712406 6.34914732
-11.21920204 -8.479678154 0.5085448027
-14.98575306 -13.0917902 0.8507951498
-16.22756767 -14.63824463 1.524399638
-22.16350937 -22.04071808 2.755681753
-12.37880421 -10.03755856 2.382953167
-12.33840752 -10.01187515 2.874620676
-12.43251324 -10.18181133 3.918470144
-13.49783039 -11.53662395 4.842451096
-13.62518406 -11.72477913 5.49642849
-11.27131844 -8.473015785 0.5089820027
-15.05472183 -13.07128906 0.8530916572
-16.25126266 -14.55137539 1.526267529
-16.24212646 -14.64550209 2.228312492
-12.39483452 -9.975436211 2.38159585
-12.41653728 -10.02986431 2.88464427
-12.43345356 -10.07495022 3.394511223
-12.4804678 -10.1576128 3.922925949
-12.62172413 -10.36139584 4.501196384
-14.42821789 -12.65583897 6.491960049
-11.29752636 -8.438323021 0.511172533
-15.09681034 -13.01820278 0.8559526205
-16.30759621 -14.5098381 1.529168248
-16.25938225 -14.55611706 2.22788763
-12.40230656 -9.907226562 2.379211426
-12.43383312 -9.969200134 2.882213116
-13.00988102 -10.69978142 3.534277678
-12.67674255 -10.31854153 3.974353075
-12.67030811 -10.33629704 4.506096363
-13.65528774 -11.57221794 5.474488735
-14.73919964 -12.94141388 6.624055862
-11.35444736 -8.440253258 0.5110410452
-13.02547073 -10.45159912 0.9024490714
-16.36647987 -14.46584034 1.532201052
-16.31843185 -14.51215744 2.231069565
-12.50668144 -9.952480316 2.390573978
-12.55771732 -10.04158115 2.90130353
-12.54438496 -10.04950428 3.406944275
-12.39712524 -9.895240784 3.876437902
-14.52687836 -12.51454449 5.180715561
-13.65470505 -11.48217678 5.457857132
-14.71970272 -12.81330681 6.592360973
-11.38694191 -8.412938118 0.5127405524
-13.01720905 -10.36185551 0.9054909945
-16.39388084 -14.49319553 2.235796213
-12.59811783 -9.984952927 2.400217295
-12.53102112 -9.931879044 2.890450001
-12.61914062 -10.06147575 3.418246984
-12.39463806 -9.815327644 3.865936995
-13.78521824 -11.52297211 4.892453671
-13.64869881 -11.38635063 5.439096451
-14.21111298 -12.09787655 6.323524475
-6.799280167 -2.942307949 0.3210317791
-11.42874241 -8.393249512 0.5139439702
-13.02010441 -10.28601646 0.908270359
-20.1595993 -18.71612549 1.662180424
-22.17055893 -21.23211479 2.7418859
-12.63088989 -9.946827888 2.4014678
-12.61084461 -9.950133324 2.900743484
-12.66493034 -10.03825188 3.422170639
-12.44455338 -9.798771858 3.87178731
-13.55920029 -11.16334534 4.795772552
-13.71003532 -11.37231159 5.449221134
-14.17956352 -11.966856 6.288551807
-6.810720444 -2.927378654 0.3223722279
-6.802890778 -2.926550627 0.50290519
-11.438941 -8.339917183 0.5172578096
-13.01932716 -10.2025528 0.9112321138
-20.11739731 -18.52867699 1.662011027
-22.14159584 -21.04180145 2.736605406
-12.66736603 -9.913168907 2.403258085
-12.7069006 -9.982995033 2.913925171
-12.64955807 -9.94243145 3.410658121
-12.50709248 -9.797005653 3.881538153
-12.74176693 -10.10020542 4.482723713
-14.88418484 -12.68115044 5.930749416
-14.46576023 -12.21723652 6.407711029
-6.81623888 -2.907023668 0.3248883188
-6.795351505 -2.891146898 0.5073498487
-6.806840897 -2.912420988 0.6824520826
-6.813662052 -2.929647207 0.8584461808
-20.05135155 -18.30856895 1.661073089
-22.15037346 -20.88967514 2.734535456
-12.70689774 -9.87928009 2.40532279
-12.85159206 -10.07583332 2.936881304
-12.63167572 -9.840726852 3.398248196
-12.5386076 -9.754426956 3.881239176
-12.80650711 -10.09847736 4.494357109
-14.763484 -12.44141102 5.862175465
-14.37103367 -12.00648117 6.341400146
-6.824260235 -2.889649868 0.3267922103
-6.804608822 -2.875272512 0.5087401271
-6.804367542 -2.882939339 0.6851199269
-6.815175056 -2.904565573 0.8599968553
-6.808178902 -2.904426813 1.036314845
-6.828619957 -2.935871124 1.213081598
-22.14279556 -20.72742462 2.73119545
-12.84313011 -9.961621284 2.421240091
-12.72315788 -9.848589897 2.906238794
-12.71016693 -9.856369972 3.410507441
-12.69167519 -9.85802269 3.91873312
-12.89407158 -10.12309933 4.51425457
-14.89747429 -12.50403881 5.901460171
-14.60135937 -12.18595695 6.432776928
-6.833511353 -2.87374568 0.3283886313
-6.822992325 -2.869806528 0.508490026
-6.810943127 -2.863998652 0.6866282821
-6.816549301 -2.879523039 0.8615399003
-6.814828396 -2.885364056 1.037130356
-6.843286514 -2.925729513 1.213822961
-12.95136452 -10.01001453 2.433146
-12.82025623 -9.88507843 2.91984272
-12.94614887 -10.05395508 3.462102652
-12.77648258 -9.880391121 3.935155392
-15.8826704 -13.5268364 5.584757805
-14.94041443 -12.45891094 5.902316093
-14.72389698 -12.23616886 6.471971512
-6.849257469 -2.86521101 0.3284674883
-6.84269619 -2.865743876 0.5080061555
-6.834609509 -2.864452124 0.6859983206
-6.816470623 -2.853017092 0.8631703258
-6.828001022 -2.873799801 1.03781724
-6.831500053 -2.885515451 1.213660717
-6.847281456 -2.928749561 1.391932368
-6.841170311 -2.929674387 1.570094228
-12.7966032 -9.781840324 2.909884453
-12.98817635 -10.02498341 3.465059519
-12.81532478 -9.848921776 3.937505245
-14.05023289 -11.30477619 4.907862663
-14.98949623 -12.42094231 5.905797958
-14.56663895 -11.9599781 6.377529144
-6.876859665 -2.869863272 0.3258233964
-6.846524715 -2.843820095 0.5103214979
-6.858319283 -2.864786625 0.685370326
-6.846791744 -2.860883713 0.8626262546
-6.833166122 -2.853217602 1.038648367
-6.842023373 -2.870865345 1.214256763
-6.83422184 -2.887030125 1.390329361
-6.842675209 -2.90444994 1.569129109
-6.847511292 -2.919205427 1.74979949
-12.82955456 -9.789243698 3.932409048
-14.76758957 -12.04231834 5.152806282
-15.00934982 -12.34930038 5.897143364
-14.47764015 -11.76589012 6.316274166
-6.878149986 -2.852916956 0.5077380538
-6.872743607 -2.854625225 0.6858888268
-6.861209393 -2.850729465 0.863214016
-6.852888584 -2.849045515 1.039207697
-6.855147839 -2.859171867 1.214940429
-6.842102528 -2.869355917 1.390555382
-6.846683502 -2.882244587 1.56852591
-6.85949564 -2.905904055 1.75023818
-6.854177952 -2.907807112 1.93082118
-6.871735573 -2.93584609 2.120271683
-14.97169018 -12.21234226 5.864727497
-14.41379452 -11.60282421 6.267440319
-6.895164013 -2.853274822 0.6854258776
-6.891658783 -2.858318329 0.8626759648
-6.868611813 -2.840320587 1.039839149
-6.864220142 -2.842972755 1.215483904
-6.856554508 -2.85911727 1.391354203
-6.851902008 -2.861546755 1.568101645
-6.862205982 -2.882184267 1.74889338
-6.863510132 -2.891503572 1.930541396
-6.875999451 -2.913592577 2.118222952
-6.859883308 -2.904877186 2.300312042
-11.75116444 -8.179478645 0.5265077949
-6.901777744 -2.850789785 1.040161848
-6.885297775 -2.840095282 1.216438651
-6.876314163 -2.854763746 1.392613769
-6.861009121 -2.845303297 1.56822741
-6.874052525 -2.868839741 1.749324203
-6.864882469 -2.86634922 1.92831552
-6.868400574 -2.878185987 2.112636805
-6.869261265 -2.888546467 2.29962039
-6.876312733 -2.90474534 2.492660046
-6.88340807 -2.921253443 2.69068861
-10.65383816 -6.917182922 0.6060922146
-12.96360874 -9.461774826 0.936050415
-6.91312933 -2.844507694 1.217626214
-6.893405437 -2.847355843 1.39364171
-6.884728909 -2.845295668 1.570390224
-6.879207611 -2.848090172 1.748477578
-6.888559818 -2.866175652 1.931589603
-6.882873535 -2.86768508 2.11371398
-6.882461071 -2.87654829 2.300307035
-6.884429932 -2.886931658 2.49123621
-6.878936768 -2.889178753 2.683046579
-10.72841644 -6.943719387 0.6042560935
-12.95905018 -9.384599686 0.9386177659
-19.48560143 -16.51520348 1.651975155
-6.915867329 -2.845774889 1.395133734
-6.912511349 -2.849585772 1.573112249
-6.897593975 -2.842037439 1.750176907
-6.892402172 -2.843943119 1.930002093
-6.90651989 -2.867311954 2.117539406
-6.882585526 -2.850051165 2.296380758
-6.887303829 -2.863374472 2.487693071
-6.892145634 -2.877070665 2.683733225
-11.87687969 -8.126726151 0.529289186
-12.94998837 -9.303185463 0.9412304163
-19.4240551 -16.32713699 1.650898099
-13.57873917 -10.07490444 1.969491959
-13.33134937 -9.826816559 2.459775686
-6.924008846 -2.844686747 1.753408432
-6.904109955 -2.830477953 1.930355072
-6.926246166 -2.862467051 2.120187044
-6.89172554 -2.833685875 2.295675993
-6.900419712 -2.851274967 2.488374472
-6.905310631 -2.864917994 2.684417248
-11.9110117 -8.100504875 0.5307354331
-12.95002651 -9.232192039 0.9436609745
-19.26194572 -16.03287506 1.646314621
-22.07732582 -19.18782425 2.700256348
-13.39705372 -9.822953224 2.465628862
-6.926449776 -2.828602552 1.933303237
-6.939353943 -2.850303411 2.120867729
-6.908674717 -2.825918198 2.297736168
-6.904391289 -2.829158783 2.485349417
-6.917149544 -2.851305962 2.684502602
-10.2501421 -6.256519318 0.3020515442
-11.93840408 -8.063962936 0.5328099728
-12.94146061 -9.152583122 0.9462040663
-19.28668976 -15.94125938 1.648186207
-22.07375336 -19.04375839 2.697565556
-13.51166153 -9.87126255 2.478204489
-16.1159935 -12.70489979 3.494303465
-13.48321247 -9.887336731 3.520679474
-6.945391655 -2.839541912 2.306722641
-6.929134369 -2.82978034 2.49078846
-6.934096336 -2.843286514 2.686970234
-10.25169468 -6.20853138 0.3060872853
-11.98745155 -8.053460121 0.5332343578
-12.95344925 -9.091840744 0.9485059977
-19.36725426 -15.90929794 1.651990294
-22.06532478 -18.89557838 2.69448185
-12.29318333 -8.494215965 2.307654619
-17.66602516 -14.26413155 3.780800819
-13.61630535 -9.954504013 3.545722961
-17.29899406 -13.93588352 5.170371532
-6.961127758 -2.836731434 2.498912096
-6.945847988 -2.829585075 2.687050581
-10.24457455 -6.149369717 0.3113010228
-12.03239441 -8.038385391 0.5339341164
-12.9592371 -9.02846241 0.9507651925
-19.38993835 -15.81610489 1.653775096
-22.05265427 -18.73720741 2.690943718
-12.17018795 -8.298091888 2.288016081
-12.06771374 -8.207211494 2.716997147
-16.78019524 -13.24441433 4.300769329
-16.31183052 -12.7778635 4.867562771
-15.73657322 -12.19048595 5.357728958
-15.21950531 -11.66359043 5.821289062
-15.03903294 -11.50105953 6.396792412
-10.23053074 -6.088376522 0.3168527186
-12.09394932 -8.040390015 0.5335378051
-12.99621105 -9.001443863 0.9524015188
-22.05017471 -18.60448456 2.688536406
-12.05415821 -8.111615181 2.269435644
-12.11034012 -8.188497543 2.720695019
-16.89748383 -13.27434254 4.320136547
-16.39176941 -12.76662254 4.879498482
-17.40674019 -13.87784195 5.924332142
-15.30730534 -11.67304897 5.842000961
-14.66981506 -11.01961327 6.210335732
-10.23956966 -6.049285412 0.319878906
-12.14155483 -8.030658722 0.5338849425
-13.0403862 -8.978382111 0.9540370703
-19.34503174 -15.5433836 1.654111385
-22.04487801 -18.46298218 2.685795069
-11.93951607 -7.931875706 2.251275301
-12.09386635 -8.110836983 2.713514328
-17.13594437 -13.42561531 4.368014336
-16.56526756 -12.85822678 4.919336319
-22.20821381 -18.84042931 7.5696311
-16.09579277 -12.41827965 6.142378807
-14.74988937 -11.02466202 6.230898857
-10.25835228 -6.022798538 0.3215488195
-12.11684513 -7.943360329 0.5391232371
-13.102314 -8.976883888 0.9552860856
-19.20035553 -15.2798996 1.650000811
-22.05070305 -18.34081841 2.684140205
-11.93989086 -7.870617867 2.248733282
-12.07440662 -8.027590752 2.705619812
-17.22567177 -13.42394733 4.380583763
-16.34217262 -12.52847672 4.842829227
-22.21043968 -18.7110157 7.551249027
-15.2742672 -11.46642017 5.799187183
-14.77699566 -10.96915817 6.226476192
-10.29480934 -6.009552002 0.3215754926
-12.16033459 -7.92329073 0.5400703549
-13.18176651 -8.986002922 0.9565096498
-19.1378727 -15.09783363 1.648791671
-22.06119728 -18.21090126 2.682678699
-11.98441887 -7.852308273 2.252085686
-12.05860901 -7.948872089 2.698472261
-17.01218414 -13.09754753 4.31994009
-16.55043793 -12.6458168 4.891610146
-15.45069695 -11.53358746 5.207154751
-15.39693546 -11.50299835 5.832323551
-14.88905334 -10.99846077 6.259813786
-10.33427143 -6.001561642 0.3210595846
-12.18260098 -7.884634972 0.5421988368
-13.28108311 -9.0145998 0.9574559927
-19.09255981 -14.94053268 1.648120403
-12.10052109 -7.893545151 1.832320213
-12.00098038 -7.80821085 2.251777411
-12.01483536 -7.839034557 2.685966492
-16.98391724 -12.97051239 4.304159164
-12.35870934 -8.230536461 3.666144371
-22.19260597 -18.4045887 7.503486633
-14.96761608 -10.99616051 6.278706074
-10.3707304 -5.987956524 0.321084857
-11.68602848 -7.324799538 0.5774285197
-13.31698418 -8.981898308 0.9592182636
-19.18421364 -14.91733074 1.652300596
-12.11023426 -7.839110851 1.832075
-12.052351 -7.796685219 2.256064415
-11.97442055 -7.736801147 2.674378395
-17.82980919 -13.73239231 4.495182991
-12.37017822 -8.175097466 3.661538601
-15.60997009 -11.51867485 5.23585844
-15.59430218 -11.52771664 5.879943371
-15.02976799 -10.97222233 6.28933382
-10.40316296 -5.972558498 0.3213661015
-12.22380638 -7.80436039 0.5466069579
-15.56350136 -11.15895176 0.9297800064
-19.13895416 -14.76200867 1.651605606
-12.13924122 -7.807490826 1.83352685
-12.04059601 -7.724154949 2.251959324
-12.03097725 -7.73371315 2.680839777
-12.44849682 -8.173523903 3.214305639
-12.30414677 -8.044435501 3.635056973
-15.81136036 -11.63659859 5.291931629
-15.48916054 -11.33309555 5.823692322
-15.02044296 -10.87911701 6.268722534
-10.44265652 -5.964029789 0.3208496571
-11.74456406 -7.26631546 0.5804511309
-15.591259 -11.10278034 0.9321425557
-18.945364 -14.46056843 1.645654321
-12.11451817 -7.722104073 1.830425739
-12.03265667 -7.656050682 2.248400211
-12.03446102 -7.676907539 2.677479267
-12.3938942 -8.05507946 3.19562602
-12.23179436 -7.908786774 3.606947899
-15.77159119 -11.50842762 5.265859604
-15.39229679 -11.14898109 5.771101475
-15.16326427 -10.94121075 6.316357136
-10.48359776 -5.956701756 0.3201749623
-12.27151394 -7.728018284 0.5506961346
-15.65646267 -11.07954597 0.9341125488
-19.22357559 -14.62851906 1.656364679
-12.11904049 -7.666551113 1.829816222
-12.03140354 -7.595128536 2.245768785
-12.14162922 -7.720933437 2.693073511
-12.1558094 -7.754389286 3.133960724
-12.17799473 -7.793186188 3.584345579
-15.84856129 -11.49427795 5.278887749
-15.29772472 -10.96498585 5.719089985
-15.07687855 -10.77077579 6.261568546
-10.53861237 -5.960484028 0.3181353211
-12.298666 -7.69470787 0.5524215698
-15.70528793 -11.04412842 0.9361655116
-19.02923584 -14.32992363 1.650348306
-12.09207535 -7.577318668 1.826503873
-12.04823208 -7.552522182 2.245586157
-12.1476965 -7.666723728 2.690217257
-12.15944386 -7.69444561 3.129030228
-12.14990711 -7.704339981 3.569244623
-12.55613804 -8.125892639 4.15564394
-15.35135174 -10.93515491 5.72601366
-15.0919323 -10.7037077 6.252277374
-10.57846737 -5.95392704 0.3174032867
-12.32998753 -7.665494442 0.5538730621
-15.72899628 -10.9883461 0.9384085536
-19.14094162 -14.33280277 1.655162811
-12.13151455 -7.559867382 1.82891202
-12.0421381 -7.487585068 2.242353201
-12.16056061 -7.619532585 2.68864274
-12.19630718 -7.673664093 3.132465601
-12.21474361 -7.708096027 3.580713511
-12.58601189 -8.095295906 4.157183647
-15.07689762 -10.60708332 6.229776382
-10.60661316 -5.93351078 0.3181565702
-12.3654871 -7.643241882 0.5548886657
-15.79049873 -10.96512794 0.9402768612
-19.18963814 -14.27391815 1.657739401
-12.13376904 -7.503140926 1.828136086
-12.04995441 -7.436689854 2.241003752
-12.16604328 -7.568347454 2.685940981
-12.22475624 -7.641526222 3.133675098
-12.23353004 -7.666209221 3.579079866
-12.63954639 -8.084794998 4.166243553
-15.7351408 -11.15154171 5.847928524
-15.13330173 -10.58174515 6.239040375
-10.65344143 -5.930889606 0.3168537617
-12.38654137 -7.60410738 0.5569475293
-15.20810318 -10.32436371 0.9503712654
-19.14726639 -14.12762833 1.65706861
-12.16445065 -7.47424221 1.829762697
-12.21485138 -7.538186073 2.260593176
-12.14002609 -7.483923912 2.677326202
-12.22903919 -7.585920811 3.129287243
-12.29285717 -7.663954258 3.588962793
-15.8791151 -11.20763969 5.889545441
-16.53999138 -11.87951946 6.843005657
-10.70902348 -5.936249256 0.3146082461
-12.4045248 -7.562184334 0.5591725111
-15.23121834 -10.26834774 0.9525802135
-19.16048622 -14.03564072 1.65836525
-21.98325539 -16.83966637 2.654720068
-12.22844028 -7.49235487 2.260006666
-12.10781479 -7.394285202 2.667645693
-12.23730278 -7.534497261 3.125871181
-12.35649395 -7.665482044 3.600042105
-17.85959244 -13.01897335 5.889828682
-16.09552383 -11.33270645 5.958925724
-16.75270844 -11.99652481 6.919139385
-10.74875927 -5.926273346 0.314099282
-12.44703579 -7.543543816 0.5598962307
-15.2918663 -10.24803448 0.9543081522
-19.30100441 -14.0647192 1.664198637
-12.17413807 -7.381915569 2.250432253
-12.14815235 -7.374898911 2.671212673
-12.28091812 -7.517249584 3.130674839
-12.44711971 -7.692453384 3.618688583
-16.31574631 -11.45904827 6.029426098
-16.7702179 -11.922616 6.909437656
-10.78414631 -5.912013531 0.3140619993
-12.47640419 -7.512413025 0.5614052415
-15.28982353 -10.1685667 0.9567965865
-19.2613163 -13.92316151 1.663592696
-12.31971073 -7.447258949 1.839959741
-12.25641537 -7.402097702 2.258988619
-12.22440243 -7.389473438 2.68129158
-12.47739792 -7.645335197 3.170741558
-12.26712608 -7.46053791 3.561292171
-12.58973026 -7.787494183 4.114822865
-16.44930077 -11.49999332 6.066342354
-16.95393944 -12.00854492 6.972416878
-10.82390404 -5.901660919 0.3135528266
-12.51882267 -7.493435383 0.562122345
-15.30346012 -10.10424995 0.9590706825
-19.24567223 -13.8052597 1.663833618
-12.30511856 -7.375314236 1.837795138
-12.25342751 -7.34127903 2.256260872
-12.18835735 -7.297474861 2.671037912
-12.21900845 -7.341230869 3.105975389
-12.31047535 -7.442930698 3.566771984
-12.61435127 -7.74982214 4.114510536
-16.2327137 -11.20680046 5.969211102
-16.6660862 -11.64332771 6.829872131
-10.86807346 -5.895174026 0.3125734627
-12.56561279 -7.475402832 0.562738359
-15.38474369 -10.09904766 0.9606509805
-19.28071404 -13.73522472 1.665881038
-12.33391476 -7.344434261 1.839273214
-12.28501892 -7.313216686 2.258116484
-12.20098305 -7.251924038 2.669631481
-12.25058079 -7.313103676 3.108108282
-12.32668591 -7.399608612 3.564675331
-12.62900448 -7.699790955 4.110532284
-22.11722183 -16.67741394 8.199192047
-22.28444099 -16.86977005 9.251112938
-10.91934776 -5.892562389 0.3110308051
-12.59619522 -7.442278385 0.5643068552
-15.46614838 -10.09339905 0.9622361064
-19.21944046 -13.57164288 1.664502263
-12.37135983 -7.318680286 1.841430426
-12.35443401 -7.317338467 2.264839172
-12.23223019 -7.221060276 2.671421051
-12.34266853 -7.338431835 3.123852253
