# .PCD v0.7 - Point Cloud Data file format
VERSION 0.7
FIELDS x y z
SIZE 4 4 4
TYPE F F F
COUNT 1 1 1
WIDTH 1328
HEIGHT 1
VIEWPOINT 0 0 0 1 0 0 0
POINTS 1328
DATA ascii
-9.79156971 -0.9707838297 0.3870643377
-40.84059525 -1.136805773 0.5426050425
-52.41096878 -1.237104297 2.305122137
-52.41036224 -1.170197487 4.137513161
-56.81116867 -1.026791573 8.422232628
-56.76874924 -0.9528838396 10.4428854
-56.78361893 -0.7828713059 14.57667542
-56.78409958 -0.706181109 16.69321823
-9.777713776 -0.9382944703 0.3866145015
-40.75914001 -0.9941523075 0.5386102796
-52.32798386 -1.063088298 2.29722023
-31.75738144 -0.953632772 2.813901424
-56.72881699 -0.8383085728 8.405105591
-56.70457458 -0.7546211481 10.42556572
-56.72605515 -0.5944731832 14.5565691
-56.66926956 -0.50825876 16.65459251
-40.73918533 -0.8519894481 0.5342422128
-52.28240967 -0.8804885745 2.290132999
-31.77555275 -0.8427296281 2.811544657
-56.65772629 -0.6404328942 8.389270782
-56.64365387 -0.5567868948 10.4089222
-56.61594009 -0.4824115932 12.44921398
-56.67562103 -0.3964870572 14.53804016
-56.66930008 -0.3099307716 16.64832687
-40.6627388 -0.7102308273 0.5302274227
-52.22620773 -0.6982495189 2.282762289
-31.75940704 -0.73187989 2.807021856
-32.28837585 -0.681891799 3.974380255
-56.57801819 -0.4431073368 8.37238121
-56.52683258 -0.3599178195 10.38291359
-56.10803986 -0.2801606953 12.33819866
-56.13079071 -0.1951615512 14.3994875
-56.16020584 -0.1186956316 16.49980736
-40.61379242 -0.5687750578 0.5260435939
-52.16730881 -0.5073218346 2.275052071
-31.6949749 -0.6215665936 2.799458027
-32.2300415 -0.5697168708 3.965119362
-56.08129501 -0.2413868904 8.299433708
-56.07020187 -0.1682878733 10.29939365
-56.05391312 -0.08474004269 12.3211031
-56.06340408 0.0001333963301 14.37725163
-56.08953476 0.07663203776 16.47419167
-40.56636047 -0.4276355207 0.521851778
-52.11389923 -0.3349360824 2.268094301
-31.41660309 -0.5143412352 2.778371572
-30.92944527 -0.4750898182 3.83356595
-56.02606201 -0.05604619905 8.286369324
-56.01116562 0.02674226835 10.28348637
-55.98551178 0.1002753824 12.30150414
-55.99545288 0.1851603538 14.35533237
-40.52243805 -0.2867670953 0.5176383853
-46.54256439 -0.2331086546 2.1047194
-31.38933563 -0.4050682783 2.773249388
-30.87643623 -0.3733548224 3.825218439
-31.29005051 -0.3201923966 4.972309113
-55.9455452 0.2212456167 10.26658249
-55.90068054 0.2942815721 12.27837849
-55.94228745 0.3798914254 14.33687401
-40.66798019 -0.1426469386 0.5121420026
-46.62604523 -0.06915207207 2.101982117
-31.14016724 -0.3002699316 2.7541399
-30.33943176 -0.276557833 3.769185066
-55.86784363 0.3320657611 8.253541946
-55.89501572 0.4156826437 10.25235462
-55.84259415 0.488384366 12.26089764
-55.86124039 0.5735259652 14.31183624
-51.86824417 0.2384434193 0.4307835698
-30.57098579 -0.2492052317 1.646054506
-31.25195312 -0.1944167167 2.758026123
-30.27769852 -0.1720374078 3.759953499
-31.54774284 -0.09486214817 5.00028801
-55.80065155 0.5988450646 10.23110294
-55.78383255 0.6820915341 12.24342346
-55.77563477 0.7664883137 14.28586674
-46.92962646 0.2936672866 0.459512949
-30.56274605 -0.1480032355 1.642658949
-31.49294662 -0.07895565033 2.769873857
-31.47110558 -0.03328536451 3.873853683
-31.69791794 0.01425708737 5.017312527
-55.73107529 0.7918979526 10.21388817
-55.70505905 0.8650369644 12.22224426
-55.73623657 0.9506798983 14.27149963
-51.74725342 0.5880233645 0.4203279614
-30.57801247 -0.04084674641 1.639759421
-31.7775631 0.03395343572 2.784598351
-31.36492157 0.06792736053 3.860388279
-31.87530518 0.1308501661 5.037822247
-55.67489243 0.9752240181 10.19932079
-55.64499283 1.05788064 12.20478153
-55.68817902 1.144079685 14.25494099
-51.69172287 0.7669176459 0.4149217904
-30.54910278 0.0597076118 1.635801792
-30.82071114 0.11347083 2.721228838
-30.56595421 0.1500771642 3.779014349
-30.86964607 0.2008332759 4.900863647
-31.77005959 0.2803733945 6.155277729
-55.57674026 1.240306854 12.18602848
-55.62810898 1.326961279 14.23588085
-40.24317169 0.5378346443 0.492936492
-46.53348923 0.7336041331 2.074314356
-30.35640335 0.2042728066 2.688928127
-30.56043816 0.2567497492 3.775407076
-31.68798828 0.3464662731 5.0067029
-31.74071884 0.3903721273 6.147402287
-55.49740601 1.44129324 12.16465473
-55.55155945 1.518504143 14.21275902
-31.80083084 0.3413192928 0.5513477325
-51.65421677 1.085069656 2.210598469
-30.26700783 0.3015346229 2.680342913
-30.82324982 0.3691322207 3.798192024
-31.05423927 0.424723655 4.919527531
-31.82745171 0.49975577 6.159323692
-55.39265823 1.621183634 12.13869667
-31.78628159 0.4518205225 0.5478665233
-31.83823586 0.4284917414 1.661429048
-30.09929848 0.4001200199 2.66674757
-30.86094093 0.4732568264 3.798989534
-55.41407776 1.649705768 8.155817032
-55.40748596 1.73229754 10.13418961
-55.38909531 1.805368066 12.13360023
-55.39687347 1.890349746 14.16685295
-40.08028412 0.9451673031 0.4807769954
-51.49201202 1.429836869 2.19528985
-30.10674667 0.5057541728 2.664122105
-30.81031418 0.5842145085 3.790900707
-55.36208725 1.841147423 8.143815994
-55.34974289 1.923444748 10.11967278
-55.3155365 2.00531888 12.11385155
-55.34122849 2.091292858 14.14907169
-40.05524063 1.091067195 0.4761984944
-33.35171509 0.7308216095 1.695598722
-30.27106476 0.6246502995 2.67112112
-31.06370544 0.7051799893 3.812610388
-31.75474167 0.78820467 5.003984928
-55.28889847 2.123757839 10.10451698
-55.24370575 2.195225954 12.09482193
-55.31639099 2.28397131 14.13910198
-40.00806427 1.228651881 0.4720171988
-33.33393478 0.8465702534 1.691531062
-30.82187843 0.7603197098 2.7022686
-31.13973618 0.8181634545 3.817049026
-31.44823074 0.8820713162 4.96049118
-55.22390366 2.313785315 10.08901405
-55.18686295 2.38558054 12.07900143
-55.25207138 2.474149704 14.11976242
-39.94084549 1.357837677 0.4682244658
-45.79568863 1.66054523 2.024546385
-30.83633041 0.8636725545 2.700212955
-31.54324722 0.9509586692 3.853333712
-31.36113167 0.9870480895 4.946192265
-55.16273499 2.493993521 10.0744915
-55.12545395 2.575330257 12.06238556
-55.15604401 2.661891937 14.09293938
-39.88477325 1.494270205 0.4641188681
-45.75514221 1.810459614 2.018792868
-30.57116508 0.9555774331 2.680702209
-31.68196678 1.070138335 3.863864899
-31.37887764 1.092643142 4.945982456
-55.08268738 2.682298422 10.05668068
-55.06201172 2.754924059 12.04568481
-55.07548523 2.840430021 14.07018375
-39.8526268 1.624920964 0.4600468874
-45.78543854 1.972629905 2.014708996
-30.47937965 1.051469922 2.672133207
-31.72325516 1.178372622 3.865096331
-31.59771538 1.217394352 4.972311497
-55.02031326 2.861686707 10.04216862
-54.97586823 2.94225502 12.02428436
-55.04803467 3.031965971 14.06021976
-39.81160355 1.761785865 0.4558180571
-45.77978516 2.12466979 2.009910822
-30.44868469 1.156250954 2.667219162
-31.841259 1.297794938 3.873641729
-31.55733109 1.319896817 4.964470863
-54.97245026 3.051433325 10.02999878
-54.93664169 3.122850895 12.01278973
-55.01281357 3.213148117 14.04869652
-39.79055786 1.892865539 0.4516481459
-46.49107742 2.334672213 2.023942471
-30.59322548 1.267960191 2.673279524
-51.0620575 2.79591918 5.732141018
-31.76736259 1.446221232 4.989675045
-54.9108429 3.230247021 10.01582813
-54.85706711 3.309827566 11.99300003
-54.92203522 3.399490833 14.02377701
-39.85232925 2.036947966 0.4465350211
-32.60992813 1.476932287 1.651499629
-30.93405533 1.400681257 2.691259146
-30.87736893 1.442551017 3.774825096
-54.83689117 3.334495544 8.037049294
-54.81648254 3.415810585 9.996064186
-54.79318619 3.487962008 11.97672367
-54.83133316 3.575660944 13.99918079
-50.90840912 3.030893326 0.3460352719
-32.51182175 1.583859682 1.645442367
-31.08725166 1.521224976 2.697661638
-30.31406403 1.500939369 3.717789888
-54.76328278 3.521277905 8.023000717
-54.77654266 3.605278492 9.985557556
-54.8803215 3.688036203 11.99123955
-50.85445404 3.20523119 0.3406162262
-32.27385712 1.678970337 1.635735869
-31.22406387 1.641576409 2.703047514
-30.78198051 1.646216035 3.760336876
-55.17510605 3.748564243 8.073142052
-55.3550415 3.847635984 10.07896519
-55.63254929 3.946785212 12.1416111
1.518392444 52.73238373 13.34619427
1.700230718 52.60464096 13.31554985
1.884331346 52.56578827 13.30589581
2.078965664 52.80457306 13.361413
1.009328842 25.57927513 1.32743299
1.091570377 25.44394493 1.323869228
2.404528141 53.02331543 11.44026756
2.442421198 53.01429367 13.4102478
1.90260458 41.44854355 1.648305058
2.048303366 41.40174484 1.646045566
2.811193228 52.90942383 13.38609409
2.193822384 41.35643005 1.643845677
2.995680094 52.86673355 13.3765564
2.337934017 41.29065323 1.64126122
2.476498604 41.26274109 1.639532328
1.029006243 15.7490263 4.077058315
2.613789082 41.21641541 1.637457252
1.01589179 14.70198727 3.870358467
2.75800252 41.16717148 1.635292053
1.021285176 14.55883503 1.64077723
1.0298177 14.26312447 3.236129761
1.026211977 13.91258335 4.257110596
2.901481152 41.11144257 1.633025289
1.149219751 15.57898712 1.6967448
1.002026081 13.36689186 2.076687336
1.074363232 14.10966969 3.211456776
1.024114966 13.27368069 3.588585854
1.084576488 14.00617313 4.279390812
3.045773268 41.07118988 1.631098509
1.206314445 15.57093048 1.696006536
1.058986664 13.42873383 2.082138538
1.04698503 13.17257977 2.55742383
1.116562486 13.97399998 3.189685106
1.069995046 13.22708416 3.579637051
1.14004457 14.05292702 4.290753841
3.188149691 41.00849915 1.628749728
1.241828203 15.28192329 1.679797411
1.126121521 13.68139076 2.104857206
1.086486697 13.04822254 2.541811705
1.164837003 13.96046638 3.187658787
1.118071198 13.24312782 3.583089352
1.179286003 13.89173985 4.253452301
3.332348824 40.97323227 1.626980782
1.296641231 15.29367828 1.680202842
1.141393781 13.12353516 2.55133462
1.226079702 14.07448673 3.206274986
1.174529195 13.32921028 3.60043931
1.228731751 13.86632347 4.248000145
3.47567749 40.92950439 1.625069618
1.333746076 15.05824375 1.666992068
3.874657393 44.74758148 6.528369427
1.286284089 14.16661835 3.2213943
1.230420113 13.40138626 3.615084171
1.277006149 13.8290987 4.239827156
3.609564304 40.8639946 1.622801304
1.332324982 14.3989954 1.630458832
1.193130612 12.69862461 2.015900135
1.408670187 15.06867313 2.796143293
1.334908009 14.12083149 3.214274168
1.274927735 13.34043694 3.603453398
1.331397176 13.89086819 4.254871368
3.752473831 40.82130814 1.620966792
1.341289163 13.90502834 1.603061676
1.236446381 12.67678833 2.013906717
1.23979795 12.61720276 2.487962484
1.233631372 12.48047447 2.949565172
1.326001525 13.38117981 3.611943483
1.374634385 13.80094528 4.234436035
3.89474678 40.77415085 1.619071245
1.496335149 15.02985954 1.664833784
1.27823472 12.61493015 2.008317471
1.286391497 12.60891056 2.487072706
1.277436972 12.44865608 2.94473052
1.373818755 13.3589983 3.608053207
1.439833522 13.94352818 4.268557549
4.038290501 40.74243164 1.617511511
1.539033294 14.89339542 1.657153249
1.325249195 12.61043739 2.007929087
1.334108949 12.61230755 2.487679005
1.315582395 12.36167431 2.931011915
1.437089682 13.49286938 3.635070324
1.480717778 13.83390427 4.243592262
4.173009872 40.69701767 1.615751028
1.550704002 14.45879269 1.633082032
1.385736585 12.73855877 2.019537687
1.381131887 12.63156605 2.490296602
1.37028861 12.44155216 2.944289446
1.529345393 13.89779091 3.715767145
1.54587853 13.98983955 4.280917645
4.312651634 40.6305275 1.613553524
1.500855446 13.4641943 1.578216553
1.440578938 12.8270483 2.027584791
1.434817433 12.68988705 2.497865438
1.415109396 12.44487381 2.945206165
1.534373045 13.48297977 3.634285212
1.613438845 14.13360977 4.315493107
4.454431534 40.58742905 1.611849546
1.655842066 14.45589542 1.632684827
1.488115668 12.82000923 2.02702713
1.474291444 12.61384392 2.488553286
1.600326896 13.70798492 3.149867535
1.701784968 14.54461765 3.845084667
1.661416173 14.09124851 4.306449413
4.597084522 40.55377579 1.61036098
1.594240069 13.39389515 1.574151993
1.538280725 12.83655834 2.028620958
1.523243308 12.62643433 2.49042058
1.657556772 13.73744202 3.155164242
1.781312704 14.7431345 3.88518095
1.697840333 13.95004082 4.274245739
4.744254112 40.4969635 1.608400941
1.641282678 13.36446953 1.572458148
1.625299931 13.14946938 2.057015419
1.596207738 12.82387447 2.515602112
1.708812952 13.73558712 3.155408144
1.825477004 14.65119076 3.867781162
1.764156342 14.04832077 4.298359871
1.864499092 14.8811779 1.100234866
1.768324733 13.98901653 1.606752038
1.776494026 14.00221539 2.134206057
1.65073669 12.87543392 2.522435904
1.751997709 13.64502525 3.141363621
1.834911823 14.25489044 3.790166378
1.819440365 14.07121658 4.304781914
1.910978675 14.82728291 1.098899961
1.807500958 13.92196751 1.603022099
1.827193975 14.00815964 2.134909391
1.699608207 12.89752769 2.525569201
1.782651424 13.51998901 3.121676922
1.889923096 14.23531914 4.344378948
1.92141211 14.5411129 0.5497199893
1.929587483 14.53084564 1.092766404
1.889940977 14.16130829 1.616155863
1.872576714 13.95036125 2.129883051
1.759269118 12.98411846 2.536872864
1.799827456 13.25519466 3.079448462
1.797687054 13.17003918 3.576830864
1.939353585 14.2055912 4.338545322
1.975049257 14.53232098 0.5493576527
1.981457949 14.53032589 1.092511773
1.935491323 14.10117912 1.612832785
1.929610252 13.98527622 2.133257627
1.818407655 13.08061314 2.5494349
1.849210382 13.25087833 3.079409361
1.951143742 13.9114809 4.270534515
2.025435925 14.51973343 0.54908216
2.054342031 14.66805172 1.094982862
2.008985519 14.2547245 1.621279001
1.978011847 13.97292614 2.132370234
1.919012427 13.4637394 2.598176479
1.900326133 13.27803135 3.084465981
1.883875966 13.09157372 3.563032389
2.004513025 13.9201622 4.273801804
5.573583126 40.23419952 1.599073529
2.06073451 14.2598877 1.621578455
2.028934002 13.96006775 2.131470203
1.938992977 13.23878288 2.570311308
1.969709873 13.41812801 3.107893467
1.907404423 12.90423393 3.526822329
2.080992699 14.09457207 4.316112995
3.040240049 20.96344376 1.218605042
2.112970352 14.24868393 1.620994329
2.0756495 13.91744232 2.127900362
1.999175549 13.31061077 2.579884529
2.016366243 13.38975334 3.104063749
1.956079483 12.9034338 3.527648926
1.972935319 12.96311188 4.051132202
3.105159998 20.87353897 1.216524363
2.166570663 14.24718475 1.620960236
2.251502991 14.77578449 2.20585537
2.026738405 13.15237236 2.560469151
1.996424556 12.90193939 3.025772333
1.993211746 12.82283497 3.512670994
2.033864498 13.04493427 4.071683884
3.170940399 20.79333878 1.21465075
2.208604574 14.16645718 1.616583705
2.069180727 13.10209465 2.554692268
2.049444199 12.87413788 3.523920059
2.072363615 12.9723835 4.055932045
3.268217087 20.95280266 1.21752131
2.255436182 14.12116909 1.614172578
2.516390085 15.79394531 2.298728943
2.113915205 13.08541393 2.553149223
2.08123827 12.8156147 3.013415337
2.08240819 12.78588581 3.507430315
2.084468126 12.7460537 4.003903389
3.335750818 20.91024017 1.216428638
2.392096996 14.68015957 1.645022869
2.559717417 15.70878696 2.291419744
2.161895752 13.09016609 2.554336071
2.128876448 12.82433605 3.015656948
2.15130043 12.93220615 3.537591696
2.147078514 12.85273838 4.030384064
3.409615278 20.88465691 1.215670466
2.443947554 14.67415047 1.644802094
2.632882595 15.81637001 2.301583529
2.182302237 12.90422344 2.531494141
2.24676013 13.27563858 3.08979702
2.21835804 13.04489326 3.561184168
2.41855526 14.24752903 4.360817432
3.423606873 20.4856472 1.207593679
2.498491526 14.66753578 1.644570231
2.417361975 14.10790825 2.147291899
2.248312712 13.00826836 2.54530549
2.30796051 13.34187889 3.101522923
2.262915611 13.01393318 3.556257963
2.475074291 14.26413345 4.366388798
3.530449152 20.67092514 1.211006641
2.569510698 14.76123524 1.649877548
2.283372402 12.92012882 2.534860134
2.368995667 13.40396976 3.112618446
2.310823917 13.00412846 3.55557704
2.530459166 14.27283955 4.370150089
3.582555532 20.52043915 1.207842827
2.580464602 14.49222469 1.63523221
2.764258623 15.53269863 2.277361155
2.337332249 12.94737244 2.539025068
2.413034678 13.36260796 3.10693717
2.357705832 12.98835182 3.553745747
2.59018445 14.30630684 4.379812717
3.641383171 20.43750191 1.206029534
2.62563324 14.43395329 1.632203579
2.822425365 15.52890301 2.277556419
2.370237827 12.8652935 2.52935195
2.527740479 13.73171425 3.168055296
2.405511141 12.97821617 3.553076506
2.642532825 14.31120586 4.382692814
3.769305944 20.73199654 1.211618543
2.687282801 14.47194672 1.63449347
2.865023613 15.4527998 2.271188736
2.453448057 13.05834103 2.554556608
2.597900629 13.84781647 3.188032389
2.658836842 14.14529705 3.787034512
3.874813557 20.88804626 1.214504123
2.746888876 14.51213932 1.636911035
2.926453829 15.46825981 2.273177624
2.53662324 13.24316216 2.578769445
2.729762554 14.28774548 3.260847092
2.697407007 14.06072426 3.771715641
4.008589745 21.19314766 1.220320344
2.860802889 14.81834221 1.654030204
2.98016715 15.44037056 2.271258116
2.617180109 13.40609646 2.600260019
2.826800585 14.50500488 3.297561407
2.760020971 14.09525967 3.780271769
4.090693951 21.20657539 1.220435977
2.937033653 14.92414951 1.660116792
3.965388775 20.40187645 2.722565413
2.674159288 13.43597126 2.604934216
2.850114822 14.33403492 3.27100873
2.805420399 14.06492424 3.775766134
8.382953644 43.68814468 11.34763718
4.152195454 21.17415428 0.4354795218
4.152790546 21.13396072 1.218887925
2.992716312 14.93202114 1.660809517
4.168962002 21.09133339 2.786034107
2.715179443 13.39394951 2.600477457
2.673822641 13.13541412 3.076809406
2.834093571 13.94770145 3.753938198
8.52849865 43.6547699 11.34549522
4.231099129 21.12721062 1.218636632
2.925834656 14.30234337 1.62634778
4.308812618 21.4256382 2.817302465
2.77841258 13.45460987 2.609117031
2.712949514 13.08972454 3.070556641
2.882559061 13.92242718 3.750588655
8.679737091 43.60987091 11.34106445
4.183079243 20.47454834 1.205764294
2.901926756 13.90012264 1.604445457
2.991167784 14.31314564 2.171401739
2.809469223 13.34948826 2.596748829
3.016331673 14.37057877 3.280961037
2.901909828 13.75068188 3.717984438
8.83343029 43.57782364 11.33982468
4.260320663 20.47356796 1.205656886
2.955020189 13.89777565 1.604618073
3.031173229 14.23821259 2.165270329
2.858974934 13.33967113 2.596500635
3.256992102 15.29325008 3.433133841
2.978288889 13.86756134 3.743139744
8.981590271 43.51851654 11.33225822
4.354303837 20.55461693 1.207167268
4.352865219 20.51005745 1.970108986
3.088196278 14.24907207 2.166966438
2.888972282 13.23440266 2.584149361
9.078857422 43.44553757 8.03621006
3.055516958 13.98408413 3.76829648
9.131036758 43.46633911 11.32652378
4.431918621 20.55302238 1.207075119
3.164057255 14.38924122 1.632425308
3.142501593 14.24606228 2.16742444
2.950598955 13.28454494 2.591573954
9.227887154 43.39068604 8.031679153
3.180135965 14.32309914 3.838106155
9.281412125 43.41937637 11.3221674
4.511220455 20.55897331 1.207144499
3.1851933 14.22571468 1.62375021
3.079586744 13.65092373 2.639272213
9.379518509 43.34884644 8.029381752
3.242275238 14.35618877 3.846713066
9.433197021 43.37952423 11.31964302
4.613198757 20.67022133 1.209286094
3.221545458 14.13838482 1.619297504
3.116919279 13.61424541 2.111344337
3.167722225 13.81478786 2.661274195
9.531795502 43.31034851 8.027734756
3.295568705 14.34682274 3.846858025
9.58398056 43.33533859 11.31623077
4.678609371 20.60906982 1.208071589
3.287508011 14.18952942 1.622518301
4.747478008 20.83946037 2.771370173
9.653556824 43.20158768 6.40621233
9.683481216 43.26939774 8.025790215
3.355149746 14.36602306 3.852781534
9.732064247 43.27922058 11.31011772
4.74638176 20.57784271 1.207455873
3.357749462 14.25794601 1.626714826
4.817036152 20.79561996 2.768556356
9.79475975 43.15019226 6.403112888
9.830712318 43.20864868 8.020702362
3.414472103 14.38307953 3.85832572
9.870960236 43.21860504 11.30269718
4.737925529 20.23887634 0.4444899559
4.851921082 20.69774055 1.209807515
3.421933889 14.29682732 1.62929666
4.849278927 20.60470963 2.752276421
9.942527771 43.09274292 6.399504662
9.969992638 43.14912796 8.015666962
3.453936815 14.32394505 3.848495245
10.02323437 43.18241501 11.30160427
4.935651779 20.71773911 1.210220814
4.965939999 20.81908989 1.991099358
10.09489059 43.05607224 6.398631096
10.11883545 43.0970459 8.012196541
3.503171206 14.29662323 3.845201969
10.17230511 43.13240814 11.29735947
5.063415051 20.9263649 1.214335799
5.015352249 20.68885231 1.984541535
3.554299355 14.36565781 2.184118509
10.24035263 42.98988724 6.394072533
10.26967049 43.05406952 8.010325432
10.29747486 43.07691956 9.641613007
10.32381916 43.09328079 11.29585075
5.17464304 21.07492256 1.217288852
5.078130245 20.61878967 1.981338024
10.37107944 42.95602798 4.801931381
10.37740612 42.92308807 6.389315605
10.41989231 43.00865173 8.008156776
10.44043446 43.03524399 9.639515877
10.46260929 43.03457642 11.28940678
5.230212212 20.98570633 1.215605974
10.47580147 42.8457489 3.215607166
10.51502132 42.91769028 4.801031113
3.570398808 13.95733643 2.6882267
10.56275272 42.966465 8.006350517
10.58231163 42.98928452 9.636667252
10.60432529 42.98869324 11.28614998
10.61204529 42.83280182 1.642975092
10.6204834 42.81087494 3.215076685
3.718975067 14.37359619 2.187618732
3.62247467 13.94679546 2.688285351
10.70030308 42.90270996 8.001085281
10.7334528 42.94863892 9.635345459
10.75344276 42.94049454 11.28288269
10.75775719 42.76836777 1.641901016
10.7716856 42.76977921 3.214320421
10.79863548 42.79130554 4.794996262
10.82319355 42.80306625 6.386199951
10.85037422 42.85773087 7.999286175
10.88066292 42.89222717 9.630965233
10.90516376 42.90312958 11.28235149
10.9046278 42.70926285 1.640959382
10.92177105 42.7242775 3.213366985
10.95153236 42.75738907 4.794831276
10.97159958 42.75178909 6.383954525
11.00265026 42.82181168 7.999085426
11.02425003 42.8219986 9.623911858
11.05438137 42.855793 11.27957439
11.05759716 42.67486954 1.64052999
11.07383347 42.65504837 3.211222887
11.09941006 42.70363235 4.792910576
11.11732769 42.69039154 6.380494595
11.15995407 42.77386093 7.997298241
11.18478203 42.78739548 9.624545097
11.20339775 42.80793762 11.27681637
11.20597267 42.62250137 1.63977766
11.21998119 42.59497452 3.209553957
11.26108742 42.67249298 4.793289661
11.26971722 42.65539932 6.380506039
11.30699444 42.71774673 7.993976593
11.32908726 42.75231552 9.624475479
11.34731293 42.74071884 11.26954651
11.34805489 42.57741165 1.639180303
11.36180782 42.54990768 3.208679914
11.39543247 42.59846497 4.789479733
11.41343212 42.61802292 6.380065918
11.4472332 42.66693115 7.991327286
11.46629429 42.69018555 9.619038582
11.48979568 42.69950104 11.26820564
11.49752331 42.52986145 1.63857758
11.50549412 42.51210785 3.208253145
11.53503513 42.54520416 4.78763628
11.56661606 42.58583069 6.380607128
11.59183311 42.6328392 7.99153614
11.61682606 42.64836884 9.618211746
11.64371204 42.67085648 11.27048206
11.64473152 42.47407532 1.637841821
11.65662766 42.47179794 3.207821846
11.68868732 42.51447678 4.78809309
11.70833397 42.51094818 6.375739574
11.73667049 42.56953812 7.987320423
11.76360703 42.59277344 9.614710808
11.79144192 42.61910248 11.26734352
11.79432011 42.4274292 1.637313724
11.80129719 42.40784073 3.206117868
11.83492279 42.4562912 4.786087036
11.85700893 42.46239471 6.374344349
11.88382816 42.51527786 7.98470211
11.90496254 42.51774597 9.607383728
11.9373951 42.56121063 11.26286507
11.94744492 42.39376068 1.637068987
11.9563961 42.35287476 3.205058336
11.98939419 42.42834091 4.786934376
12.00548744 42.41333771 6.372967243
12.12700748 42.77812958 8.03512764
12.17124462 42.86374283 9.686178207
13.05588818 45.99728012 12.10139275
12.09724808 42.3480072 1.636615157
12.11073303 42.32445145 3.205435753
12.24984646 42.74872208 4.820209026
12.27775669 42.80516052 6.428575516
13.2306776 46.11980057 8.596745491
13.26934147 46.21083069 10.3751545
13.2948761 46.22375488 12.16664028
12.35652447 42.71749878 1.644321918
12.38341141 42.741436 3.230693102
13.35416031 46.08638763 5.132236481
13.38424969 46.14719009 6.865203857
13.39753819 46.11776733 8.603326797
13.41904068 46.14807892 10.37094593
13.45194149 46.18735504 12.16809082
13.45205784 45.99200058 1.709152102
13.4818182 46.0208931 3.416401863
13.50330448 46.02096939 5.129937649
13.53727627 46.0951767 6.863868237
13.55467415 46.08098602 8.604243279
13.57170105 46.09616852 10.36906338
13.60674477 46.14294052 12.1677475
13.60730839 45.94719696 1.70881629
13.63196468 45.95879364 3.415100574
13.66609573 46.0029068 5.132086754
13.68788338 46.03503036 6.861564636
13.70838833 46.03231049 8.603283882
13.72748947 46.05506134 10.36950493
13.7603054 46.0942688 12.1665163
13.78518581 45.88891983 1.70833683
13.81137562 45.90625 3.414736509
13.84264565 45.94075012 5.130839348
13.86491776 45.97480774 6.860218525
13.88521099 45.97212601 8.601663589
13.91008949 45.98498917 10.36605835
13.93362999 46.02293777 12.1616354
13.94767094 45.83866119 1.707986832
13.96916008 45.84066391 3.413459301
13.99108505 45.8737793 5.128598213
14.02998257 45.93399811 6.860897541
14.0340004 45.90722656 8.59821701
14.07005215 45.95779037 10.3696146
14.09599876 45.97449112 12.16133404
14.10765457 45.78017807 1.707505941
14.12488174 45.79803085 3.413398266
14.14676762 45.80197525 5.12618351
14.19377708 45.88880539 6.861104012
14.19865417 45.86584854 8.599194527
14.2278347 45.8937645 10.36625576
14.25818825 45.9254837 12.1610527
14.26623344 45.71733093 1.706969738
14.28567696 45.74284744 3.412804842
14.31439877 45.76965332 5.127509117
14.35277748 45.82785416 6.859357834
14.36201477 45.82011414 8.599560738
14.38764095 45.83671951 10.36445522
14.42021561 45.87590408 12.1607914
14.43223953 45.67877197 1.70694375
14.44506168 45.68328857 3.412015915
14.47724628 45.72150421 5.127437115
14.51150131 45.76637268 6.857631207
14.52758884 45.78134537 8.601207733
14.54837894 45.78287888 10.36344337
14.58092308 45.82204056 12.15964508
14.5933485 45.62435913 1.706635714
14.60482693 45.62509537 3.41135478
14.63574314 45.65948868 5.126145363
14.67594051 45.72327423 6.858389854
14.68238449 45.70808792 8.597193718
14.71010494 45.7322197 10.36321926
14.73905563 45.76019669 12.15670776
14.74979401 45.58340454 1.706583977
14.7697916 45.58347702 3.411680937
14.79400158 45.59692764 5.124873638
14.83095932 45.67838669 6.85868597
14.84164333 45.64936447 8.595726013
14.87404156 45.68847275 10.3645525
14.89480877 45.71893692 12.1583252
14.90749645 45.51837158 1.70612669
14.93035507 45.52797318 3.411274433
14.94268608 45.53263092 5.123276711
14.99392319 45.63037872 6.858990669
14.99804783 45.60961151 8.597126007
15.02375221 45.62807083 10.36207104
15.05850887 45.67455673 12.15995312
15.06055069 45.46683502 1.705923319
15.09253788 45.50492096 3.412615061
15.10906029 45.49554062 5.124522686
15.14496803 45.57311249 6.857843399
15.15753746 45.5516777 8.596012115
15.17322731 45.56718826 10.3596077
15.21039486 45.62112045 12.15889263
15.21530056 45.42050171 1.705851197
15.23662853 45.42628479 3.410858154
15.26727295 45.46051407 5.125795364
15.29952335 45.5266571 6.858193874
15.31429958 45.51273346 8.597764969
15.3273859 45.52073288 10.36023617
15.36086369 45.56347275 12.15694332
15.37734318 45.36907196 1.70575273
15.39420509 45.38890457 3.411482334
15.42039299 45.40982056 5.125669479
15.45821667 45.46571732 6.857077122
15.46222973 45.44702911 8.595117569
15.49564362 45.4896965 10.36472034
15.51976967 45.5045166 12.15546036
15.54111195 45.32276535 1.705786943
15.54577541 45.30662155 3.409755945
15.57565689 45.33892822 5.123963356
15.62302208 45.42303085 6.858445168
15.6229744 45.39311218 8.595007896
15.65885639 45.44317627 10.36614895
15.68530655 45.46530533 12.15897465
15.70219326 45.26829529 1.705690861
15.71560955 45.27867508 3.411164522
15.73769951 45.28824615 5.124223709
15.78259277 45.36471939 6.857860565
15.78735733 45.3498497 8.596810341
15.81304455 45.3700676 10.36221886
15.84382725 45.40522003 12.15753174
15.8585186 45.2000351 1.705350995
15.87438393 45.21800613 3.41076684
15.90216637 45.24453354 5.125213146
15.94323826 45.3096199 6.85778904
15.95033932 45.3022728 8.598003387
15.97203922 45.31128693 10.36138153
16.00912666 45.36484146 12.16108608
16.02375603 45.15768433 1.705558062
16.03554535 45.16433716 3.410819054
16.06586075 45.19834518 5.12604475
16.10238266 45.25020599 6.857244492
16.11317825 45.25411224 8.599215508
16.13729477 45.27048492 10.36440754
16.16404152 45.29444122 12.1574192
16.18423653 45.10154343 1.705521345
16.20190239 45.09974289 3.410459995
16.22676849 45.14407349 5.126188755
16.26527214 45.20147705 6.858199596
16.28453064 45.20440674 8.600761414
16.30651093 45.21516418 10.36514664
16.32515717 45.2419014 12.15829849
16.34319115 45.04107285 1.705429673
16.36199188 45.04304886 3.410445213
16.39283371 45.07887268 5.125643253
16.4280014 45.1521759 6.859173298
16.43578911 45.1234436 8.59664917
16.4595871 45.16492462 10.36590767
16.48609924 45.18878174 12.1591959
16.49865532 44.99609756 1.705620408
16.51795959 44.99994278 3.411094427
16.54198456 45.01696014 5.124941826
16.58260727 45.1051712 6.860166073
16.59412575 45.08759308 8.599814415
16.60983849 45.10678482 10.36514854
16.64287567 45.14897156 12.1628294
16.65448189 44.92701721 1.70541656
16.03779411 43.20702744 3.311662197
16.69565964 44.967659 5.125496864
16.74234009 45.04728317 6.860193253
16.74969864 45.04376602 8.601735115
16.77054024 45.05262756 10.36594772
16.7994957 45.08376312 12.16104984
16.81830025 44.8799324 1.705684662
16.01906204 42.68228149 3.284852743
16.86129951 44.9261322 5.127135277
16.90050316 44.98510361 6.859747887
16.91516304 45.00204468 8.604623795
16.93378067 45.00526428 10.3683033
16.96531677 45.04359818 12.16562843
16.34160995 43.10764694 1.671340942
16.15405273 42.58129883 3.282334566
17.02476692 44.87840652 5.12826252
17.06674194 44.94470596 6.862278938
17.06814003 44.92640686 8.60185051
17.09826279 44.96100235 10.37144852
17.12084579 44.97546005 12.16343689
16.56380653 43.23387527 1.675109148
16.29959488 42.48641586 3.280376673
17.17969322 44.80771255 5.127285004
17.25946045 44.97429276 6.874196053
17.3547039 45.18180084 8.656222343
17.40697098 45.27495575 10.45032692
19.0772171 49.68251419 13.34701157
16.44077873 42.42324448 1.660115123
16.54982758 42.69077682 3.29551363
17.51918793 45.19903564 5.170594692
31.66383171 82.33908844 11.84699345
19.23871231 49.55457306 13.33265877
17.18741417 43.91906357 1.691561222
16.67260551 42.53488159 3.290159464
31.96495056 82.26004028 11.85141659
16.65594673 42.12876892 1.656624198
16.65904617 42.11844254 3.269112825
24.50185585 62.31238937 6.81324482
32.21689987 82.13930511 11.84894562
16.76654434 41.96986771 1.654742122
16.7992897 42.03598785 3.267868757
16.95853233 42.01901245 1.657097459
17.12067223 41.99119568 1.657927394
17.43415451 42.7599678 3.31701088
33.11378098 81.88182068 11.8610487
17.22525215 41.81996155 1.655874491
17.62343407 42.79159164 3.322596788
33.35907745 81.73323822 8.709354401
33.40412521 81.77360535 11.86244583
17.26849556 41.50037384 1.650822997
17.72953033 42.61711502 3.316273928
33.63951111 81.60007477 8.708204269
33.69187927 81.65882874 11.8631382
17.44361115 41.50648117 1.652424574
18.08235168 43.04452133 3.345006466
33.95583725 81.55436707 8.715590477
33.99435425 81.57977295 11.8687973
17.52539635 41.28658295 1.649443507
18.16322708 42.80791473 3.335175514
35.87719345 85.366539 9.094614983
35.9348793 85.43551636 12.40406227
17.71064758 41.3371048 1.651935935
36.16159058 85.27295685 5.818081856
36.17933655 85.24668884 9.095726013
36.22576523 85.33102417 12.4065876
17.93576813 41.45923615 1.656010032
36.44118881 85.0986557 5.815899372
36.47623062 85.15596771 9.099143982
36.53518677 85.22833252 12.41041088
18.0495491 41.31737518 1.654705524
36.74591827 85.02535248 5.819313049
36.79254913 85.06880951 9.103694916
36.82559204 85.08072662 12.40835381
18.21248245 41.29090118 1.655798316
37.00531006 84.80516052 5.814623833
37.09054184 84.93843842 9.104208946
37.14136124 84.99227142 12.41447353
37.41675949 84.87275696 9.111139297
37.46730804 84.92630005 12.42383766
35.03316879 78.7287674 2.432524204
35.54691696 79.8766861 5.541369438
37.71725845 84.74748993 9.112438202
37.78203583 84.83366394 12.42978764
35.20346832 78.36488342 2.428277016
35.81177521 79.71586609 5.539975166
38.04243469 84.6776123 9.119269371
38.09332275 84.73262787 12.43479061
35.8198967 79.00072479 2.44479847
36.09226608 79.59064484 5.540767193
38.35453033 84.57741547 9.123304367
38.39058304 84.59965515 12.43563843
35.99370193 78.68120575 2.441413164
36.32350159 78.70708466 2.445253372
37.27434921 80.68396759 8.769792557
37.21350479 80.53526306 11.91682339
36.99392319 79.43362427 2.463955402
37.40454102 80.3102951 5.607867241
37.47117233 80.40288544 8.755236626
37.51031113 80.43600464 11.92193222
37.65021896 80.72512817 15.16337872
37.65385056 80.12197876 2.481992483
37.67700195 80.15776062 5.60752058
37.74279404 80.24848938 8.753880501
37.79009628 80.29970551 11.92214489
37.9665184 80.66546631 15.17696857
37.95817184 80.0372467 2.483958721
38.00142288 80.11643219 5.613886833
38.06965637 80.21222687 8.764264107
38.08374023 80.19296265 11.9265871
38.25934601 80.55454254 15.1817522
38.27005005 79.96767426 2.486304283
38.3298912 80.04547119 5.61905098
38.5727272 80.45011902 15.18915176
38.58223343 79.86128998 2.488133669
38.6356163 79.96190643 5.623125553
38.86494827 80.33700562 15.19401073
38.88178253 79.76409912 2.490024567
38.94317627 79.84521484 5.625784874
39.18637466 80.24803925 15.20464993
39.16622543 79.67081451 2.491857529
39.21356964 79.72306824 5.627290726
39.26325607 79.78040314 8.779807091
39.29709244 79.84101105 11.95657539
39.48297882 80.17863464 15.2164793
39.4610405 79.59809875 2.494180679
39.48707581 79.60718536 5.629261971
39.56295013 79.71807861 8.787661552
39.58342743 79.75171661 11.96336651
39.77435303 80.09751892 15.22644615
39.75741196 79.49225616 2.49606657
39.77443695 79.51902771 5.632991791
39.8458786 79.6207428 8.792180061
39.86507416 79.61714172 11.96506691
40.05685425 79.99765015 15.23328876
40.0535202 79.38535309 2.497988939
40.07918549 79.42999268 5.637249947
40.14614105 79.52255249 8.797503471
40.18618774 79.56147003 11.97791672
40.34607315 79.8756485 15.2376976
40.33719254 79.28794861 2.499961138
40.37841797 79.32912445 5.640898228
40.43632889 79.40368652 8.800911903
40.4693222 79.4637146 11.98407269
40.64384079 79.77023315 15.24530697
40.63097763 79.17534637 2.501880407
40.69369888 79.25918579 5.646527767
40.71765518 79.30149841 8.805356979
40.79315948 79.41095734 11.99773788
40.94521332 79.70608521 15.25920677
40.93540955 79.08302307 2.504295111
41.00777817 79.220047 5.653638363
41.24261475 79.59845734 15.26688957
41.23971939 78.98952484 2.506748438
41.31874847 79.10499573 5.657253742
41.55187607 79.47901917 15.27404881
41.54198837 78.89135742 2.509163618
41.61555099 78.99596405 5.660839081
41.64522552 79.01661682 8.824866295
41.66172028 79.04608154 12.01105118
41.86329651 79.39719391 15.28686523
41.85152817 78.80620575 2.511922359
41.88421249 78.83280945 5.661219597
41.93404388 78.92607117 8.831054688
7.736176491 13.81856251 2.858169794
42.14054871 79.28302765 15.29269028
42.15629959 78.71103668 2.514528513
42.17577744 78.74668884 5.665883064
42.23657608 78.82713318 8.837351799
7.775170803 13.76876926 2.855233431
42.45357513 79.20239258 15.30621624
42.45995331 78.61294556 2.517134666
42.47164917 78.6344986 5.669578552
42.54642105 78.74112701 8.84510994
7.864431381 13.81340122 2.865651131
42.77215958 79.13101196 15.32167912
42.75683594 78.50136566 2.519510269
42.77105713 78.52824402 5.673743725
42.85810089 78.65740204 8.853261948
7.891013145 13.74053383 2.859514713
43.06260681 79.00621796 15.32769108
43.07156754 78.42208099 2.522654057
43.08167267 78.44192505 5.679245949
43.15447235 78.54447937 8.858607292
7.830626488 13.50876427 3.415009975
43.36513519 78.30296326 2.524990797
43.42096329 78.4069519 5.688033581
7.178925991 12.2053442 2.121984959
8.03258419 13.7583847 2.870501041
7.872972012 13.4676075 3.412778139
6.911388397 11.70790005 3.60945344
43.6622467 78.18977356 2.527519226
43.74511719 78.3425827 5.695130825
7.218681335 12.1698103 2.121196032
7.944726944 13.47991657 3.420361996
6.945535183 11.666646 3.605870247
43.96674347 78.12159729 2.530846596
44.03437042 78.21411133 5.698368549
7.240837574 12.10282898 2.117209435
7.277294159 12.16896343 2.652201414
8.003212929 13.46774101 3.423523188
7.014817715 11.68874168 3.616544247
44.27621078 78.02883911 2.533951759
44.31639481 78.07240295 5.700885773
7.4757967 12.42104816 2.152546883
7.306128025 12.11414909 2.648286343
7.043354988 11.64682579 3.094021559
7.051408768 11.65697289 3.614884615
44.57572174 77.91746521 2.536709547
44.57541656 77.92180634 5.702373028
7.408956528 12.19056225 2.663181305
7.095593929 11.63773727 3.097156048
44.87400436 77.80323792 2.539467573
44.89707947 77.84928131 5.70940733
7.557418823 12.34963608 2.151199818
7.436679363 12.13367939 2.659031153
7.128276825 11.59412956 3.093965054
45.18200302 77.70521545 2.542651176
45.20284653 77.74777222 5.714746475
7.485864162 12.11461258 2.660331249
7.21981144 11.6531601 3.109776735
7.016818047 11.29290771 4.064093113
45.49787903 77.61985016 2.546183348
8.114349365 13.10328484 1.667090297
7.282130241 11.66044807 3.116098166
7.064826965 11.27859211 4.067111492
45.80360031 77.51597595 2.549367428
8.134865761 13.02663898 1.66439724
8.003736496 12.79802895 2.206865549
7.039375782 11.14378452 2.528253317
7.38443327 11.73565769 3.135095596
7.066605091 11.18505764 4.048811913
46.11119843 77.41435242 2.55266881
8.209655762 13.04295254 1.667572618
7.111381531 11.17052364 2.535987377
7.408178806 11.67587852 3.129079819
7.683432579 12.1397047 3.760858297
7.123206139 11.18563271 4.055923939
46.38525772 77.3174057 2.555572987
8.286920547 13.07382488 1.671480775
7.640847683 11.98063183 2.128020048
7.548052788 11.82068539 2.633856297
8.438774109 13.32387543 3.441101074
7.750090599 12.15950203 3.771184683
7.138928413 11.12647247 4.046221733
46.69050217 77.2101059 2.558871269
8.350897789 13.07057667 1.673477769
7.571115017 11.76245308 2.108386755
7.595241547 11.79946041 2.634933472
7.567912579 11.75548744 3.153781652
7.832548618 12.19482327 3.78579402
7.211488247 11.15344048 4.06060648
47.0017395 77.11188507 2.562443018
8.330454826 12.92678261 1.66656673
7.551363945 11.63022709 2.097667456
7.669012547 11.82225037 2.642459393
7.360167027 11.308671 3.589095592
47.30456543 76.99878693 2.565742254
8.546453476 13.17420959 1.684565663
7.588691711 11.59364319 2.096939087
7.714183807 11.79718781 2.643054724
7.644247055 11.68399715 3.15097928
7.412602901 11.29980278 3.593285799
7.25323391 11.03484344 4.042648315
47.63431168 76.9288559 2.570096493
8.478665352 12.95356083 1.67276895
7.634175301 11.57054234 2.097643852
7.70331955 11.68056393 2.630270958
7.396410465 11.17857647 3.571640253
8.37984848 12.78196526 4.527360916
47.93894577 76.81673431 2.573553562
8.489112854 12.86274242 1.669242024
7.167128086 10.71653271 2.010887384
7.510406971 11.27029419 2.574350357
8.21761322 12.41876316 3.300372124
7.459843159 11.18788433 3.580083847
8.784141541 13.33127594 4.686199665
8.554907799 12.86191177 1.671491027
7.595596313 11.31318569 2.58486867
8.256458282 12.3783741 3.298537254
7.477833748 11.12356567 3.571559429
41.74688721 65.73378754 2.329419613
8.632462502 12.87940216 1.674946785
7.257266998 10.68153381 2.013171196
7.450387478 10.98735046 2.541080952
8.106407166 12.03666401 3.239625216
7.478794575 11.03266144 3.556865215
8.205880165 12.19059086 4.390042305
42.01097488 65.63851166 2.332592964
8.613229752 12.7428503 1.668490648
7.430169582 10.86403275 2.527049303
7.544177055 11.04477215 3.566098452
8.23654747 12.13896942 4.384075642
8.564214706 12.56110382 1.659089804
7.371864319 10.68449211 2.019588947
7.436888218 10.78452873 2.519468307
7.778309822 11.32355309 3.115418196
7.552847385 10.96716213 3.554497957
8.283685684 12.11358643 4.385382175
41.90126038 64.47587585 2.316108942
8.764073372 12.76991367 1.675002933
7.397050381 10.63527679 2.017445564
7.758132935 11.20096302 2.585328817
7.820653915 11.29643536 3.115797281
7.627800465 10.99371243 3.567218304
8.426264763 12.24197006 4.428920269
42.08986664 64.26888275 2.316750765
8.910222054 12.89194489 1.685369372
7.869027615 11.28058243 2.601596832
7.825446129 11.21579552 3.105690718
7.703094482 11.02451897 3.580700636
8.458984375 12.19300365 4.423883438
42.51966858 64.43343353 2.326182127
8.538664818 12.22127247 1.643954873
7.864727974 11.1816082 2.591311932
8.319754601 11.88365459 3.239380121
7.733641148 10.98123646 3.577222109
42.36557388 63.70286179 2.314559937
8.646716118 12.28663063 1.650611997
7.99778986 11.29496479 2.097615719
8.3781147 11.8761158 3.243923903
7.85329771 11.0740881 3.605799437
8.428647995 11.94991112 4.373381138
7.770155907 10.86009693 1.559423327
8.063205719 11.30194473 2.101778507
7.895936966 11.04711056 2.580183506
8.438698769 11.87162018 3.249109745
7.826569557 10.94358158 3.581865072
7.353106499 10.22573471 3.899797201
42.41162491 62.79994583 2.30444932
7.81420517 10.83325005 1.55994904
7.681711674 10.63706112 2.033443689
7.947273254 11.03442955 2.582822323
8.695281029 12.15629292 3.310531378
7.907655716 10.97211456 3.595804453
7.462779522 10.30713749 3.930170774
15.17482662 21.71359253 0.3774025142
15.17769146 21.72338104 1.328382254
7.887278557 10.85404015 1.563525438
7.821453571 10.75445843 2.049618483
7.234690666 9.882740974 2.413757324
8.771306992 12.17189407 3.319872141
7.865628719 10.82072163 3.566850185
7.492810726 10.26821995 3.92691803
15.10193539 21.44444847 0.382119447
15.09074593 21.42512703 1.323287487
7.895728111 10.77850151 1.560759187
8.528009415 11.71712112 2.157309532
7.270981312 9.855855942 2.413884401
8.817641258 12.14775467 3.321257591
7.864593506 10.73616123 3.553328514
7.492130756 10.18404198 3.910940409
14.98625565 21.10730553 0.388070941
14.98681927 21.1138401 1.317748785
7.852277279 10.63179398 1.553153276
8.155908585 11.07648563 2.091273308
7.271807671 9.780902863 2.406538963
8.907281876 12.18230438 3.334427834
7.736980915 10.4622097 3.495001316
7.562474728 10.20918274 3.925408363
14.88499165 20.80351448 0.3934344947
14.90174675 20.82563019 1.31283927
7.927396774 10.65541267 1.556966186
8.050107002 10.83751583 2.068557978
7.368339062 9.84227562 2.420102119
8.959263802 12.16583538 3.337416172
7.848666668 10.54504013 3.521284103
7.698874474 10.32581043 3.966279507
14.78560638 20.49807167 0.3988290727
14.77392769 20.47906303 1.306485534
7.951956749 10.6093874 1.556050539
8.020673752 10.70779896 2.057868719
7.485688686 9.932488441 2.438153505
9.028084755 12.16871834 3.34456706
7.803493023 10.39499092 3.492323399
7.774175167 10.35189152 3.981697559
14.69113541 20.20342636 0.4040364921
14.69071102 20.20094299 1.301759839
8.0992136 10.73568249 1.566792846
8.076915741 10.70268917 2.060809851
8.558332443 11.39341927 2.665698051
9.10154438 12.17776585 3.352998734
7.884031296 10.42739964 3.507046461
8.137886047 10.79161263 4.114934921
14.59937954 19.91625786 0.4091168046
14.59081936 19.90237617 1.296506882
8.175218582 10.75807476 1.570634365
8.166390419 10.74461937 2.068962097
7.566433907 9.888252258 2.440205812
9.3519907 12.43868446 3.411039829
8.038100243 10.5638237 3.546913147
14.50002384 19.62182617 0.4143377244
14.50633049 19.62926483 1.291846752
8.151666641 10.63801575 2.060790777
7.595837116 9.850505829 2.438875437
9.313897133 12.286726 3.388015509
8.087940216 10.55024529 3.550831318
7.692736149 9.990310669 3.902886391
14.40343475 19.33486176 0.41943115
14.38416481 19.30650139 1.285933971
9.159276962 11.96994686 1.657277703
8.316462517 10.78483582 2.080630541
7.652681351 9.851492882 2.443524599
14.3455286 19.26277733 4.774075985
8.165077209 10.57483101 3.56403923
7.798089027 10.05874348 3.930611134
14.32366753 19.07482338 0.4240427911
14.32635021 19.07746696 1.282303095
9.158659935 11.87464714 1.653494
7.874257088 10.08233452 2.006365538
7.723496437 9.871567726 2.451169491
9.340706825 12.13175011 3.371227741
8.195613861 10.53362846 3.561395645
7.816648006 10.0046854 3.923305035
14.23757744 18.80910873 0.4287654459
14.24018478 18.8118 1.277740717
14.21380234 18.78162956 2.125727177
7.905400276 10.04515553 2.005725861
8.273207664 10.55409241 2.561453342
14.0735569 18.59257126 4.662389278
8.120297432 10.34598064 3.523159027
7.879384995 10.01220989 3.933753729
14.15098476 18.54585838 0.4334507883
14.16528702 18.56476593 1.273614645
8.284121513 10.48628521 1.56421566
7.946923733 10.02239037 2.006708384
7.751418114 9.753359795 2.4420681
14.00054073 18.35028076 4.624667168
8.163805008 10.32403946 3.52516222
7.93424511 10.00840855 3.941024065
14.06745911 18.28990555 0.4380105734
14.06401253 18.2846241 1.26863277
8.269420624 10.38324928 1.559614539
7.993094921 10.00589371 2.008415937
7.777808666 9.711910248 2.440262556
13.94817734 18.13900375 4.592987061
8.162036896 10.24019432 3.512076378
9.629131317 12.24312305 4.597105503
13.98469257 18.03799629 0.4425038993
14.00253105 18.06173515 1.265058637
8.319327354 10.36882401 1.56107688
8.039247513 9.989209175 2.010129452
7.785141945 9.644863129 2.434472561
8.665906906 10.84232616 3.141229153
8.24366188 10.27017975 3.526863337
7.997923374 9.937360764 3.937371254
13.91347313 17.80454826 0.44666785
13.91015434 17.8066349 1.260546684
8.358513832 10.33976078 1.561553121
8.054475784 9.930774689 2.007170439
7.845925331 9.654104233 2.440381527
8.88441658 11.05140591 3.189813852
8.299843788 10.26508331 3.533143044
8.755868912 10.88324738 4.221083164
13.83277416 17.56784248 0.4509018958
13.83264256 17.56755638 1.25651288
8.379640579 10.28658676 1.560378909
8.641730309 10.64073372 2.090781689
7.86587286 9.604494095 2.43734169
8.95686245 11.06624603 3.199218988
8.263630867 10.14021683 3.509587526
9.391624451 11.64795399 4.4538908
13.76227951 17.34065247 0.4549646676
13.75243092 17.32765198 1.252430797
8.433430672 10.28110313 1.56238699
8.17809391 9.942617416 2.015644312
8.095851898 9.833722115 2.478216648
8.959072113 10.98299122 3.189224482
8.389204025 10.22737598 3.538728237
9.294283867 11.42864132 4.399766922
13.68309975 17.10463524 0.4591948092
13.68281651 17.10445213 1.24874866
8.491630554 10.27708817 1.564647794
8.224178314 9.925171852 2.01738286
8.152272224 9.830764771 2.482682228
8.889178276 10.80551052 3.160110474
8.885661125 10.80136871 3.688749313
9.491106987 11.59947109 4.459997177
13.60001373 16.86621475 0.4634750485
13.62640381 16.90101242 1.245550036
8.536561966 10.25535583 1.565699577
8.193986893 9.807872772 2.007772923
8.297997475 9.944167137 2.505629063
9.235559464 11.17445564 3.24191165
10.30037785 12.56748581 4.136009693
9.57920742 11.62521553 4.477871418
13.53497124 16.65393829 0.467284441
13.52477837 16.64118195 1.240872979
8.597290993 10.25400925 1.568196416
8.233594894 9.782426834 2.008617878
8.296839714 9.864918709 2.498128653
8.927954674 10.68864727 3.150001764
9.12929821 10.95071983 3.742502451
9.656904221 11.63660908 4.491654873
13.47473907 16.45023155 0.4709433019
13.45585442 16.42649841 1.237332821
9.034017563 10.73666191 1.604700923
8.301218033 9.793023109 2.013617039
8.267245293 9.749760628 2.484884024
9.00680542 10.70744324 3.160736799
9.296545029 11.08169746 3.783743143
9.650053978 11.53835964 4.473083019
9.784892082 11.6082058 0.5592657328
9.771260262 11.59131336 1.113308191
9.07201767 10.70195866 1.605020046
8.353066444 9.782876968 2.016279221
8.122076035 9.48798275 2.44814992
8.919345856 10.51268768 3.127785206
9.335549355 11.04621696 3.78352356
9.677401543 11.48481846 4.467733383
9.797564507 11.53471184 0.5605720282
9.800211906 11.54315948 1.113455892
9.064175606 10.60908318 1.601241231
8.921004295 10.43349552 3.118432045
8.13800621 9.439429283 3.388199091
9.749319077 11.49260998 4.480142117
9.832538605 11.49432755 0.5612788796
9.843531609 11.50890923 1.114049435
9.136451721 10.61810112 1.604675531
8.467365265 9.778969765 2.023404837
8.091136932 9.305106163 2.428607941
8.910457611 10.34360409 3.10649991
8.167090416 9.406347275 3.387115717
8.373703003 9.668217659 3.945779562
9.898218155 11.48806477 0.5613644123
9.896717072 11.48700333 1.114979386
9.134623528 10.53785229 1.601650715
8.455975533 9.688706398 2.016874313
8.235462189 9.413346291 2.451107502
8.673524857 9.966859818 3.035547256
8.184357643 9.354890823 3.381794214
8.379818916 9.601010323 3.934886217
13.13694763 15.42495632 0.4894451797
13.13112545 15.41891098 1.220888734
9.29778862 10.65527439 1.613017201
8.521443367 9.694890976 2.021549463
8.246347427 9.353690147 2.44660902
8.490336418 9.65814209 2.978639364
8.441675186 9.603715897 3.944979429
13.08840179 15.24311256 0.4927355051
