# .PCD v0.7 - Point Cloud Data file format
VERSION 0.7
FIELDS x y z
SIZE 4 4 4
TYPE F F F
COUNT 1 1 1
WIDTH 1338
HEIGHT 1
VIEWPOINT 0 0 0 1 0 0 0
POINTS 1338
DATA ascii
1.759123445 30.72089767 7.662313461
2.649236441 35.29564667 9.956665993
1.104686022 28.21751785 2.181769133
1.095490336 27.82190514 3.12128973
1.03334868 27.1008091 4.002059937
3.193851471 39.07078934 6.701392174
1.380843759 28.38985252 6.134124279
1.267854333 27.39663506 6.929068565
2.82565093 35.58662415 10.03010654
1.186136484 28.5210743 1.212429166
1.180183172 28.14404297 2.174717426
1.852499843 30.87017441 5.495138168
1.475969553 28.39771271 6.133367538
1.9868716 30.82539368 7.681606293
1.194642186 26.19484329 7.611279488
1.273125529 28.47981071 1.207291603
1.897181988 31.67494202 2.308817625
1.501645803 28.35357857 5.123225212
1.517666221 28.11488342 6.079478741
1.610657096 28.26403809 7.116732597
1.290968895 26.22341156 7.617706776
1.372350574 28.48075294 1.202063203
1.419936895 28.39052582 2.175188065
1.448675036 28.22467613 3.139866829
1.376015544 27.48162651 4.034554482
2.05825901 30.81827354 5.481362343
1.581138134 27.93182373 6.043831825
2.996781588 35.0283432 8.602114677
1.355976462 26.08787918 7.581983089
1.763367057 29.72998428 2.222743034
1.423990965 27.22659302 4.003161907
2.174218178 30.8618145 5.484734058
1.719326854 28.14498329 6.080708981
1.636186838 27.37986374 6.919392109
1.432055235 26.01307678 7.561977863
2.19663167 31.88451385 1.202902198
1.841116548 29.58986664 2.212490082
1.322619319 26.51039696 3.004464865
1.495191336 27.10241127 3.986280918
1.792376041 28.32350731 5.110568523
2.345895052 30.8519001 6.573318005
1.803770304 27.74461746 6.998179913
1.533910394 26.06925201 7.575757504
2.320059538 31.94705009 1.197218537
2.102402449 30.42149925 2.239814997
4.377854347 40.97118378 6.956365108
1.669458389 26.90501213 5.850183487
1.897983193 27.73095512 6.993879795
1.628472805 26.08701897 7.57973671
2.50029254 32.30377197 1.192375541
1.90969348 28.89988708 2.176641464
1.409861088 26.01097488 2.960135698
1.148483038 24.39372635 3.682291508
2.132294178 29.05720139 5.212610245
1.698672414 26.58481407 5.789886475
1.962016582 27.59334373 6.962492943
1.696804166 25.99893188 7.55659008
2.655589581 32.20401382 2.298756123
1.519808888 26.12991524 2.96554637
1.302729726 24.75881958 3.719755173
2.212010145 28.97319221 5.197858334
1.433921456 24.86944771 5.47511816
1.777847648 26.2667923 6.670114994
1.735446095 25.77211189 7.497835159
1.448368073 25.60978699 2.04214716
1.649195313 26.3402977 2.977694273
1.312658072 24.40624428 3.678445101
1.835986972 26.66617012 4.858748436
1.519786477 24.86452103 5.472639084
1.868983269 26.2627182 6.668198586
1.820786357 25.74926949 7.491611481
2.220459938 29.25463486 1.167524576
1.556725264 25.67982483 2.040522575
1.763180852 26.42325974 2.980062008
5.556842327 43.84306335 7.360467911
1.621759534 24.91427803 5.480115891
1.960851908 26.2402153 6.662263393
2.008654118 26.17630959 7.601171017
2.91936326 32.12897873 1.168140888
1.652801752 25.70919991 2.037552357
5.681444645 43.69629669 7.335325718
1.715378761 24.94331741 5.483941555
2.15778017 26.69683075 6.761559486
2.098722458 26.16769218 7.598771572
3.015769243 32.07428741 1.162394047
1.837161779 26.15471649 2.050240993
2.461785555 28.80284119 3.147407293
1.766876101 25.30391502 3.768460035
5.740128517 43.25125504 7.266854763
1.821166515 25.04594421 5.501303196
2.827386618 29.30175972 7.332402706
2.097149372 25.75187111 7.491726875
1.781807661 25.49027824 2.021413326
1.763007998 25.13976097 2.875459671
1.952470899 25.74435425 3.813867331
2.825174809 29.43786812 5.253184319
1.908672571 25.04347992 5.499486446
2.212743521 26.12966156 6.635597706
2.192723751 25.79301071 7.502291679
2.840496302 30.23864555 1.147843957
1.860213995 25.43870354 2.015470266
1.7790519 24.81188011 2.848178387
2.054999113 25.8178997 3.819309473
2.914963007 29.37395859 5.241546154
2.002497435 25.08769798 5.506294727
2.157701731 25.50931358 6.498877048
2.314916134 25.92733002 7.536901951
2.643493891 28.85487175 1.140270352
2.867158651 29.59270287 2.165999889
3.65917635 32.19480133 5.649450779
2.10000515 25.126791 5.512154579
2.296292782 25.71714592 6.543892384
2.496965647 26.3302269 7.640666008
2.742989063 28.86561394 1.135230541
2.752169609 28.33370399 3.098420143
2.459498882 26.54022598 4.825409889
2.190926075 25.15494728 5.516134262
2.372941494 25.67598534 6.534378529
2.667256355 26.651968 7.723651409
4.081155777 33.9723587 2.317969561
2.244351625 25.7262249 2.905317307
2.269136429 25.58285522 3.785881281
2.429095507 26.01313782 4.746901512
2.280380726 25.15689659 5.51533699
2.467873096 25.69255638 6.53757143
2.776129484 26.71079063 7.739102364
3.117342949 29.31299782 2.141778469
3.954571247 32.61444473 3.401993752
2.356006861 25.56698799 3.781586647
2.510531425 25.96799278 4.738471031
2.369918346 25.15851784 5.514535904
3.266069651 28.58564186 7.171676159
2.964531422 27.08942986 7.836910725
2.759988785 27.62461281 1.118399024
3.188376904 29.19386482 2.13307023
3.230228186 29.09189796 3.142581701
2.70906806 26.42393303 4.80287838
2.464702606 25.18084908 5.517560482
2.392647028 24.65379143 6.309102535
3.59680891 29.24894905 8.392933846
2.836874485 27.55509758 1.113524199
3.27946353 29.13948822 2.126536131
2.80363512 26.42593002 4.80135107
2.976412535 26.89326668 5.828110218
2.442078114 24.51938629 6.279419422
2.778113604 25.61424637 7.458437443
2.986057043 27.76614952 1.108507633
3.363625526 29.05763435 2.119035721
3.158623457 27.97684669 3.054878712
2.663355112 25.72515297 3.791352749
2.898762941 26.42949677 4.800099373
3.61104393 29.023489 6.214517593
2.518961191 24.47868919 6.270340919
2.858792305 25.57278061 7.448404789
3.46170783 29.03373909 2.113660574
3.260654211 27.98482704 3.051943064
2.744937181 25.68475533 3.784526587
2.971538067 26.34441948 4.786052227
3.839141369 29.5070343 6.301428795
2.550512075 24.26350021 6.223068714
3.084058285 26.08495903 7.580924511
3.29388833 28.20549583 1.098223329
3.603032351 29.18203545 2.114480734
4.639552116 33.03260422 3.411587
3.235256195 27.24359512 3.950805426
3.179886341 26.78653717 4.848402977
3.788401604 28.90469742 6.190972805
2.600511312 24.12405396 6.192473412
3.212985039 26.21882629 7.616197586
3.476662874 28.528759 1.092924118
3.676865578 29.06046104 2.105626583
3.270510197 26.76574326 4.843744755
2.953790903 25.34903336 5.543828011
2.630470037 23.9126873 6.146175861
3.429093122 26.67263794 7.733919144
3.34169364 27.64063454 1.088551521
3.487812042 27.96386909 2.062589169
3.259490728 26.86197853 2.961387873
3.392675877 26.90011597 4.861744404
3.049211264 25.39986038 5.55243063
2.745874643 24.05480576 6.17743969
3.427736998 26.35040665 7.651874542
3.564856529 27.87379456 2.055101395
3.350418568 26.84055138 2.956576347
7.707831383 42.96430969 5.640492439
3.435887098 26.70068359 4.831338882
7.476241112 41.39648056 8.45846653
2.818204641 24.00368309 6.166405678
4.517963409 29.9574585 8.58169651
3.661888599 27.86078262 2.050368309
3.901167631 28.53606415 3.074459791
3.677638054 27.46671486 3.96521163
3.977842808 28.33592606 5.066231251
7.807201385 42.05086136 8.576375961
3.124953747 24.7990036 6.341063976
3.614196777 26.33769608 7.650850773
3.866505623 28.48740196 1.072349191
4.250745773 29.67325592 2.109708786
3.311590195 25.55338287 4.662587643
4.278561592 28.81005669 6.170122623
3.26683569 24.96970558 6.3788414
3.49785924 25.59121513 7.459832191
3.810501099 27.88113594 1.067526937
4.012343407 28.40640259 2.060913801
3.556275129 26.51536751 2.923576355
3.846411705 27.34114456 3.946795464
3.27028513 25.07619286 4.592312813
4.310379982 28.55245781 6.122795105
3.307843685 24.8126297 6.344766617
3.637360811 25.75451088 7.503205299
4.26060009 28.94987488 2.075705767
3.637802601 26.48066902 2.918123007
3.576599598 26.04756737 3.805423498
3.330245495 24.98377419 4.577758789
6.779687881 36.84115982 7.62777853
3.438404799 24.96956635 6.379628181
3.280502796 24.22187614 7.109602451
4.221747875 28.43591309 2.053503752
3.713754177 26.42650986 2.911316633
3.656512022 26.01301956 3.799642324
3.429961681 25.01571274 4.581145763
4.464140892 28.40168381 6.094585896
3.47718668 24.79222107 6.341256618
3.404988527 24.34640503 7.143089294
4.488091946 29.24383163 1.050109267
3.608054638 25.31544876 4.62321949
6.087873936 33.58343506 7.035244942
3.357709408 24.08375931 6.186422348
3.528199196 24.46291924 7.1746068
4.506641388 28.93503571 1.045263052
4.345989227 28.14744377 2.034986734
3.577619791 24.89977074 4.56210804
4.649891853 28.32855797 6.080700874
3.445699692 24.08507919 6.187362194
3.625909805 24.49151039 7.183549404
4.447046757 28.14122391 2.030524731
4.232898235 27.19369125 2.956115246
3.928189278 25.97082329 3.788803577
3.678177595 24.93257713 4.565757751
4.743890762 28.27881241 6.071457863
3.63787055 24.41452599 6.260420322
3.65518856 24.29502296 7.134522438
4.456784725 28.0249958 1.036335826
4.155012131 26.80423927 1.980823874
4.215653419 26.80167007 2.925374269
4.091364384 26.18220901 3.809324265
3.892049074 25.33856583 4.623250961
4.971939564 28.6862812 6.145312309
3.804814577 24.66742134 6.316731453
4.251809597 25.93504906 7.559396267
4.765733719 28.7366333 1.029568315
4.250393867 26.79480743 1.976482391
4.13392067 26.02227783 3.790286064
3.978871346 25.31902122 4.619425774
6.707229137 33.9859848 7.107533932
4.462304592 26.50576019 6.721132755
3.853925228 24.36181641 7.155292034
4.841387272 28.63677979 1.024469852
4.185405254 26.27175713 1.955043793
4.51942873 26.77852249 4.828810692
6.814750195 33.92692184 7.096810341
6.180623055 31.65486336 7.852725983
3.920331955 24.3032856 7.141979218
4.283734322 26.27747154 1.951313138
4.532155514 26.88598251 2.922367334
4.18725729 25.40508461 4.629994869
4.687543869 26.81502914 5.805538654
4.973328114 27.51269913 6.944333076
4.079505444 24.52071381 7.200100422
4.896589756 28.14746666 1.015536904
4.873100281 27.88023186 2.001124859
4.795018196 27.42524719 2.957286835
4.238613605 25.45819283 3.724309921
4.271298409 25.38959122 4.626935482
4.274155617 25.21235657 5.514649391
5.387159348 28.48102379 7.158250809
4.377606392 25.17460251 7.37099123
4.961073875 27.8319912 1.995367765
4.861490726 27.31472588 2.946531773
4.452181339 25.84808922 3.764217138
4.799454212 26.74212074 4.820852757
4.317558289 25.07291222 5.489495754
4.888767242 26.64328003 6.755779743
4.285743237 24.6112175 7.227610588
5.145982742 28.29381371 1.004742861
5.067599297 27.84251595 1.991578698
4.074851036 24.20738983 4.455151081
4.374109268 24.96208382 5.469603062
4.465856075 25.06055832 6.409309864
4.308235645 24.40448189 7.176413059
5.266967297 28.34351349 0.9992493391
5.025475025 27.39022446 1.972550988
4.941726208 26.95233917 2.915462494
4.750243664 25.98860359 4.710812569
4.456003666 24.92973137 5.464020252
4.272393703 24.20161438 6.221835613
4.283587933 24.06160736 7.090051651
5.144357681 27.44225121 1.970204711
5.176071644 27.36116219 2.940997362
4.416680813 24.86953545 3.654584646
5.480662823 27.89332962 4.984193802
4.565932751 24.98119926 5.473721504
4.362871647 24.20321083 6.223537445
4.362928867 24.03182793 7.084710598
5.322510719 27.67224121 1.973659039
5.270729542 27.33869934 2.936505795
4.537970543 24.95553398 3.662100792
5.774382114 28.45611382 5.064461708
4.50047636 24.51322556 5.3891325
4.440806866 24.16739273 6.217083454
4.507204056 24.19099426 7.128353596
5.352310181 27.64271355 0.9862335324
5.461647987 27.79476547 1.973765612
4.872142792 25.66872978 3.736398458
5.215696335 26.51612854 4.784775257
4.438254833 24.06462288 5.308104038
4.901502609 25.25440788 6.45762825
4.538921356 24.03517532 7.090425968
5.449059963 27.63788986 0.9813073874
5.624028206 27.98297119 1.975968838
4.784571648 25.31746483 2.790891886
5.265607357 26.38661385 4.765610218
4.317426682 23.46903801 5.200385571
4.705454826 24.43422318 6.278697491
4.479571342 23.62276268 6.986073971
5.746506214 28.04928398 1.974200845
4.814198017 25.14107513 2.776184559
4.669494152 24.5528698 3.614700794
5.353800774 26.36936188 4.762639523
4.388800621 23.43448639 5.194634914
4.799530029 24.45405388 6.284627438
4.541683674 23.56068611 6.972497463
6.061493874 28.67268944 1.990279436
4.876084328 25.06092834 2.768177271
4.891367912 24.93761635 3.654165983
7.031711578 30.87673569 5.410303593
4.469228745 23.42572212 5.193622112
4.800544739 24.21155739 6.23286581
4.636263371 23.58988762 6.982648849
6.277626514 29.14517975 0.9583520889
6.107806683 28.47911835 1.979698777
5.019907475 25.18864822 2.774278641
4.862594604 24.57701492 3.614317417
7.134633541 30.82019997 5.401661873
4.616641521 23.57913971 5.222207546
4.880475044 24.15486908 6.222332954
6.414525986 28.23550987 8.190633774
6.61283493 29.80354691 0.9496774077
5.88833952 27.5500145 1.946044445
7.209969044 30.70358658 5.384469986
4.706380367 23.59368896 5.225545883
5.031061649 24.33036995 6.262758255
5.58258152 25.67354774 7.52923584
6.018045902 27.6208725 1.944273114
5.691126347 26.54367447 2.862421751
5.008384228 24.47940063 3.60121727
7.345518589 30.75446892 5.39141798
4.81853056 23.6564827 5.237751007
5.197826385 24.53308868 6.30937624
5.677553177 25.66667938 7.530703068
6.134134293 27.65165138 1.941228271
5.795377254 26.55310822 2.860403299
4.938386917 24.03315926 3.552555084
6.588574886 28.37301636 5.04881525
4.912761688 23.66884232 5.240847588
5.20700407 24.30722427 6.261595249
5.47201395 24.85688782 7.323672295
8.431322098 33.89020538 0.9090074301
5.898428917 26.55838203 2.858120203
4.9252882 23.75013351 3.521271229
5.607435226 25.45048141 4.628552914
4.941656113 23.50535965 5.212018013
5.298792362 24.30524063 6.263238907
5.586266994 24.92090225 7.343467236
8.382614136 33.41843796 0.9056617618
6.266005039 27.45078468 1.927160025
5.997676373 26.2321949 4.740746021
4.996913433 23.4263916 5.198561668
5.481854439 24.55527496 6.320464611
5.726046562 25.0373497 7.37717104
5.650662422 25.51292038 1.863113523
6.97938633 28.9192543 3.014326096
5.102759838 23.75287056 3.519164801
5.743826389 25.29694939 4.606227875
5.119558811 23.51350975 5.21543026
5.517855167 24.40413857 6.289348125
5.885647774 25.20207596 7.423563957
6.586529732 27.74357224 1.928274512
7.112232685 28.97628212 3.015400648
5.137027264 23.60416603 3.502251148
5.919473171 25.50221443 4.635673046
5.308102131 23.76933098 5.263077259
5.627967834 24.44663429 6.301047325
5.87057972 24.91514206 7.352505684
6.704861164 27.94629097 0.9223591685
5.231066227 23.61340523 3.5020895
5.882091999 25.1519413 4.585329056
5.401995182 23.77605438 5.265451908
5.793484688 24.62910652 6.343764782
6.06105566 25.15480232 7.418636799
6.33092165 26.6827755 0.9255573153
6.403089523 26.70795631 1.888652086
5.798363209 24.68958473 4.518927097
5.500368118 23.79341316 5.269825459
5.631006718 23.97823524 6.202354431
6.161977291 25.16409683 7.424888134
6.51592207 26.74600983 1.886177897
6.680678368 27.00715256 2.873328686
7.487418652 28.90025139 4.058521271
5.8995924 24.71646309 4.522877693
5.885741711 24.53244781 5.40574789
5.027132034 22.2354126 5.819343567
6.261028767 25.18003654 7.432771683
6.614675522 26.73343658 1.881976008
6.758410454 26.93842697 2.866134882
7.574160099 28.8494606 4.051939011
6.029479027 24.80207634 4.535323143
5.866267681 24.25860596 5.357147694
5.064672947 22.12617493 5.797428131
6.202155113 24.79407501 7.336059093
6.658416271 26.74030495 0.910041213
6.838330746 27.04947662 1.887876272
6.9190588 27.09196663 2.87415719
9.229131699 32.70302963 4.457530975
6.040415287 24.60183334 4.50672245
6.042319298 24.46060753 5.395397186
5.09123373 21.99151802 5.769923687
6.334953308 24.89428711 7.366072655
6.751295567 26.7250824 0.9052698612
6.930769444 27.03010178 1.883635998
6.199398041 24.769104 4.530989647
5.598528385 23.15370941 5.158475876
5.192249775 22.03992653 5.783007145
6.30351162 24.59508133 7.291832447
6.866252422 26.6080761 1.867199302
7.746265888 28.63609123 2.973750114
7.868742466 28.7691021 4.039980888
6.299789906 24.77800751 4.532556057
6.180704117 24.35655785 5.379316807
7.014307499 26.22128105 6.712343216
6.393440723 24.57991219 7.292060375
7.517962933 28.11553192 0.8841966987
6.929382801 26.50713539 1.86042881
7.823925972 28.55091286 2.965407372
5.644705772 23.09617615 3.440641403
8.319402695 29.41654396 5.199765682
8.958032608 30.79150772 6.555338383
7.094082355 26.16569519 6.703166008
6.934556961 25.63387489 7.572137833
7.664978027 28.2046566 0.8780288696
6.996495724 26.41716003 1.854018927
7.717259407 28.02098274 2.927141905
5.726563454 23.07565308 3.437622547
6.455178738 24.68484879 4.519885063
6.260459423 24.09203148 5.334311008
6.961200237 25.60822487 6.582693577
7.018321037 25.59324837 7.566076756
6.00808382 23.9231987 0.9082218409
7.18813324 26.62797165 1.85648632
5.779086113 22.98508644 3.427258015
8.596495628 29.52134132 5.215821266
6.333455563 24.04054451 5.326630116
7.015591145 25.49880409 6.561640739
7.084249496 25.51125526 7.549260139
7.302474499 26.64970779 1.853367209
7.728332043 27.52165031 2.888635397
5.841971397 22.92008209 3.419625759
8.665769577 29.40868759 5.200204849
6.409318447 23.99607658 5.320288181
7.14233923 25.55842972 6.578197956
8.693911552 28.98574448 8.465157509
7.896295071 27.95911598 0.8637323976
7.835094929 27.65768623 1.878959775
7.816323757 27.4716835 2.882885218
5.885704517 22.81098366 3.407388449
8.877184868 29.6273098 5.232298374
7.255656719 25.7305336 5.639203072
12.69513607 38.06963348 9.362858772
8.718242645 28.77708626 8.415939331
8.598683357 29.34919357 0.8458644152
7.905536652 27.57787323 1.872950673
5.96118927 22.7767601 3.403073788
8.167366982 27.73581314 4.960844994
7.315196037 25.63233185 5.623295784
10.2679739 32.20224762 8.062960625
10.1309166 31.7240181 9.195213318
7.650845528 26.8811779 0.8629309535
7.993683815 27.52709389 1.867613554
7.55604744 26.36741638 2.804272413
8.615789413 28.66286659 4.021915436
8.25439167 27.68121338 4.953708649
7.444740295 25.70550537 5.638690948
12.875597 37.80062103 9.313357353
9.713385582 30.50226402 8.8804245
7.704915047 26.62387657 1.838034034
7.631474495 26.31086922 2.798378468
9.51021862 30.43194389 4.207231998
10.08526421 31.57723236 5.515174866
7.401044846 25.37617302 5.580590248
12.92387104 37.56605148 9.266584396
10.70560837 32.44592667 9.397557259
7.455387592 25.95446968 0.8615022302
7.774373055 26.53905487 1.831891179
7.617409706 26.04038048 2.778124094
9.532682419 30.22009468 4.18416214
8.107480049 26.86718178 4.838095665
7.511071205 25.40555382 5.588084698
12.39130783 36.06625366 8.937603951
10.954566 32.70415878 9.472270966
7.862026691 26.49609566 1.826968431
9.233837128 29.26833344 4.083259106
8.179916382 26.78752899 4.827492237
8.083137512 26.42951584 5.778133392
12.5295372 36.0308609 8.935442924
12.09340763 34.89693069 10.05690479
8.573189735 27.99462891 0.8310765028
8.000210762 26.56595421 1.825252056
7.818571568 26.02117538 2.772562027
7.432126999 25.04078484 3.638112545
7.375058174 24.78203773 4.539573193
8.154400826 26.36318779 5.768317699
11.02707577 32.4624176 8.144313812
12.61202145 35.70904922 10.27859306
7.998951912 26.32547188 1.814797759
7.909097195 26.00022697 2.769167662
7.548433781 25.07365227 3.641002893
7.518631458 24.87619781 4.554039478
8.244659424 26.3269043 5.764195442
11.1591835 32.4609642 8.149110794
12.30752563 34.74330902 10.03159809
8.400490761 27.11391068 0.8291285634
7.871623993 25.81248665 1.796796799
8.009802818 25.9896698 2.766383648
9.477169037 29.03457069 4.056739807
7.625436306 24.88869476 4.556799412
8.342312813 26.30639458 5.763034821
11.39710236 32.68440247 8.204287529
9.332754135 28.12817192 8.292070389
8.577586174 27.25949669 0.8222336769
7.96757412 25.79280853 1.79267621
9.199538231 28.18290329 3.966683388
8.211621284 25.9245739 4.707126617
8.453389168 26.31407738 5.767121792
12.07256222 33.82808685 8.465499878
9.405745506 28.03900528 8.274889946
8.637488365 27.14820671 0.8180274963
8.881118774 27.53139877 1.83724165
8.049153328 25.62008095 2.737801552
9.296196938 28.14263916 3.961944342
8.334283829 25.95962334 4.713294029
9.478266716 28.24634552 6.124929428
11.86461449 33.09918213 8.308029175
9.522871971 28.04261208 8.282334328
8.714522362 27.07488251 0.8134400845
8.821510315 27.17541313 1.823818803
8.120740891 25.54929733 2.731133699
7.96437645 25.088377 3.640669346
8.229520798 25.52705193 4.652014732
9.570870399 28.19658279 6.118822098
12.00469971 33.10513306 8.315054893
9.649006844 28.07597733 8.297446251
8.641905785 26.55955124 1.803191423
8.222849846 25.54321861 2.728776455
8.832648277 26.6998539 3.809553146
8.231043816 25.31152916 4.622123241
9.695430756 28.22515678 6.127037525
10.82249165 30.40065575 7.714213371
10.6037941 29.79375458 8.759549141
8.774588585 26.7436676 0.8066848516
8.378876686 25.79034615 1.778742552
8.099020004 24.94989395 3.625433445
8.310893059 25.27141953 4.617520332
9.924460411 28.45492554 6.172533512
10.90098 30.30254555 7.697626114
10.92353153 30.20392227 8.875297546
8.849723816 26.68118668 0.8023328185
8.465543747 25.74892616 1.774078012
8.18551445 24.92614937 3.622657299
8.509832382 25.46421051 4.646657467
10.03208351 28.44491386 6.173829556
13.45865726 35.23793793 8.811196327
13.57891178 35.29774475 10.2356739
8.583156586 25.40895462 4.639975548
10.13493443 28.41271591 6.171280861
13.63407135 35.29244232 8.830014229
13.31628799 34.49105453 10.02974319
8.633680344 25.42359352 3.674407005
9.059725761 26.15413284 4.749068737
9.778676987 27.47340012 6.001319885
16.15047836 40.02033615 9.899896622
11.14830971 29.90916252 8.819397926
8.516842842 25.09988403 2.690478325
8.739492416 25.42263222 3.674118996
9.147668839 26.12195015 4.74586153
8.299892426 24.31060791 5.420977116
13.44890976 34.35252762 8.631601334
11.25917625 29.89141083 8.822096825
9.021539688 26.02472305 1.767675281
8.756134033 25.25438118 3.656317949
8.962379456 25.53857422 4.663074017
8.354036331 24.22646713 5.408369541
10.81122208 28.91733551 7.413290977
11.3493557 29.82052994 8.811138153
9.351717949 26.5932312 0.7771607041
9.196135521 26.15433884 1.767555118
8.74489212 25.14479446 2.689955473
8.823776245 25.17827988 3.648222446
9.040911674 25.4815464 4.656422138
8.432497978 24.18058205 5.403035164
10.86379147 28.78135109 7.388395786
13.43480587 33.60308838 9.828799248
8.936699867 25.54835892 0.7851272821
9.328374863 26.19744873 1.765129566
8.862521172 25.15707207 2.688924313
8.859272003 25.03996086 3.633637905
8.872331619 24.94450951 4.580341816
10.23460102 27.45780563 6.012626171
10.2230854 27.30132675 7.060412884
10.24406433 27.21794128 8.131989479
9.155670166 25.7556839 0.7769995928
9.421010017 26.16161346 1.760632634
8.926878929 25.07507896 2.681834221
9.114752769 25.31885529 3.662882328
9.016310692 25.01812935 4.592677593
10.31696701 27.39147949 6.00410223
11.05396843 28.67605209 7.376418591
10.30658436 27.11614418 8.112335205
9.561384201 26.22899628 1.75901413
11.30006695 29.31855202 4.082686901
9.101566315 24.98774719 4.589925766
13.75323486 33.7157402 7.179349422
10.29120445 27.01092148 7.005556583
10.37313747 27.03376198 8.097558975
9.289657593 25.61260414 0.7689657211
9.662487984 26.20828247 1.754924774
8.837947845 24.5167942 2.642173767
9.205753326 25.10173035 3.640158653
9.244633675 25.05665016 4.601705551
13.43101311 32.84688187 7.022862911
10.35345364 26.91018486 6.988534451
10.47230053 27.00205421 8.096822739
9.608500481 25.89146614 1.743225574
9.355212212 25.18099594 3.648571968
9.298881531 24.95672417 4.58906889
13.51608276 32.72674561 7.005622864
10.08457088 26.18325424 6.829951286
11.83062267 29.30291939 8.722153664
9.549667358 25.57003212 1.731501818
9.160951614 24.71956635 2.652099848
9.055513382 24.40707207 3.567477703
9.389162064 24.9248867 4.586356163
14.44733143 34.19035721 7.282328129
10.07099152 25.95982933 6.784781933
10.88819027 27.33760643 8.202850342
9.640184402 25.65220451 0.7526935339
9.603983879 25.47564125 1.725824833
11.20113754 28.33863449 2.886188984
9.368309975 24.80245781 3.609146357
9.529927254 24.99615288 4.598567486
17.33934021 39.25170135 8.227989197
10.48082924 26.51495171 6.916389942
10.42322445 26.28416824 7.927333832
10.27971458 26.65058327 0.7334726453
9.704204559 25.46745872 1.722361088
9.997707367 25.89372253 2.725474596
9.178539276 24.26480865 3.552905798
9.531732559 24.8106842 4.573548317
13.77217484 32.43873596 6.966542244
10.52010536 26.38710213 6.8931036
10.51934433 26.26133919 7.928802967
9.933094025 25.69622612 1.72487545
9.299753189 24.30353355 3.557206631
9.568757057 24.69153595 4.558193207
9.54400444 24.5330162 5.499660015
10.62145233 26.37249184 6.895617962
10.57661819 26.16842461 7.911478996
9.677584648 25.01361656 1.704151988
9.436265945 24.34946251 3.562332153
9.654717445 24.64252472 4.553286076
9.611131668 24.45152855 5.488609791
10.62066555 26.15404129 6.852417469
10.14726067 25.18972397 7.655954361
8.64836216 23.05129051 0.770709455
9.737084389 24.93318748 1.698965907
10.35154343 25.93101501 2.723199606
9.502184868 24.28606796 3.55598855
9.796080589 24.71207428 4.565472126
9.752724648 24.52242851 5.505635262
10.67908764 26.06377602 6.837819099
10.25245953 25.18966484 7.663561821
10.18188095 25.53730392 1.710604668
9.487025261 24.0782814 3.534513712
10.10474586 25.06738091 4.619452477
14.69759941 32.93550873 8.412823677
10.58207512 25.5723629 7.775244713
10.31844807 25.58031273 1.708252549
10.5692482 25.92220116 2.719638109
9.525568008 23.95878601 3.52236557
10.30831814 25.2310276 4.645632744
11.73888397 27.63737488 6.095694065
14.39861107 32.15659332 8.243071556
10.68536186 25.55480957 7.778884888
12.14934635 28.75164223 0.6682341099
10.42599964 25.57042694 1.704596519
9.675802231 24.03660202 3.530985594
10.31809711 25.0525589 4.622019291
11.37949562 26.79764938 5.943454266
14.95065212 32.86340714 8.412968636
10.77599144 25.51494026 7.776584625
11.07631969 26.63144493 0.6955168247
10.4980402 25.49752998 1.699412704
12.80705738 29.4240303 2.942836761
9.774169922 24.02210617 3.529949188
10.21577549 24.68179321 4.570372581
11.55624104 26.8857975 5.964942455
14.3972168 31.64587021 8.143000603
10.86946011 25.47978401 7.775661945
10.56277466 25.41229057 1.693954468
9.942487717 24.11866379 3.540654898
10.25863266 24.56590652 4.555931568
14.76618767 32.17539597 6.961080551
15.9915247 34.11959457 8.718648911
10.8531208 25.25805092 7.724102497
10.66012764 25.38401413 1.689896464
10.1176157 24.24308395 3.554281712
10.36505604 24.55957031 4.557537556
14.92262936 32.20600891 6.972476482
14.74735546 31.76603127 8.186938286
11.01340389 25.33641624 7.754228592
11.49915981 26.74375534 0.676826179
12.69409084 28.67722321 1.765419006
10.71752071 25.18710327 2.665032625
10.11606026 24.05516815 3.535137653
10.49683762 24.59549332 4.565385342
11.77910233 26.65939903 5.93701458
11.56040668 26.17498779 6.910269737
11.14539909 25.36551476 7.771106243
12.55354977 28.33965492 0.6446692348
12.86475182 28.74659348 1.763254762
10.3743763 24.30790329 3.562380075
10.56608677 24.52507782 4.557741165
11.67824459 26.28832436 5.872342587
11.6412468 26.11170197 6.902868271
11.52726364 25.80753326 7.90087986
12.00833702 27.0905304 1.720396519
10.82619476 24.98675728 2.649505138
10.61929321 24.53348351 3.586822748
10.76872158 24.68662262 4.583982468
11.7808342 26.25988007 5.872086048
11.76958752 26.12705231 6.913663864
11.57718563 25.70564461 7.881929874
11.22572803 25.68192863 0.6781136394
12.08311844 27.00896454 1.714886069
10.71695042 24.5194912 3.586068153
10.88228798 24.68837166 4.587036133
11.89436626 26.25897789 5.8768363
13.61116219 28.96074295 7.574487209
11.66345119 25.65426826 7.87732935
11.24008656 25.5102787 0.675583899
11.45431614 25.76808929 1.682428956
10.74792004 24.48942947 2.615104675
11.33639431 25.35586929 3.674928665
10.80194664 24.38026237 4.54455471
12.1113987 26.41664886 5.911837578
12.69213676 27.25816345 7.189073563
11.9324131 25.90850067 7.956126213
12.47634888 27.26970482 1.714172959
10.86744976 24.51064873 2.61532712
11.10560989 24.79719162 3.616915464
10.94495392 24.43997955 4.556063175
16.77110672 33.78907394 7.308704853
11.63502216 25.35660362 6.75677681
11.3003664 24.70886993 7.636111736
11.00710487 24.56367874 2.617609501
10.91933441 24.31832123 3.567312956
11.057127 24.43911362 4.55889225
12.05906868 25.95882988 5.835646629
12.6838007 26.85009003 7.110138893
11.31388283 24.54781723 7.601295471
12.86725998 27.61054802 0.6221004128
12.71319771 27.24479294 1.706402302
11.01973534 24.29887009 3.566184282
11.44028664 24.87229729 4.625622749
12.14729023 25.90704727 5.831320763
12.77301407 26.79303551 7.10494709
11.31813049 24.37377167 7.562903881
13.60533142 28.48949051 1.731482387
11.08742905 24.22664833 3.559534311
11.50158978 24.79477501 4.617198467
13.31497383 27.56716728 6.151337147
12.54784012 26.24929237 6.986414909
11.33714867 24.23372078 7.533396244
14.3194418 29.43006516 1.749322653
11.10843086 24.18913651 2.590301991
11.12420082 24.11462593 3.548674107
11.56784534 24.72549629 4.610029697
15.29311085 30.48791313 6.710933685
12.64743233 26.22192764 6.987729073
11.41843796 24.19222069 7.531105518
12.44503593 26.34040451 0.6282314062
14.43935585 29.4116497 1.745221972
11.33158779 24.37221336 2.600996256
11.16679573 24.01270866 3.538911581
13.31865215 27.30080795 4.992855072
13.17601299 26.96469116 6.048482895
13.06229115 26.67521095 7.101458549
11.69815826 24.45819283 7.613919735
12.62313652 26.43618393 0.6209646463
14.39940453 29.12953949 1.73500514
11.31352615 24.16400146 2.58664012
11.25715351 23.98629379 3.537151575
13.38906765 27.20938301 4.983039856
13.18940449 26.79736137 6.022445202
13.14106178 26.61145401 7.094624996
11.94359016 24.65789413 7.679223537
14.97786999 29.81863594 1.746584296
11.38182449 24.10165596 2.58169198
11.55108643 24.26680374 3.567904472
13.42238998 27.06112671 4.964879513
13.78932667 27.52513504 6.167078018
13.23905849 26.56761932 7.092942715
12.64106274 25.54395676 7.935203552
12.4758625 25.81628036 0.6212595105
11.94933033 24.80303955 2.625463009
11.58359146 24.13948631 3.555637836
13.53399944 27.03433228 4.964715481
13.70784378 27.19961548 6.111453056
13.854352 27.3108139 7.275378704
12.15477657 24.62215042 7.689877033
12.82089615 26.16011429 0.6088790894
14.74470329 29.02005768 1.72111547
11.61648273 24.01389503 3.543586493
14.46717358 28.2580204 5.149724483
21.80270004 39.28036118 8.422847748
13.90502644 27.18917847 7.255936146
13.33762741 26.22365761 8.145957947
13.26121616 26.33540535 3.790409327
12.74187565 25.44490051 4.737015247
14.00207329 27.24879837 6.133808613
14.25135612 27.51168442 7.340694904
13.34000969 26.03830719 8.105642319
12.78338242 25.53518105 2.669239998
13.34750748 26.28358459 3.78629756
12.83731461 25.41313171 4.735893726
14.09354305 27.19820213 6.130443573
14.31191158 27.4131794 7.326461315
12.75720501 24.99677086 7.825767517
13.04557991 25.93897438 0.5961791873
13.43361855 26.22192383 3.781260729
14.18943501 27.14425468 6.126844883
14.3678112 27.29850197 7.308951378
12.82565308 24.9187088 7.815014362
13.46606541 26.08066368 3.76783514
14.36565018 27.3171711 5.0264678
14.31179333 27.12917519 6.130779743
14.45740414 27.23403358 7.303318501
12.89729309 24.85450935 7.807655334
13.97405052 26.74606514 2.743480206
13.53140831 25.99846458 3.760625839
15.21091461 28.36117363 5.186114311
14.27357864 26.88837433 6.091113567
14.5455246 27.17720032 7.299088955
12.97505379 24.79050064 7.800990582
13.45105839 25.98762321 0.5779901147
14.24816322 26.75491905 4.951400757
14.3707037 26.8370018 6.088200092
17.32443428 30.9999485 8.212110519
13.08925533 24.77905464 7.80918026
13.40110779 25.72662354 0.5776067376
23.79511833 40.83361435 1.944927812
23.09540749 39.51228714 5.198287487
14.24552059 26.55977058 4.926670074
16.51326942 29.73227119 6.652866364
17.37972069 30.85769844 8.189793587
13.53545094 25.24131966 7.95083189
14.34484196 26.82302475 1.645182371
20.07904625 35.01616669 3.265932083
14.94003201 27.47386932 3.922374725
14.22708893 26.35334396 4.900048256
16.89091682 30.06006432 6.724054813
24.05011368 40.15244293 10.40373802
13.59227943 25.15259171 7.937143803
15.2844677 28.09376907 0.515311718
13.97336483 26.00415039 2.693028688
13.9276638 25.83879662 3.750403881
14.2963953 26.27408028 4.892437458
16.90423965 29.87552071 6.696182728
19.99128151 34.13660812 8.990067482
17.18379784 30.04495811 9.330095291
15.39725018 28.06414795 0.5098391175
15.61639118 28.27028656 1.668467283
15.22456932 27.61306 2.794345617
14.02271938 25.79937172 3.747948408
14.38466549 26.21264267 4.887767315
17.56679726 30.60814285 6.845707417
20.48267555 34.5839119 9.109462738
17.58777618 30.39762878 9.44449234
15.73467064 28.23631668 1.664103508
14.00613022 25.68170929 2.671076059
13.88694572 25.42494774 3.709980488
14.51186466 26.20588684 4.891349792
17.73271942 30.61239433 6.855537891
19.10613823 32.40757751 8.605126381
17.5650425 30.15159988 9.389761925
13.97721004 25.55568695 1.605490446
15.36625862 27.41091537 2.77995038
13.93637943 25.31444359 3.700116396
14.74103069 26.3405304 4.916222572
17.42092323 29.85730362 8.008737564
17.42868614 29.75143242 9.291213036
14.07965374 25.52707291 1.601778626
15.50164413 27.42497444 2.780190229
13.70413113 24.82191277 3.649475574
21.36720467 35.21843338 7.767010212
17.4934864 29.75739288 7.996092319
17.42357063 29.55641747 9.249283791
14.1821003 25.4980526 1.598068476
13.76918316 24.7459259 3.643232822
17.95902634 30.31064415 6.822000027
17.87197304 30.07554245 8.083580017
16.66739655 28.32128143 8.912498474
14.30758858 25.49144173 1.594655395
14.46967316 25.62834549 2.665151596
13.65133381 24.41081619 3.609470606
16.43488503 28.02383614 6.385380745
17.65744972 29.57400513 7.975541592
16.8996563 28.43718529 8.960224152
15.16308498 26.5837059 0.5056539178
14.45017433 25.51646042 1.592042565
14.54864216 25.55620003 2.65999794
13.66234016 24.25504112 3.594861507
19.44051361 32.00872803 5.789571762
16.53862953 27.96792412 6.382881165
16.89028168 28.3350563 7.690107346
21.89180946 34.94178391 10.83438206
15.29351234 26.48531532 1.608002186
13.73598289 24.19374657 3.590275049
14.80827808 25.54763794 4.820528984
17.14765549 28.59944534 6.514413357
17.15977287 28.50760841 7.742833138
17.22780418 28.48948669 9.004419327
15.40515995 26.45030212 1.603908181
16.04102707 27.21849251 2.76403904
13.76820183 24.06851196 3.57899189
14.91066837 25.50665855 4.819372177
17.91548347 29.42271805 6.684436798
17.25340462 28.43359947 7.737015724
17.45783806 28.59584618 9.050235748
15.49889851 26.48805618 0.489441067
15.56220245 26.47575188 1.601010799
14.69225883 25.2246666 2.637482405
13.77702236 23.91305542 3.56450367
14.96041298 25.39549637 4.807660103
15.87405777 26.51844025 6.124100208
16.97861862 27.87433434 7.614108086
18.27975655 29.47625923 9.318994522
13.77175426 23.74032784 3.548188686
15.09297371 25.40294456 4.813703537
15.97752571 26.47059822 6.123111248
16.873312 27.55324745 7.547882557
17.37948608 28.10931206 8.940515518
17.02959824 28.06745529 1.625338197
14.89694405 25.15356827 2.632115364
13.81223869 23.63749123 3.539279699
15.16430569 25.32931137 4.807522774
18.13041115 29.10388565 6.649312973
16.90386009 27.41212273 7.525138855
17.40260124 27.95507812 8.910839081
15.28656864 25.67457962 0.491101861
20.85146332 32.90431976 1.714836597
14.95166206 25.05947113 2.625788927
14.35417652 24.18937874 3.600702286
15.11186218 25.09494019 4.776962757
19.76950455 31.03516197 7.038960934
16.47501183 26.66990471 7.357074261
18.0354557 28.58588982 9.108242989
17.6468029 28.49256134 1.626425266
17.92094994 28.65177727 4.082553864
15.25561047 25.1075592 4.784239769
18.85993767 29.66102409 6.777487755
17.58731461 27.92099571 7.672758579
17.63387108 27.87675667 8.91899395
17.45216179 28.05202293 1.614604354
15.00774765 24.79511833 2.608401775
17.94165993 28.47999191 4.066981792
15.45530319 25.19944191 4.803416729
20.27087975 31.25823402 7.103299618
17.75773811 27.9459095 7.691528797
17.76160622 27.85707474 8.928535461
15.32912731 25.21590233 0.4847391546
17.71846771 28.1999855 1.613795638
18.03159142 28.40782738 4.062019825
14.86753941 24.27827072 4.668365002
16.71055222 26.53697968 6.178232193
16.41727448 26.06973457 7.245653629
17.85168076 27.77974892 8.922276497
17.89852905 28.23462105 1.61083281
15.14295864 24.62685394 2.597194195
14.59768105 23.84785271 3.573648214
14.93160439 24.19300652 4.660758495
16.53854752 26.03479767 7.249844551
17.94146919 27.70213127 8.916034698
17.54543877 27.59150505 1.595286489
14.64626217 23.75392914 3.565958977
15.3096571 24.50203323 4.71356678
19.33984756 29.46289062 6.778283119
16.64370728 25.99702644 7.252243519
17.91473198 27.47993469 8.867649078
16.47939873 26.15107918 0.4418867528
17.09438515 26.65294266 3.881717205
15.35036755 24.39382553 4.702346325
27.64049721 39.56804276 8.80133152
16.87298393 26.1035614 7.290819168
18.03076935 27.44515991 8.873241425
16.68749619 26.24106407 0.4333893359
17.19808006 26.78735542 1.573699474
17.85379219 27.5102253 2.778420687
22.28875923 32.93112183 4.563421249
17.10859108 26.31856346 6.171451569
16.87315369 25.93502045 7.261323929
18.7584362 28.14933014 9.096673012
16.35274506 25.64327431 0.4427634776
16.945755 26.28993225 1.561248183
21.87299538 32.19155121 4.487197399
19.11120033 28.68392563 5.373777866
17.23448372 26.29349518 6.175994873
16.87426949 25.76021767 7.230901718
18.48392677 27.62430191 8.959698677
18.30138397 27.69361496 2.78967905
21.89360619 31.9955368 4.469779491
17.30187988 26.28032303 5.010420799
17.80987167 26.8143959 6.289993286
16.93444061 25.65843201 7.218506813
18.69999886 27.69774437 8.998656273
16.72417641 25.74906731 0.4271097481
21.32335281 31.30105972 1.6444695
20.11041451 29.60779953 4.214607716
16.78157043 25.47981834 4.893033504
22.42076683 32.19993591 7.380669117
16.99540138 25.55804062 7.206512928
18.77975464 27.61506462 8.990921021
17.04714012 25.9757061 0.4147741497
17.46615219 26.22185516 3.850319624
17.49425888 26.08189201 6.162379742
16.88267708 25.25912285 7.144663334
20.83452797 29.8748188 9.677605629
18.44414139 27.31076431 2.765331507
20.37636757 29.53357697 4.213742733
17.23349762 25.68407059 4.937142372
17.52590179 25.94294739 6.144378662
16.97495651 25.19812775 7.142471313
19.484478 28.08568192 9.16528511
17.28099442 25.91212463 0.4037340581
17.60812378 26.21552086 1.543559909
25.26366043 35.16409683 4.830348015
18.5993309 27.13130379 5.168195248
22.54414749 31.71344757 7.318487167
17.22553444 25.33209991 7.188303947
19.35514832 27.74409294 9.082169533
18.0775528 26.60509109 1.547174454
25.39056396 35.07350159 4.825108528
16.83224487 24.87303734 4.824120522
22.99978447 32.03313065 7.395675659
17.2811203 25.2265358 7.175278664
19.71417809 27.98522568 9.171546936
21.67525673 30.57468224 2.971264124
17.72040558 25.83341217 3.821153164
16.90788078 24.79369354 4.818350792
16.78735542 24.57618904 5.897024632
17.18850708 24.95759773 7.120743275
21.07271385 29.37068367 9.604207993
17.27060509 25.38265038 0.3993300796
17.86807442 26.00722885 1.530340552
17.88625526 25.85214806 3.826708078
17.03474236 24.78240204 4.822910786
16.82835197 24.45838356 5.882998943
17.29915428 24.91771126 7.124196053
20.01265335 27.96243477 9.201641083
17.78456306 25.64638138 2.660725355
17.98694801 25.80283546 3.824711323
17.01378441 24.59129143 4.799812317
16.69746399 24.1515522 5.830053806
17.92210007 25.473423 7.276799679
19.35009384 27.01709938 8.93721962
18.01935959 25.75275993 2.667599201
18.05526543 25.70726013 3.817880392
17.05701256 24.47546387 4.78848362
16.77960968 24.08342934 5.826135635
18.06197929 25.46183777 7.287964821
19.46923828 26.97103691 8.942168236
18.59383774 26.31699181 1.525641084
17.30151558 24.58946037 4.813213348
16.86021805 24.01352882 5.821928501
18.3829422 25.65423965 7.350802898
19.60905266 26.94780731 8.954162598
18.48861313 25.94052505 2.679899454
29.75817108 38.64291763 5.246465683
22.18946266 29.86058044 7.029190063
17.69936371 24.71447372 7.12749052
20.01804161 27.2251091 9.057188988
17.95581436 25.23844528 1.501195788
18.57705307 25.86554337 2.675450802
19.92871284 27.30252457 4.004689217
17.87940788 24.83420753 6.010802746
17.76772118 24.62551689 7.119090557
19.62802505 26.60928917 8.89023304
13.95284939 20.62698936 0.5036316514
18.02034378 25.14939308 1.496708512
1.007980227 5.962195396 1.419514775
20.05048561 27.2639904 4.0043993
17.88058853 24.75217056 4.859800339
17.93731689 24.74067307 6.001845837
17.84739304 24.55754089 7.115377903
19.91984558 26.76252556 8.9552145
13.93221569 20.47945595 0.5032339692
1.022089839 5.961708069 1.182177067
19.92046738 27.03459549 2.749893904
17.89138603 24.61484909 4.844731331
18.18324089 24.85515594 6.035797119
18.0378437 24.6115036 7.142822742
20.06120872 26.75665665 8.971198082
1.054733515 5.981759548 0.9437747598
18.24864197 25.08234215 1.489591837
1.083340406 5.980607986 1.420817614
23.16879463 30.36114883 4.354663849
17.85098076 24.4056015 4.8190341
17.97074699 24.46409416 5.965591908
18.54054451 25.00532913 7.257305145
20.0151844 26.52782631 8.92132473
1.067059755 5.959887505 0.9430384636
18.36634636 25.0435276 1.485804796
24.11683273 31.29982567 3.020133734
17.91931152 24.31711197 4.812456608
18.0593586 24.39735413 5.962836266
18.54844856 24.84714699 7.231841564
20.09630585 26.43863297 8.914058685
13.76950169 19.89936447 0.505307734
1.114317298 5.959323406 1.180183768
20.0961628 26.69313049 2.729645014
24.38170433 31.27423668 4.465734005
18.53099251 24.8187294 4.899673462
19.82896805 26.14992332 6.337538242
18.48336029 24.61136436 7.186445236
19.91921806 26.0720253 8.821790695
13.77352333 19.771101 0.5040123463
18.62472725 24.9893589 1.478632331
1.168683529 5.967860699 1.420296907
20.41859436 26.77584267 3.971736193
21.90764999 28.29342842 5.460594654
21.46287918 27.73133087 6.678489685
18.89707947 24.89065933 7.273479939
21.84784889 27.95705223 9.421692848
1.163558125 5.961096764 0.9388002753
1.196110129 5.979271889 1.179203629
20.50274277 26.69557953 3.967131138
18.18183517 24.12247086 4.803944588
20.99735069 27.05785561 6.550588131
18.38808632 24.1915741 7.107906818
21.78856087 27.71692467 9.368460655
1.207010865 5.97262907 0.9369905591
19.21173477 25.29378891 1.47719276
19.1382618 25.14179039 2.633187532
18.21767807 23.99972343 4.792116642
19.75611496 25.56073952 6.250813007
18.39203072 24.03493881 7.082657814
21.75275421 27.49437332 9.321621895
1.232854605 5.96492672 0.9357899427
18.82881165 24.71560478 1.465136528
1.268431783 5.970716953 1.42082727
19.03279305 24.70075798 4.912265778
22.54597855 28.32817268 6.842563629
18.82771683 24.33250999 7.175149918
21.91799355 27.48397064 9.340435982
13.68092823 19.15829277 0.5027983785
1.2832793 5.966293812 1.177012801
20.11988449 25.84279442 2.678808451
20.44421768 26.10093117 3.914788246
20.89212227 26.48636627 5.207107067
19.36153603 24.80836868 6.117753029
18.84927559 24.19332123 7.154702187
22.01037407 27.3968277 9.335643768
1.292803645 5.957873821 0.9331022501
19.6528244 25.26070404 1.467280746
1.32295382 5.957722664 1.420282245
20.54840088 26.03515625 3.912177563
20.97664452 26.40622711 5.202724457
19.45288086 24.73806763 6.115241528
18.93575478 24.13021469 7.15329361
22.24454689 27.46510887 9.378278732
1.347485542 5.977289677 0.6852172017
1.32194674 5.954967022 0.9318022132
1.349901438 5.969217777 1.175797582
19.76306152 25.13458443 2.635351658
20.64113045 25.96597099 3.908999681
21.20721436 26.4772644 5.222772121
19.45454597 24.58335114 6.094392776
18.80828857 23.84690475 7.094454765
22.19732285 27.242939 9.330519676
1.373280406 5.974996567 0.9297267199
20.02458191 25.31752586 1.461910844
19.79456329 25.00742531 2.62801528
20.69758797 25.85922623 3.901656866
21.09113121 26.18103218 5.184115887
19.55485916 24.53079605 6.095128536
18.86328888 23.74489784 7.083701134
22.10147476 26.9640522 9.266010284
1.40344882 5.970884323 0.9283744693
20.06079483 25.18522072 1.456774235
1.428152084 5.964744568 1.421189189
20.97100258 25.96643257 3.918657303
21.6739502 26.60124969 5.261377335
19.62869263 24.44280624 6.089082241
19.35532761 24.08660316 7.189534664
22.2634182 26.94841957 9.283995628
1.452062607 5.970637321 1.173862815
20.09622383 24.9820652 2.628041983
21.11547279 25.93983269 3.920712709
21.64446831 26.4025135 5.238160133
19.77867699 24.43191719 6.099483967
19.52178001 24.0945015 7.208147526
22.5573616 27.07336998 9.345349312
1.465794444 5.965934753 0.9256141186
20.19583511 24.99472809 1.447832227
1.504021287 5.971639633 1.42198801
21.59315109 26.17453766 5.210643291
19.88430405 24.38366127 6.101434231
19.61364746 24.03457832 7.208226681
22.54051399 26.87646675 9.306674957
1.50875926 5.967765808 0.6744015813
15.3036375 19.8874073 1.37161994
20.25930405 24.82172012 2.619610071
21.56503105 26.0540638 3.943718433
21.54898453 25.95565605 5.184570312
23.8545208 28.18114853 6.925313473
19.76098061 24.02159882 7.22168541
22.63631439 26.79264259 9.303751945
19.89294243 24.35755157 1.432499051
1.586401939 5.985667706 1.42326653
22.22017479 26.53284454 4.003278255
21.76860237 26.00061417 5.201577663
21.26132584 25.42446327 6.350440502
19.83433914 23.9346714 7.215701103
22.72488594 26.70162582 9.298669815
1.558101416 5.953202724 0.9214934707
20.05124092 24.36048317 1.429625869
1.606926441 5.970788479 1.422532201
22.41134071 26.5445919 4.01013422
20.78962898 24.79123497 6.228448391
22.8826561 26.68712997 9.316883087
20.16147614 24.31478691 1.426074743
24.18097687 28.20402908 2.837826252
20.91520691 24.7572403 6.234193325
21.64517403 25.3982048 7.639300823
22.97898483 26.61203384 9.31596756
1.631323099 5.958834171 0.9183613658
20.3014164 24.28971863 1.422666192
1.664645553 5.960751057 1.422320247
25.0051384 28.74172592 4.271143436
21.00251007 24.68549156 6.231914043
21.66248322 25.24606514 7.617342949
23.1062603 26.5577774 9.323088646
1.6798985 5.954950333 1.169072866
21.96448326 25.67056847 2.678866148
23.80998421 27.30425262 5.455685616
21.09216118 24.59945869 6.228034973
21.75272942 25.15651512 7.613130093
23.1531086 26.42598724 9.305473328
20.42077827 24.08161354 1.413729668
1.74952054 5.971049309 1.423474908
21.11737823 24.45990181 6.211922169
21.83274841 25.06555367 7.607692719
22.53303528 25.66042328 9.083550453
1.73860085 5.957570553 0.9137066007
20.43945694 23.93853569 1.40877831
1.762832046 5.948636055 1.422302008
24.06515503 27.1835041 5.457615376
21.2023468 24.38602257 6.209400177
21.88113213 24.95298958 7.595549583
28.75069046 31.36281586 10.95227909
1.786525846 5.95398283 1.167108417
22.21051407 25.40146828 2.665386438
22.70453644 25.79276085 3.958345175
21.46870995 24.55122948 5.030733109
21.32280731 24.33744431 6.213198662
22.01196861 24.91012192 7.603295326
22.83147812 25.60887527 9.114803314
1.796021223 5.943841457 0.9111180902
20.71005058 23.88420296 1.402182817
22.35522461 25.36832237 2.664604664
22.84477615 25.76113319 3.960414171
21.45540619 24.37496948 5.011532307
21.56755447 24.41304588 6.243556976
22.27654076 24.99997139 7.646278858
1.845483899 5.941289902 1.165652633
1.860160708 5.939163685 1.422495246
22.96031761 25.69698715 3.959115505
21.61424446 24.36891174 5.020239353
22.36604691 24.91661453 7.643433571
23.45707703 25.85687637 9.244746208
20.68614006 23.55110359 1.392017841
1.91858232 5.958693027 1.424040556
22.6642704 25.25790024 3.914253235
22.03005791 24.52487564 6.297153473
22.44822311 24.83471489 7.640089989
23.35835075 25.59386826 9.18447876
1.885615349 5.924477577 0.9071067572
1.936724782 5.957996845 1.164577961
26.19927979 28.44360924 2.865918398
22.95539284 25.35795975 3.932004452
21.79059029 24.21533966 5.014799118
22.07866669 24.40597916 6.286146641
22.5589447 24.77064705 7.642739773
23.41534042 25.48391533 9.172944069
1.966070294 5.949888229 1.163812518
1.982222676 5.948945999 1.424020529
23.98485184 26.14200401 4.028954983
21.86870575 24.12513733 5.010189056
22.16358948 24.32878685 6.283640385
22.37156677 24.44322395 7.572109699
29.01717758 30.39531517 10.81702614
1.943779111 5.911653042 0.904507935
2.00338769 5.950705528 1.163193583
31.07419777 32.54221725 3.132497787
24.01520538 26.00302887 4.019053936
21.84543991 23.9508152 4.990910053
23.421978 25.31573868 6.517325878
22.45366287 24.36258698 7.569217205
28.91723061 30.11150932 10.75328541
2.036228657 5.931467056 1.423523188
24.17932892 25.9771595 4.022694588
21.89016914 23.83113289 4.981394291
23.63324738 25.33666229 6.538315296
23.96939087 25.56081581 7.921180725
24.33575439 25.80956459 9.358686447
2.037796021 5.927263737 0.9005926847
2.074046373 5.944453716 1.161791444
2.124927998 5.976463318 1.426763296
24.59143066 26.0944519 5.376394272
