# .PCD v0.7 - Point Cloud Data file format
VERSION 0.7
FIELDS x y z
SIZE 4 4 4
TYPE F F F
COUNT 1 1 1
WIDTH 1298
HEIGHT 1
VIEWPOINT 0 0 0 1 0 0 0
POINTS 1298
DATA ascii
2.251021624 -6.252655506 2.066084623
5.909088612 -14.92900276 4.701488972
14.61253834 -35.54138184 11.86716175
1.639222145 -4.913437366 0.3649446666
1.663667083 -4.966125011 0.5135504007
1.922807932 -5.593338013 0.6485496163
1.717476487 -5.0871768 0.8214703798
1.716595531 -5.053036213 0.9779108167
1.557683468 -4.664093494 1.102763772
1.652301788 -4.885665894 1.273306012
1.648092151 -4.870500565 1.424103975
2.220183849 -6.231577396 2.059657097
10.39725685 -25.8272438 7.734418392
14.40016365 -35.37575531 11.80113697
1.611824989 -4.88593483 0.3687744439
1.649507642 -4.971915245 0.5138931274
1.905694246 -5.598170757 0.6490001082
1.696087122 -5.076466084 0.8216875196
1.72782445 -5.121864796 0.9811464548
1.580821395 -4.758052826 1.110498786
1.648909211 -4.917124748 1.276780128
1.647710562 -4.909134865 1.429718852
2.075065136 -5.941967964 1.790893197
2.175372601 -6.176045418 2.045043945
2.20711112 -6.245818615 2.275270462
12.88116837 -32.04657364 10.72590256
1.589821696 -4.871222496 0.371240437
1.628640056 -4.960983276 0.5153527856
1.935521483 -5.719816208 0.646014154
1.730767131 -5.204817295 0.8230470419
1.732589602 -5.176006317 0.9837115407
1.523077607 -4.654521942 1.10169971
1.707448244 -5.101414204 1.298860788
1.64782238 -4.94964838 1.435631394
2.047708035 -5.925457954 1.786610603
2.161250114 -6.194401741 2.048074245
2.186092854 -6.248048782 2.274227619
12.67683411 -31.86015892 10.65498734
1.564272285 -4.84715414 0.3746702075
1.640289068 -5.031581402 0.5113478899
1.916504025 -5.720970154 0.6465793252
1.66468966 -5.082622051 0.8223410845
1.699786544 -5.137510777 0.9820269942
1.51588881 -4.674602032 1.103253126
1.73651588 -5.216099262 1.312446833
1.628442168 -4.942503452 1.433917165
2.284000397 -6.561804771 1.912052989
2.216567755 -6.384739399 2.092029572
2.17380476 -6.271742344 2.27916646
1.885261178 -5.552536488 2.268184662
1.555634499 -4.865575314 0.3736425936
1.624440908 -5.033575535 0.5119384527
1.890906692 -5.705309391 0.6476300359
1.660359025 -5.114451885 0.8229067922
1.677599907 -5.124837399 0.9815276265
1.541006684 -4.776200294 1.111626148
1.7883389 -5.390115261 1.333232164
1.647254944 -5.03082037 1.447470069
2.899644375 -8.16059494 2.228289127
2.218327999 -6.444970131 2.104986191
2.140482903 -6.243278503 2.269639969
10.62450314 -27.37726974 9.206964493
1.523823023 -4.824604988 0.3788038194
1.566613555 -4.927609921 0.5197071433
1.863264203 -5.683939457 0.648837626
1.648555398 -5.127669811 0.823317945
1.673805594 -5.158550262 0.9831596017
1.60633719 -4.981918812 1.128700495
1.782090425 -5.420338631 1.336524963
1.988095284 -5.936284065 1.591491461
2.315809727 -6.758587837 1.948903561
2.093096256 -6.185714245 2.042077541
2.115249157 -6.234451294 2.265594244
1.940953135 -5.788293839 2.33974719
1.521602988 -4.859642982 0.3760340214
1.580569506 -5.005711079 0.5152155757
1.617954135 -5.092347622 0.823315382
1.648051858 -5.136424541 0.9822271466
1.883827925 -5.736210346 1.191610932
1.776372552 -5.452425003 1.340045094
2.26584506 -6.691493511 1.934512496
2.08449626 -6.218387604 2.048552513
2.095053196 -6.238134384 2.265038252
1.919513583 -5.784262657 2.336754084
1.505707264 -4.859362125 0.3769361079
1.673057079 -5.285902977 0.6614468694
1.59618187 -5.079283714 0.8234974742
1.663412333 -5.22045517 0.9861759543
1.850403309 -5.699947834 1.188433409
1.749681354 -5.430765629 1.33704567
2.253937244 -6.728566647 1.716442943
1.945017934 -5.923528671 1.781447291
2.62251544 -7.66024971 2.388927698
2.074859858 -6.241741657 2.264479637
1.884908795 -5.746181488 2.322992802
1.491238713 -4.862743855 0.3774500191
1.580136776 -5.091371059 0.5109508634
1.658475995 -5.293586731 0.6617494822
1.579493046 -5.077067852 0.8237554431
1.681056023 -5.31210947 0.9904795885
1.865034223 -5.786138535 1.195495248
1.764331222 -5.516638279 1.347093463
2.08850646 -6.357623577 1.656593442
1.925444722 -5.922564983 1.780385494
2.301204681 -6.894484043 2.20607686
1.951791883 -5.977749348 2.190002918
1.816967368 -5.618108749 2.280867815
1.485793352 -4.888198376 0.3756332099
1.51738131 -4.967825413 0.5197892785
1.634122252 -5.272847652 0.6628351212
1.592957735 -5.157472134 0.8247472048
1.664997101 -5.313911438 0.9906477928
1.963523865 -6.098494053 1.221429944
1.896534204 -5.91493082 1.394987941
1.91059804 -5.936567783 1.782247663
2.2638309 -6.856390476 2.195748806
1.936880112 -5.989566803 2.191895008
1.780526042 -5.572387218 2.264814138
1.478809953 -4.912052155 0.3740269542
1.49907136 -4.961868763 0.5208540559
1.613327503 -5.263525963 0.6636130214
1.573931456 -5.151749134 0.8249905705
1.783773899 -5.679090023 1.007552505
1.938353777 -6.086618423 1.220291376
2.164226294 -6.680462837 1.487316728
1.594805956 -5.15472126 1.463926792
2.186737299 -6.725666046 1.937110901
2.231891632 -6.83494997 2.189322233
2.209777594 -6.768256664 2.405188084
1.759995937 -5.567744732 2.261791468
1.453940749 -4.887279987 0.3774268329
1.493145943 -4.989584923 0.5197038054
1.600102067 -5.276922226 0.6637666225
1.556340337 -5.149700642 0.8252640367
1.79823339 -5.769619465 1.011821508
1.912596464 -6.072762012 1.218992114
2.156077623 -6.723728657 1.492089629
1.58470118 -5.173215866 1.466332316
2.47789979 -7.572039604 2.103005648
2.182746649 -6.769817829 2.172545433
5.774740219 -16.40513992 5.058005333
1.693922281 -5.440830708 2.220199823
1.485984802 -5.021809101 0.3644888103
1.491753936 -5.032589436 0.5175902247
1.618171334 -5.374604702 0.6615176201
1.543489099 -5.162893772 0.8256862164
1.769394636 -5.746135235 1.010846019
1.903181672 -6.105931282 1.221612692
2.119951725 -6.688271523 1.487365365
1.554658055 -5.139964104 1.460499167
2.207155466 -6.910899162 1.971533775
2.200548649 -6.881802559 2.197647572
5.711448669 -16.40140533 5.052749157
1.703675747 -5.518918037 2.243274689
1.47365737 -5.03260994 0.3642375469
1.505569458 -5.116734982 0.5127680302
1.607851863 -5.397449017 0.661413312
1.543452501 -5.209671021 0.8263964057
1.795236707 -5.870660782 1.016689539
1.88835752 -6.121897221 1.222808123
1.645226479 -5.444128036 1.336553574
1.531693459 -5.123021603 1.457296491
2.170600176 -6.876003265 1.963643432
2.187146664 -6.913619041 2.203768015
1.852011442 -5.985588074 2.185074329
1.688714027 -5.528378487 2.244778156
1.462595582 -5.047129154 0.3636017144
1.67774713 -5.650880337 0.4786947668
1.596291304 -5.412181854 0.661485672
1.517723322 -5.184866428 0.8264616728
1.785933971 -5.89946413 1.018123746
1.849936604 -6.072116375 1.218526602
1.563720465 -5.264341354 1.314525485
1.519558311 -5.135760307 1.458811402
2.134982109 -6.842778206 1.956108451
2.125389099 -6.805035114 2.176978111
1.781150341 -5.842272282 2.144432545
1.682170749 -5.561241627 2.253659248
1.444895625 -5.042824268 0.3648847938
1.592726469 -5.460723877 0.4917838573
1.546106458 -5.321758747 0.6645358801
1.506735682 -5.201458454 0.826900363
1.766469121 -5.900002003 1.018255591
1.60435617 -5.435686111 1.165368915
1.61005497 -5.446087837 1.336140275
1.695934892 -5.679739952 1.544490695
2.083161831 -6.763052464 1.939460754
1.712183237 -5.706433773 2.105806112
1.65800643 -5.545350552 2.247214794
1.425869465 -5.036815643 0.3663728833
1.657024622 -5.698344707 0.477114588
1.518925786 -5.293120861 0.6658227444
1.489008904 -5.201277256 0.8271993995
1.754049063 -5.923408508 1.019449711
1.720003247 -5.819809914 1.197252989
1.501530647 -5.181928158 1.465107322
1.953352451 -6.462601185 1.879466057
2.364789486 -7.621191502 2.366163969
1.679820776 -5.668496132 2.094168663
1.634434104 -5.533248901 2.241919041
1.411484957 -5.041780949 0.3666920662
1.583529592 -5.5378685 0.4882209301
1.565725088 -5.480003357 0.6611458063
1.479178786 -5.221581459 0.8276725411
1.576677442 -5.466775894 0.9984652996
1.559325695 -5.402715206 1.330284238
1.677757978 -5.738404274 1.552646399
1.917042851 -6.421040535 1.870423198
2.341799736 -7.631182194 2.367120981
2.337808847 -7.610612869 2.6248281
1.612423897 -5.52256918 2.237168312
1.501367211 -5.356086731 0.3356140554
1.551251769 -5.498254776 0.4915192127
1.461382389 -5.224072933 0.6686888337
1.450629234 -5.186933041 0.8276332021
1.557489753 -5.462786674 0.9983811378
1.614600182 -5.62413311 1.180738568
1.452756286 -5.143041611 1.298689365
1.717263937 -5.908847332 1.579047561
1.762902141 -6.025557995 1.989194632
1.727597594 -5.916151047 2.159525156
1.59112978 -5.513607502 2.232982159
1.536214948 -5.512414932 0.3206505179
1.532079935 -5.49418211 0.4924788475
1.330265522 -4.884272099 0.6784918308
1.430588603 -5.176794529 0.8278183341
1.697490931 -5.930102348 1.020089746
1.623610377 -5.705275536 1.187390208
1.44670856 -5.176546574 1.302432537
1.724469066 -5.9878335 1.590973258
1.974345565 -6.717229366 1.926718712
1.731412411 -5.994959354 1.980946302
1.657895207 -5.772088528 2.118846655
2.265115261 -7.542673111 2.866985321
1.534309626 -5.563415527 0.3164305687
1.574223638 -5.67582798 0.4815230668
1.388462663 -5.107223988 0.6728361845
1.423197627 -5.204542637 0.8283594251
1.692940474 -5.977977753 1.022422194
1.443077087 -5.215466976 1.306842685
1.71390295 -6.018464565 1.595230699
1.472790599 -5.29043293 1.646560669
1.726564884 -6.039787769 1.990436077
1.625926495 -5.733748913 2.107192278
2.238643169 -7.541367054 2.864653111
1.454816699 -5.371610641 0.3366297781
1.441921234 -5.326365948 0.5045877695
1.282065868 -4.82861805 0.6808379292
1.781039596 -6.350029469 0.839563489
1.67357862 -5.975962162 1.022437334
1.796298027 -6.341216564 1.240098
1.415486932 -5.182722569 1.302631021
1.697474718 -6.025963306 1.595896959
1.472236514 -5.340302944 1.65565598
1.620730639 -5.778630257 1.92839396
1.587147951 -5.671088219 2.088994026
2.223723888 -7.574522972 2.87312007
1.467916608 -5.465753555 0.3279945552
1.423604369 -5.319730759 0.5056312084
1.290473223 -4.901569843 0.6792779565
1.775540829 -6.398076057 0.8403754234
2.195198298 -7.636386871 1.099438906
1.777259946 -6.347432613 1.240509272
1.383327365 -5.132599831 1.296352148
1.696730137 -6.08445549 1.604582191
1.437657833 -5.287454128 1.644671679
1.569461942 -5.680333138 1.904483676
1.567331195 -5.667349339 2.086848497
2.202602863 -7.589441776 2.875901461
1.434550643 -5.415841103 0.3338662088
1.401551008 -5.303757191 0.5072938204
1.292314529 -4.955578804 0.6782407761
1.633503795 -6.019382477 0.837066412
1.592140794 -5.8448596 1.016594052
1.717812777 -6.228345394 1.230504751
1.395996928 -5.222465992 1.306897402
1.685248017 -6.111011505 1.608233452
1.707068443 -6.171613693 1.816701651
1.55326283 -5.687591553 1.90527761
1.555938363 -5.689308643 2.091722488
2.179620743 -7.598826408 2.87697506
1.285248995 -4.995355129 0.37689206
1.386217952 -5.308630943 0.5076208115
1.245140433 -4.855183125 0.6813607812
1.590371013 -5.944941521 0.8366675973
2.162633896 -7.697208881 1.102566361
1.785732627 -6.505936623 1.253486395
1.429806709 -5.380614758 1.32564044
1.459203959 -5.46685791 1.506292105
1.599847794 -5.90033102 1.763008475
1.535241008 -5.689218998 1.904768705
1.545596242 -5.714931965 2.09760046
2.160124302 -7.619083881 2.881460667
1.269827127 -4.996026993 0.3775750399
1.369090676 -5.307732105 0.5083088279
1.212939978 -4.800325394 0.6832373142
1.362782359 -5.27643919 0.830439806
2.148466349 -7.735197067 1.104485393
1.465581298 -5.557444096 1.174552441
1.448780775 -5.495463848 1.339171171
1.642129064 -6.101831436 1.605747223
1.573994279 -5.879596233 1.758262396
1.550838351 -5.796866894 1.928995013
2.153342009 -7.689246655 2.633445501
2.14051199 -7.639286995 2.885946035
1.255580544 -5.000448227 0.3778755069
1.297356248 -5.131414413 0.5201156735
1.189358354 -4.772048473 0.6843903065
1.346332669 -5.277341843 0.8307237625
1.449287057 -5.562513351 1.174896479
1.427956343 -5.485292435 1.337689519
1.550261259 -5.871483803 1.56902051
1.601069212 -6.027658463 1.786426902
1.513217926 -5.736989975 1.914163232
1.504743099 -5.703326225 2.092292786
2.127095699 -7.679558277 2.896692514
1.245933175 -5.020064354 0.3766531944
1.283200264 -5.137835979 0.520303905
1.180409789 -4.793602943 0.6842297912
1.513064027 -5.880937576 0.8369842172
1.694596052 -6.426241398 1.044041991
1.450538516 -5.6247015 1.179989338
1.432121277 -5.558840275 1.346245289
1.375002027 -5.36460495 1.488890648
1.580167651 -6.023778915 1.784974933
1.497672558 -5.749915123 1.916274428
1.519030452 -5.812322617 2.120784521
2.117966413 -7.734467506 2.911996841
1.308497429 -5.276180744 0.512181282
1.197814226 -4.901127338 0.6817755699
1.481023073 -5.840468884 0.8369051218
1.533633351 -5.967710018 1.022882342
1.434338808 -5.633782387 1.180668473
1.411184192 -5.548576832 1.344761848
1.328068376 -5.269293785 1.473483086
1.50973475 -5.860205173 1.752426744
1.516515255 -5.872704506 1.943997264
1.465546846 -5.699047089 2.088998556
3.649143457 -12.82953644 4.492973804
1.29197824 -5.284806252 0.3518198133
1.28534174 -5.253925323 0.5141810775
1.180465698 -4.893781662 0.6823675632
1.454125881 -5.813004494 0.8369344473
1.609205365 -6.285053253 1.037750125
1.418921351 -5.642562866 1.18132937
1.423442245 -5.648610115 1.356505036
1.32924211 -5.3288064 1.482422829
1.46005106 -5.758077621 1.731916666
1.472569108 -5.790065289 1.923935652
1.422379613 -5.616971493 2.065734863
3.621519089 -12.88976288 4.508655071
1.334026575 -5.486207485 0.332590282
1.221004963 -5.089735031 0.5250667334
1.163741589 -4.888284683 0.6829062104
1.139037013 -4.798748016 0.8269850016
1.536657572 -6.108577251 1.029674292
1.356004 -5.49068737 1.168652177
1.419398665 -5.689871311 1.538663507
1.537553787 -6.081649303 1.794171333
2.311363697 -8.672996521 2.592828274
1.451644301 -5.775843143 2.107787609
3.761184216 -13.51210785 4.69869709
1.196479201 -5.059445858 0.5275257826
1.144859433 -4.875032425 0.6836431026
1.605645299 -6.413143158 1.043968081
1.328219652 -5.455183506 1.165644407
1.352819324 -5.530602932 1.341887474
1.287617087 -5.30185318 1.477407098
1.518258572 -6.083167553 1.793810844
2.290637493 -8.703418732 2.598605156
1.40390861 -5.676823139 2.079988718
3.727022171 -13.55993843 4.710434437
1.184722781 -5.073207855 0.5272212029
1.169285417 -5.013624668 0.6804156899
1.106882215 -4.789286613 0.8273631334
1.064580202 -4.604123592 0.9599061012
1.019379854 -4.442464828 1.081516027
1.397180438 -5.745268345 1.367355108
1.328164935 -5.500094891 1.508089185
1.465100288 -5.967516422 1.770721316
3.485831022 -12.92999649 3.57779932
1.392493725 -5.700231552 2.08535862
3.70756197 -13.65922832 4.738133907
1.166960359 -5.065791607 0.528233707
1.158186078 -5.029233932 0.6804057956
1.262092471 -5.393830776 0.8338184357
1.053274512 -4.613574505 0.9604370594
1.010803223 -4.459413052 1.082881451
1.467255354 -6.055843353 1.404283881
1.23667419 -5.240303993 1.467013478
1.414933801 -5.859122276 1.749079585
3.436558962 -12.91757584 3.572999001
1.377202749 -5.710591793 2.087208986
3.693776846 -13.78065014 4.772684097
1.188031077 -5.206959248 0.3632142842
1.17831552 -5.166264534 0.5225599408
1.222748995 -5.318433285 0.6733155251
1.031681538 -4.586435795 0.959264338
1.470155478 -6.13550663 1.413570404
1.209139347 -5.200777531 1.460466027
1.400724292 -5.875344276 1.751630664
3.389007092 -12.91059399 3.569496393
1.355012298 -5.696688175 2.082518578
3.655696392 -13.81912136 4.781580448
1.193447113 -5.286019325 0.3561402261
1.162411571 -5.166507244 0.5230959058
1.187097073 -5.251520634 0.6754784584
1.016141415 -4.580376625 0.9590736032
1.082874537 -4.811975002 1.2550776
1.182427764 -5.163018703 1.45420897
1.349044919 -5.757035255 1.72812736
1.770711064 -7.26595974 2.260837793
1.317026615 -5.628845215 2.063247204
3.623570442 -13.87964344 4.797321796
1.171239376 -5.267302513 0.358725816
1.177374959 -5.28450346 0.5163654089
1.153739333 -5.188066483 0.6775153279
1.035174608 -4.742739677 0.8278188705
1.003166199 -4.585995197 0.9594324231
1.0037359 -4.583411694 1.093058586
1.169343948 -5.176831722 1.456012487
1.307252526 -5.67468071 1.711596489
1.755570531 -7.29839325 2.267379284
1.318342686 -5.698685646 2.081194878
3.58826375 -13.93886757 4.812539577
1.156558394 -5.273304462 0.3588372469
1.171310067 -5.323333263 0.51452142
1.1636765 -5.288896561 0.6753527522
1.194885135 -5.397677422 0.8349426985
1.13838017 -5.121668816 1.447058678
1.312027097 -5.758889675 1.727351427
3.253914356 -12.93112373 3.568614721
3.506591797 -13.84717464 4.27621603
3.552858829 -13.98999596 4.82543087
1.136826038 -5.259989738 0.3608340621
1.215750694 -5.553193569 0.50087744
1.074219346 -5.006464958 0.6829376817
1.143916726 -5.20203352 1.459290624
1.272198081 -5.677912712 1.711155057
3.220788002 -12.96813965 3.575503588
3.479300976 -13.91843033 4.293180466
3.519622087 -14.05029202 4.841177464
1.118190289 -5.25044775 0.362449944
1.115359426 -5.230687618 0.5212945342
1.0743891 -5.066336632 0.6817904711
1.117797732 -5.163887978 1.453014731
1.280893803 -5.779261112 1.730224729
3.180852652 -12.98863029 3.578510761
3.469486475 -14.06698036 4.33084631
3.496758223 -14.15128899 4.869487286
1.106482863 -5.267849922 0.3614247739
1.091927528 -5.201667786 0.5236068368
1.032764912 -4.963489056 0.6847704053
1.070673466 -5.043286324 1.433883548
1.243421793 -5.701610565 1.714732885
3.141787052 -13.01277065 3.582387447
4.2456007 -17.2447567 5.183266163
4.038186073 -16.41264343 5.563083172
1.102676153 -5.314006329 0.3575609326
1.075009823 -5.197714806 0.5243704319
1.105875492 -5.312098026 0.6763191223
1.085701704 -5.159845352 1.451785803
1.220735073 -5.68302536 1.71064508
1.237631202 -5.739058971 1.903210163
4.189515591 -17.25295067 5.182807446
3.972563028 -16.38374901 5.550998688
1.075897932 -5.271441936 0.3623711467
1.046188831 -5.145233631 0.5280951262
1.014968157 -5.013307571 0.6842413545
1.081372261 -5.205774307 1.458651185
1.197709441 -5.662434578 1.706184626
1.227882624 -5.775689125 1.910968781
4.13006258 -17.2597847 5.181893826
3.957472563 -16.55340767 5.600035667
1.038669467 -5.182032108 0.5263777971
1.065993786 -5.211598873 1.459252596
3.031544447 -13.12473774 3.603206158
3.663909435 -15.64243031 4.744861603
3.827800274 -16.27932167 5.512558937
1.027011633 -5.199231625 0.5258319378
1.034687281 -5.152042389 1.449676037
1.330694437 -6.356426716 1.838996649
2.997371912 -13.17115307 3.612313032
3.583678722 -15.55031204 4.717647076
3.772236109 -16.28681183 5.511868477
1.015242696 -5.216403484 0.5252864957
1.060281038 -5.330360889 1.315315247
1.015452266 -5.134270668 1.446648836
1.328993201 -6.433627129 1.853350997
1.095114946 -5.450377941 1.834221005
3.51473546 -15.47918034 4.696370602
3.734210253 -16.36676025 5.533469677
1.091987133 -5.524580002 1.507137656
1.148474097 -5.757164478 1.722568274
1.08497858 -5.478817463 1.840197802
3.46476531 -15.49684811 4.698843002
3.689025402 -16.41866112 5.546495914
1.01136744 -5.344166756 0.3585686386
1.050244927 -5.418549538 1.49035728
2.867351532 -13.21632576 3.157873392
4.59887886 -20.60969925 5.317677975
4.655276299 -20.82295609 6.123147488
3.660988808 -16.54507637 5.582400322
2.828060389 -13.24340534 3.161989927
3.27280426 -15.15294552 4.061679363
4.592096806 -20.86904144 6.132519722
3.238097668 -14.96081924 5.094281197
1.007867336 -5.475600719 0.3471532464
2.796401978 -13.30487633 3.172741652
3.217977524 -15.14320564 4.057789803
4.126747608 -19.13881111 5.666702747
3.189823389 -14.97746658 5.096905708
1.004605293 -5.537488937 0.3418293595
3.933104753 -18.59677315 4.84882164
3.612244129 -17.12985229 5.126910686
3.156899452 -15.06315899 5.120702267
1.58459568 -8.167311668 2.183546782
3.876538754 -18.6509304 4.85918951
3.545653582 -17.11254883 5.119913101
3.128341675 -15.17125034 5.151371956
1.106228352 -6.072350025 1.59062016
1.55492878 -8.159555435 2.181444883
3.38188076 -16.65117836 4.398747444
3.399507523 -16.71033287 5.010267735
3.081601143 -15.21053219 5.160909653
1.095830441 -6.112910271 1.596652746
1.500686288 -8.028316498 2.155683756
3.321289778 -16.63791084 4.394047737
3.343867064 -16.72192955 5.01126194
3.250242472 -16.25586319 5.477935314
1.028375626 -5.896437645 1.201717257
1.071952105 -6.089560509 1.5927701
1.456548452 -7.941062927 2.138398409
3.36861372 -17.14416885 4.508405685
3.147710085 -16.05695915 4.831757545
3.130965471 -15.95362186 5.383236885
1.535209537 -8.465044975 1.961109996
1.443577886 -8.003834724 2.149919748
2.888661146 -15.09291077 4.037006378
2.993915081 -15.58852673 4.704801559
3.050317764 -15.82909679 5.34292078
1.004823089 -5.954154968 1.388149381
3.089251995 -16.41339874 3.193650961
1.432389975 -8.08419323 2.164793968
2.8521626 -15.16975117 4.053209782
2.935394764 -15.5645752 4.696601868
2.998093605 -15.8550148 5.348472118
3.080765009 -16.65878677 3.231009722
1.400750995 -8.056302071 2.158947706
2.760674 -14.96884537 4.005892277
2.896476746 -15.63912582 4.714702606
2.943936348 -15.85768032 5.347095966
3.047112465 -16.78196335 3.249426365
1.376375556 -8.064950943 2.160122156
2.775443077 -15.31167984 4.082997799
2.882729769 -15.84657288 4.768228531
2.887965202 -15.85074902 5.34284687
1.15223372 -7.022660732 1.736214757
2.765008211 -15.53398132 4.132523537
3.730704784 -20.61494255 6.036075115
2.818169832 -15.77019024 5.31622839
1.136155009 -7.055770397 1.74110043
2.769408464 -15.84463787 4.202238083
3.721706867 -20.95293427 6.123833179
2.762627602 -15.76279926 5.31196022
1.106124043 -7.012965202 1.734233737
2.720718622 -15.8751936 4.207952499
3.648031235 -20.94845009 6.120471478
2.859707832 -16.59211159 5.562369347
1.091601729 -7.055685043 1.740625024
2.686572552 -15.98819447 4.232527733
3.560495138 -20.86561203 6.096333981
2.77579236 -16.44148445 5.514532566
1.0585109 -6.993188381 1.730731726
2.67814374 -16.25299835 4.291774273
3.770970345 -22.48436928 6.524590492
2.757036924 -16.65659523 5.5779953
2.632725954 -16.31211662 4.304082394
3.724382162 -22.66879845 6.571457863
2.675004005 -16.5110836 5.531852722
2.609139204 -16.50389481 4.346682549
4.242532253 -26.23246765 7.515958786
2.685299397 -16.90935707 5.651014805
2.556502342 -16.5262413 4.350655079
4.139020443 -26.15902328 7.49409914
2.267393589 -14.71598816 4.983034134
2.529652596 -16.71024704 4.39151907
4.227094173 -27.27718544 7.788627625
2.212351561 -14.68392563 4.971765518
1.18444407 -8.546250343 1.151013494
2.449058771 -16.55883789 4.355952263
4.436117172 -29.21809769 8.301356316
2.161470175 -14.66074371 4.963320255
2.4307127 -16.78853226 4.407328129
3.67067337 -24.85516548 7.141723156
2.689634085 -18.42481804 6.10387373
2.374871731 -16.79677391 4.408218384
3.531131506 -24.49831009 7.045141697
2.631027937 -18.45472527 6.111176968
2.38988924 -17.31105804 4.524340153
3.285888672 -23.42734528 6.759279251
2.177359819 -15.78527927 5.30011034
2.521289825 -18.65005875 4.828251362
3.1951859 -23.35799408 6.739204884
2.140354872 -15.90070152 5.333696842
2.467662334 -18.69875145 4.838413239
3.106010914 -23.26668739 6.713467598
2.104139328 -16.02742958 5.37073946
2.180158138 -17.08836746 3.876190186
2.436149359 -18.96078873 4.897068977
3.050144434 -23.44584465 6.759372711
2.028732777 -15.8712492 5.322113037
2.09548521 -16.90516281 3.840677738
2.383961916 -19.0796833 4.92317915
3.735552311 -29.30049324 8.308262825
1.995877743 -16.04931259 5.374723911
2.023854017 -16.81318283 3.822614431
2.339321375 -19.26423645 4.964261532
2.254099131 -18.54153061 5.457834721
1.968573689 -16.84766579 3.828710318
2.275626898 -19.30542183 4.972772121
2.179401159 -18.47268867 5.438495636
2.090924501 -17.73018646 5.880989075
1.90766573 -16.78960419 3.81723237
2.230248213 -19.41885757 4.997869492
2.106071949 -18.35865211 5.4073596
2.032768488 -17.72162056 5.877231121
1.865083814 -16.90925026 3.839649916
2.082731485 -18.72103882 4.838496208
2.043749332 -18.3580246 5.406242847
1.971954823 -17.71509171 5.874085426
2.01878953 -18.71640587 4.836780548
1.986474752 -18.40138435 5.416811466
1.905584931 -17.65886497 5.855966091
1.84953928 -17.75164413 4.616906643
1.928074241 -18.43686676 5.425344467
1.846555352 -17.66521072 5.856832504
1.777960539 -17.64145088 4.591322422
1.867400646 -18.4529171 5.428786278
2.894518375 -28.05673027 8.997637749
1.6820755 -17.28644943 4.510165691
1.82504046 -18.64769936 5.479535103
2.792383671 -28.00346565 8.980014801
1.617568254 -17.22218704 4.495116711
2.842372417 -29.52849388 8.355255127
2.690848589 -27.95173264 8.962952614
1.763058066 -19.35008049 4.978057384
2.344220638 -25.38685226 7.259469032
2.594100237 -27.94537926 8.959699631
1.393984795 -16.10579872 3.684654474
1.510527492 -17.31630707 4.515717506
2.258073092 -25.3946228 7.260686874
2.513283491 -28.11032295 9.008294106
1.393757224 -16.71331215 3.800271511
1.456625462 -17.36407661 4.526235104
1.408822656 -16.79421806 4.987211704
2.123287916 -24.80689812 8.009183884
1.438564181 -17.8373394 4.633415222
1.345199704 -16.70829201 4.964056969
2.35883379 -28.56352425 9.142962456
1.331408978 -17.25688934 4.50135088
1.288330317 -16.69730186 4.960750103
1.999314308 -25.36455345 8.175814629
1.272571445 -17.24378586 4.498164177
1.228695989 -16.64947701 4.947757721
1.389926791 -18.67912865 6.156095505
1.211817503 -17.20323563 4.488785744
2.478897095 -34.18131256 9.578649521
1.328733206 -18.70275307 6.162711143
1.145439386 -17.0788002 4.460402012
1.965279698 -28.60067558 8.104001999
1.272687435 -18.80067062 6.191816807
1.084009171 -17.01443481 4.445697308
1.913491011 -29.28436089 8.284194946
1.797678947 -27.50779152 8.820196152
1.030366778 -17.06469536 4.457054615
1.728188515 -27.95306778 7.93226099
1.492146015 -24.20553207 7.822760105
1.63081491 -28.00139046 7.94478941
1.409831882 -24.20649338 7.822683334
1.326340556 -24.31493187 6.971040249
1.496001244 -27.1647644 8.715390205
1.247471929 -24.30738068 6.968990326
1.252183914 -24.33758354 7.861751556
1.335188746 -27.72810936 7.872416496
1.206475019 -25.07975197 8.085639954
1.079468012 -24.24354935 6.952212811
-28.71345329 17.93481255 2.969016552
-28.32583618 17.72960091 3.994807482
-28.95631218 18.20906067 5.158960342
-28.98545837 18.28808975 6.268119335
-28.21931648 17.82349586 7.199014187
-25.05547333 15.70884514 7.381289005
-21.76172829 13.48550701 7.252281666
-21.84339714 13.58703804 8.133054733
-16.71891212 9.88852787 0.9623125792
-16.71884727 9.915398598 1.520368457
-28.25590706 17.81531143 3.990020514
-28.86342239 18.28275299 5.150323868
-29.40445328 18.71425438 6.36222744
-28.73478889 18.31358337 7.337919235
-24.99323463 15.78337383 7.375591755
-24.45558739 15.4568119 8.174403191
-21.16165352 13.2126255 7.886075974
-16.65992546 9.885290146 0.4046754241
-16.65615463 9.913041115 0.9606986046
-16.67094612 9.953604698 1.517849088
-16.70983696 9.966779709 2.080015421
-16.69870949 9.989793777 2.642641544
-16.71842766 10.03089619 3.214124441
-16.72113419 10.0640173 3.790455341
-16.71139145 10.088871 4.371995449
-16.71441269 10.11957359 4.965702057
-16.69595718 10.13922119 5.564103127
-16.71360397 10.18474293 6.187913418
-16.61699677 9.923037529 0.4033430219
-16.62959862 9.962218285 0.9586955905
-16.63767433 9.99839592 1.5158391
-16.65354347 9.995923042 2.076226473
-16.64897919 10.02355385 2.638570786
-16.65237808 10.05353451 3.206676245
-16.67136192 10.09813881 3.78484869
-16.65846443 10.12087154 4.364832878
-16.67430115 10.16073227 4.961379051
-16.66846466 10.1893568 5.563710213
-16.67345238 10.22621727 6.182906151
-16.59038544 9.97197628 0.4011287689
-16.6094265 10.01588726 0.9566109776
-16.6058445 10.04077721 1.513919711
-16.6250515 10.04418182 2.074503899
-16.63830376 10.08100796 2.63899231
-16.64802551 10.11908054 3.209126711
-16.644104 10.14791584 3.783850908
-16.66794205 10.19324684 4.372892857
-23.00536537 14.76284218 7.725055218
-21.35997772 13.63425827 8.00477314
-28.9816494 18.95569611 6.311493397
-29.00108719 19.03198242 7.450050354
-27.00508881 17.66496658 8.015501022
-23.15224075 14.96656704 7.787825584
-21.25670624 13.65547371 7.979219437
-29.12968636 19.01677322 3.00446558
-29.25507927 19.16719246 4.123898506
-28.83485985 18.92373085 5.176073551
-29.83224297 19.69759369 6.494772911
-28.64941406 18.91538048 7.374189854
-21.15919876 13.58944225 6.305801392
-23.04846954 14.99681187 7.766134262
-22.16585922 14.4087677 8.346697807
-45.02445602 30.4125061 0.6239063144
-36.25402069 24.2247963 3.534871101
-37.38303757 25.11074257 5.082881927
-37.85785675 25.52468872 6.636244297
-28.41807747 18.82044411 6.213954926
-28.61676407 19.02593803 7.377857685
-21.11651802 13.65306568 6.303534508
-23.0414238 15.09674549 7.777489185
-22.13881111 14.48976231 8.351588249
-45.32786179 30.84801865 0.6128101945
-44.47907257 30.33971977 2.381977081
-37.30497742 25.23411369 5.078426838
-37.79602051 25.66277504 6.634832859
-28.38430214 18.9290123 6.21600914
-28.48535347 19.06501961 7.356883526
-25.6296711 17.03930664 7.649712086
-44.84171677 30.72929764 0.6104915738
-44.38433838 30.48847008 2.375890732
-37.10719299 25.27074051 5.059894562
-37.71327209 25.79507446 6.630532265
-28.52536392 19.16550064 6.254140377
-28.55956841 19.25397682 7.387497425
-27.4389019 18.49472046 8.200212479
-36.93997955 25.56524277 12.57576752
-25.68357849 17.31553078 9.76790905
-55.92247391 39.0028038 0.4695592523
-37.05481339 25.42138672 5.058750629
-37.27449417 25.65730286 6.568207264
-28.70159531 19.43686676 6.300191879
-32.42271423 22.24785995 8.371499062
-27.35721016 18.56437874 8.190392494
-36.92206573 25.73446465 12.59388638
-26.50457191 18.05543137 10.10926628
-41.08311081 28.51106834 2.266907454
-37.76288605 26.1232357 5.147231102
-37.18854141 25.78538704 6.563395977
-30.02557182 20.55454826 6.583268166
-30.86634254 21.24808884 7.993621349
-30.94558525 21.37878609 9.274446487
-26.86481857 18.39599609 9.153184891
-25.40425491 17.35556602 9.697193146
-38.17179871 26.533741 3.68315649
-37.98062897 26.47941017 5.178232193
-37.08099747 25.88831711 6.554691792
-28.70778465 19.72240448 6.320823669
-31.19029045 21.64809036 8.089623451
-30.83839607 21.44902039 9.25937748
-24.30873871 16.59676361 8.287601471
-25.09753799 17.25076866 9.596522331
-41.07884979 28.92396736 2.260710001
-38.14953232 26.70500755 3.682664394
-37.86740112 26.58234024 5.169908047
-32.8899765 22.93013191 5.881653786
-28.55695724 19.74711227 6.299118519
-31.54223251 22.13295746 9.48691082
-24.24786568 16.66592026 8.282110214
-24.9494915 17.25815582 9.55711937
-38.18399048 26.91955948 3.686416149
-35.52681732 25.00835609 4.897500515
-36.75896072 26.01275826 6.519957542
-28.37481499 19.74716187 6.270885468
-34.59719086 24.5439949 8.980879784
-26.14216423 18.1698761 7.886096954
-24.24495125 16.7793808 8.296793938
-24.37033653 16.93333626 9.347286224
-55.24052811 39.91645432 0.4278747141
-41.28123856 29.48727798 2.260908604
-38.18392563 27.10939217 3.687609911
-38.12873459 27.15729332 5.211232185
-36.79444504 26.22322655 6.534674644
-37.24483109 26.65470314 8.127854347
-34.67970276 24.78012848 9.017712593
-26.04181862 18.21918106 7.870351315
-24.26593971 16.9118576 8.319940567
-24.56047821 17.19797325 9.441298485
-54.909935 39.94883728 0.4220741689
-32.50684738 23.00767136 1.988943219
-38.53245544 27.56556892 3.714838982
-33.99092484 24.18826675 4.724619865
-32.6550827 23.23658943 5.86690855
-33.04391098 23.61299324 7.264540195
-32.37034988 23.17284203 8.446174622
-27.75242043 19.66958046 8.39969635
-26.60565376 18.84615707 9.151251793
-22.81018639 15.95278645 8.765554428
-40.66897202 29.33672523 0.6024976969
-32.39157104 23.07958221 1.983045936
-38.36646652 27.63213158 3.703685999
-33.80862427 24.21739197 4.707612038
-36.768013 26.57312584 6.548493385
-31.92418861 22.98842239 8.3474617
-26.73402977 19.0125351 8.108243942
-26.29400063 18.73326683 9.060427666
-24.28596306 17.22149086 9.370401382
-40.62032318 29.5050602 0.5957223177
-38.42323685 27.86992073 3.709180355
-33.66584396 24.27601624 4.695307255
-36.57662582 26.6108532 6.526303768
-31.92349052 23.07074165 7.053400517
-31.98145866 23.19390106 8.377059937
-26.67086411 19.09476471 8.104372978
-26.70439339 19.1865654 9.222027779
-24.30243111 17.35346603 9.396172523
-32.21263504 23.26234436 1.972816229
-38.16359711 27.8632679 3.691043854
-33.5889473 24.38537979 4.690871239
-32.9573822 23.96360397 5.940795422
-31.864748 23.18545341 7.052569866
-31.99146461 23.36364746 8.394769669
-26.00152969 18.69754982 7.91693306
-26.8067894 19.40079689 9.276412964
-22.46991539 16.01321793 8.683054924
-30.74609947 22.20014191 0.7188060284
-32.0952034 23.33159256 1.966844916
-32.81551361 23.8680687 3.292364359
-33.75273132 24.68401909 4.715222359
-31.99435234 23.44943047 7.091411114
-32.18027878 23.67640495 8.45852375
-25.9333725 18.77234077 7.911286354
-27.99402809 20.48434258 9.712603569
-22.42468071 16.086689 8.682814598
-32.12511063 23.51681137 1.965326428
-32.75255966 23.98413086 3.288748503
-37.51780319 27.83714485 5.170611382
-36.07495117 26.78404808 6.472084522
-31.87246323 23.51532364 7.077495575
-31.92932701 23.6404705 8.409568787
-25.98780441 18.95194054 7.943767548
-27.94184494 20.59133148 9.715099335
-23.06509018 16.71445847 8.958049774
-30.47570992 22.30088615 0.71115309
-40.16400146 30.08714485 2.205048561
-37.59070587 28.00558853 3.652104855
-34.52541351 25.65358925 4.817825317
-36.0140419 26.92201424 6.471423626
-35.60853577 26.68731689 7.878673553
-31.83687019 23.73846436 8.402117729
-26.05347633 19.13553619 7.979152679
-34.04961395 25.6900425 11.89299679
-26.83374214 19.90406227 10.49525547
-30.51124573 22.49053192 0.7046894431
-43.93074417 33.31681061 2.315090895
-37.45243454 28.08979034 3.643054485
-34.61130142 25.9007473 4.833221436
-35.71485519 26.87755966 6.431862831
-31.69959259 23.71115112 7.065316677
-31.97644424 24.01647758 8.453867912
-28.41598892 21.27190208 9.924366951
-22.29201698 16.31571007 8.684818268
-30.42936134 22.56380081 0.7007549405
-37.51911163 28.36176682 2.119586945
-36.80115128 27.75011253 3.595500469
-35.29316711 26.6230545 4.920048237
-32.14625931 24.14934158 5.848823071
-32.76248169 24.73273277 7.301996708
-31.81937408 24.04621887 8.428367615
-27.77724457 20.80630875 8.537740707
-31.66152191 24.07493401 11.0950489
-26.59978867 19.97944069 10.44506931
-30.009655 22.38635063 0.7010281682
-30.45115662 22.81192017 1.905388951
-32.44197845 24.40270042 3.269972563
-31.96156311 24.09275627 4.524512291
-32.06105804 24.25498581 5.843624115
-32.56641388 24.74315643 7.272942543
-31.81282616 24.20727348 8.442682266
-27.87839317 21.04032516 8.586744308
-26.49679947 19.96788025 9.282417297
-22.17527962 16.43617439 8.673649788
-30.21810913 22.70995903 0.6921242476
-30.33986855 22.88522339 1.899568677
-32.33726501 24.49372673 3.263326406
-31.79805946 24.13301086 4.509870052
-35.2686615 27.0641613 6.385922432
-31.37460136 23.9378109 7.03255415
-32.72371674 25.13854027 8.696446419
-27.61965752 20.96977043 8.524436951
-27.32165337 20.79387093 9.596268654
-22.07304955 16.46793556 8.651738167
-30.10176468 22.76984406 0.6881045103
-36.9662056 28.50866318 2.093980312
-31.69394112 24.21312141 4.502149582
-35.18651581 27.18334961 6.381884575
-31.23810196 23.98925591 7.015686512
-32.83182907 25.40266037 8.741484642
-26.01616859 19.76998329 8.047034264
-21.88149261 16.3609581 7.671845436
-38.09705353 29.64499474 2.124449968
-30.71559143 23.48618698 3.143878937
-31.71509743 24.39728737 4.509583473
-31.25373077 24.08577919 5.734844208
-31.1847744 24.1097641 7.016599178
-27.78792572 21.33448029 7.441623688
-25.98457527 19.87856865 8.053606033
-21.64948082 16.27532196 7.604729652
-21.9817524 16.6147995 8.652247429
-37.13959503 28.96076012 0.563888073
-29.90001678 22.99059868 1.879328132
-30.65971756 23.60050583 3.140805483
-31.63460732 24.49742317 4.504775524
-31.2507267 24.25711632 5.743386745
-31.76584053 24.76625443 7.153454781
-27.33957672 21.10071945 7.338608265
-25.84538651 19.90287781 8.027770042
-21.59172249 16.34171295 7.600776672
-21.94873619 16.69921875 8.657828331
-36.94664764 28.99797058 0.5594611764
-36.31315613 28.56185341 2.065483093
-30.35503197 23.51367378 3.119091749
-31.28800583 24.38112068 4.467987537
-31.41739845 24.56497192 5.780032635
-31.70847321 24.89634895 7.15459013
-27.31332016 21.22984886 7.346629143
-25.6357193 19.85916328 7.979174614
-24.44642258 18.90620422 8.645197868
-22.19744682 17.03265762 8.780225754
-29.77889633 23.14092255 0.6690511703
-36.54275131 28.95316696 2.069179535
-30.26237869 23.59590149 3.113260508
-31.0574131 24.35198784 4.444963455
-31.34426117 24.67952728 5.777041912
-34.14148712 27.15188599 7.69083786
-32.57270432 25.89696693 8.743751526
-25.81977463 20.16018295 8.053929329
-21.76114273 16.71569061 7.695184231
-21.12633705 16.21728706 8.35886097
-29.66469193 23.20115662 0.6649397612
-30.5040493 23.97166061 3.13265872
-30.83191109 24.32542038 4.422527313
-31.23421097 24.75405121 5.767443657
-33.67773056 26.9479084 7.605750561
-21.63151741 16.60074806 5.878136635
-21.88393593 16.87703323 6.841598988
-21.74817276 16.8173008 7.707101822
-21.19798851 16.38947296 8.407244682
-30.59103012 24.20194244 3.140325308
-32.6256218 26.04000854 4.645890713
-31.78229523 25.3983326 5.868840694
-33.5735321 27.03334618 7.596646309
-21.57379913 16.66219521 5.87403059
-21.7020874 16.82606888 6.798026085
-21.49248314 16.70060349 7.630232811
-21.08668709 16.40196037 8.380241394
-25.57682037 19.97732544 0.7229250669
-36.58001709 29.58586502 2.06091857
-30.44478607 24.24039841 3.130497217
-32.34848785 25.97742271 4.617473125
-31.78333664 25.56443787 5.877805233
-33.69626617 27.3264637 7.637423515
-21.76642227 16.94348717 5.936249733
-21.46835899 16.73349571 6.738736629
-21.71780586 17.01248741 7.728922367
-21.05122757 16.48106194 8.384670258
-25.33821297 19.90441513 0.7218620777
-25.6060524 20.20512009 1.740022063
-31.36242294 25.20615196 3.200890064
-32.36136246 26.16639137 4.624424458
-26.32833099 21.02019501 6.053177357
-21.77658463 17.06647682 5.950402737
-21.37528801 16.76352119 6.72347784
-21.54924393 16.97706032 7.684513569
-20.75341415 16.32584 8.280040741
-25.48909569 20.23859406 1.734506726
-35.90991592 29.37318802 3.545243979
-31.53965759 25.62081146 4.529366016
-33.79404449 27.69377136 6.237593651
-26.12084007 20.97872734 6.019064903
-21.73338318 17.14276314 5.950491905
-21.36497116 16.86703682 6.734316349
-21.52479553 17.06949615 7.692675114
-20.74081802 16.42434502 8.293960571
-25.41324615 20.24642372 0.7098363042
-25.4006176 20.29667664 1.729813933
-30.77812767 25.03408051 3.159310102
-32.07592392 26.27179146 4.600396156
-34.52986526 28.54862022 6.373379707
-33.13600159 27.39194298 7.559002876
-21.68549347 17.21501541 5.949396133
-21.77094841 17.35165405 6.877640724
-23.7062912 19.16175461 8.5108881
-21.15511703 16.91051102 8.486658096
-25.29187965 20.27476692 0.7067166567
-25.32990646 20.37034798 1.725628018
-30.57785797 25.03451347 3.145506859
-32.36152267 26.70645332 4.640937328
-26.00481987 21.16689301 6.016438484
-25.75534248 21.00777245 7.049071789
-21.03713608 16.80294228 6.659716606
-23.60694885 19.20103264 8.493911743
-24.28174973 19.87988663 9.818377495
-25.39748192 20.49878311 0.6997221112
-25.26043701 20.44509506 1.721471906
-30.59443283 25.211092 3.147964716
-30.90089417 25.57343674 4.467068672
-26.0868454 21.37745285 6.045035839
-25.29197502 20.72856522 6.939454556
-20.94707298 16.82781601 6.644647121
-21.64387703 17.52560043 7.788885117
-24.35481071 20.08193779 9.872935295
-24.73596764 20.04706192 0.7063065767
-25.35383415 20.66714287 1.721944928
-25.44249725 20.72718048 2.759589911
-30.76461983 25.62394714 4.455685616
-26.16849709 21.59678078 6.074307919
-31.41942024 26.48373604 8.599827766
-21.16535568 17.14708328 6.729262829
-20.27957916 16.38452148 7.302497387
-20.58618164 16.72720146 8.307390213
-25.00770569 20.43515778 0.695633173
-24.77292633 20.28382492 1.703148723
-30.83062744 25.77855682 3.16849184
-31.7680912 26.72371483 4.585093498
-26.11959076 21.63047409 4.975452423
-26.40218925 21.96529579 6.137807369
-20.58581734 16.67274094 5.701638699
-20.6616478 16.80117798 6.583724022
-20.23278999 16.45628738 7.30273962
-20.66375542 16.91754341 8.36121273
-24.73880005 20.3263588 0.6953354478
-24.41019249 20.09393883 1.690617323
-30.7394352 25.87882614 3.162981272
-31.68224525 26.83578873 4.580460548
-24.9579258 20.7832222 5.831686497
-24.92586708 20.82607079 6.885706425
-20.54783058 16.80749321 6.561673641
-20.19133949 16.53319931 7.30505991
-20.60235214 16.97911453 8.356490135
-24.99456406 20.69824791 0.6849912405
-24.33583641 20.16002655 1.686364651
-24.96447182 20.72158241 2.726671219
-32.25936508 27.55327034 4.657581806
-25.14839935 21.10127068 5.884928703
-24.84921074 20.89504051 6.879571915
-20.43418121 16.81319809 6.539634705
-20.03152847 16.4931469 7.262511253
-20.50190926 16.99798965 8.334213257
-24.95914841 20.80423737 0.6801591516
-24.55106926 20.49558449 1.690226674
-30.25909615 25.78467369 3.129255295
-32.25663376 27.73829269 4.663154602
-24.75380325 20.80058289 4.764764786
-25.78582764 21.8427639 6.037512779
-24.76806068 20.95968056 6.872263908
-20.73796844 17.21317673 6.65199995
-20.0387516 16.61036301 7.282249928
-20.4264431 17.04009247 8.322566032
-24.13699913 20.17582512 0.6908872724
-24.23319435 20.33510399 1.679132342
-30.11101151 25.82084274 3.11936903
-32.05411148 27.73673439 4.643992901
-32.69149399 28.42535591 6.144176006
-25.1133213 21.35396957 5.89997673
-25.06799889 21.38615036 6.96869421
-24.33102989 20.75276947 7.827304363
-20.19043541 16.86660767 7.356333733
-20.37570381 17.10568619 8.321533203
-25.22920036 21.33817101 0.6635388136
-24.62628174 20.84247017 1.687868357
-30.19836617 26.07824135 3.127362251
-31.9199543 27.79843903 4.633309841
-32.63718796 28.56753349 6.145611763
-24.79898071 21.19852829 5.841580391
-23.84515762 20.36097527 6.650278568
-20.06757545 16.80105782 6.464945793
-20.36417389 17.14689827 7.439208031
-20.24092102 17.09007835 8.28452301
-25.05910492 21.3201828 0.6612479091
-24.29288864 20.66535759 1.676361799
-26.38469315 22.63321495 2.838952065
-26.14212608 22.48054504 3.919788122
-26.14534378 22.55443001 5.029934406
-24.60850334 21.15870476 5.81060791
-23.77163315 20.42739868 6.64464283
-19.99952698 16.84756279 6.457512379
-22.89725876 19.7193737 8.412020683
-20.16122055 17.12705421 8.271104813
-24.55945778 20.98655701 0.6657850742
-24.34869766 20.85032654 1.675765991
-26.32326889 22.72698212 2.835480213
-26.02890205 22.51591873 3.910279274
-24.51024628 21.13219452 4.754144669
-24.4029541 21.10270119 5.776176929
-24.10420799 20.88067627 6.749676228
-20.02766418 16.98752403 6.481430054
-20.1982193 17.2152462 7.412535667
-20.05427361 17.13126945 8.244897842
-24.73661995 21.29016304 0.6566857696
-24.59150314 21.22406387 1.68016839
-26.21924591 22.77227783 2.828714371
-25.94057846 22.58239555 3.904126883
-24.54650879 21.30962372 4.768519878
-24.29921532 21.13685989 5.763895512
-23.42800903 20.36115456 6.578734398
-19.98968506 17.05814743 6.483218193
-20.19374847 17.32035255 7.42806673
-20.08747292 17.27889252 8.280350685
-24.60503578 21.30558395 0.6536790133
-42.30651093 38.55639648 2.163181543
-29.79915237 26.39628983 3.10252142
-25.82921982 22.62628746 3.895105839
-24.44194603 21.3438282 4.758000374
-24.25260353 21.23362732 5.76503849
-24.006567 21.06728745 6.752845287
-20.02762413 17.20959854 6.510692596
-19.80180168 17.04811287 7.297379971
-21.45491028 18.75455666 8.895393372
-24.43996239 21.29468536 0.6511145234
-33.21780014 29.9389782 1.910871625
-25.65331268 22.52760696 2.788044214
-25.77901649 22.72961617 3.893757582
-24.68683624 21.73556328 4.809485912
-24.19151688 21.3164444 5.762989998
-23.99480057 21.19773483 6.764802933
-19.79799461 17.10216141 6.451311588
-19.67572212 17.04209518 7.268287659
-21.50749397 18.93351555 8.941646576
-33.1711998 30.10661697 1.906099796
-25.50712395 22.5430603 2.778175592
-25.74297523 22.85495377 3.894470692
-24.64798737 21.84351349 4.811055183
-24.31842041 21.59345627 5.804067135
-23.63982201 20.99375153 6.682542801
-19.56667328 16.98487663 6.390347958
-19.69572639 17.17622375 7.294075966
-21.39439583 18.95337486 8.917104721
-33.36747742 30.50562286 1.908043623
-25.45286751 22.64103317 2.775260925
-24.34392548 21.6184082 3.723424911
-26.2275238 23.56593895 5.097325802
-24.17784882 21.5983429 5.784237862
-21.90004158 19.38728142 6.214241982
-19.38163948 16.91179466 6.344397068
-20.08145332 17.68157768 7.460389614
-21.29527092 18.98036385 8.897459984
-32.7079277 30.05451775 1.886854649
-25.32183838 22.6627388 2.766492367
-24.28289223 21.70271301 3.720503569
-24.18930817 21.67823029 4.747210503
-23.98742867 21.55202103 5.753051758
-21.53342628 19.14657593 6.126159668
-19.7167778 17.36501694 6.470520496
-20.09733963 17.8163166 7.48549509
-21.26032257 19.07250404 8.906010628
-23.72823715 21.21483994 2.645946503
-23.8749752 21.4375248 3.673787355
-24.2262001 21.86888313 4.76261282
-23.45386696 21.15569115 5.643635273
-19.65920639 17.36539459 5.61630249
-20.21760941 17.99926949 6.653294563
-20.08392525 17.92805099 7.500500202
-21.52986717 19.4788208 9.048967361
-23.58920288 21.2237072 2.636539936
-23.83047295 21.54370117 3.673165083
-23.50516319 21.28162575 4.643465996
-23.6751709 21.53168869 5.706655979
-20.80694389 18.66537476 5.951309681
-20.36833572 18.27517509 6.719796181
-20.92410469 18.91714096 7.845164776
-21.38228798 19.46367645 9.00968647
-23.63998032 21.41789436 2.641602755
-23.89494514 21.75451469 3.686154842
-23.38279724 21.29932404 4.630101204
-23.24547577 21.23437119 5.620443344
-20.89238739 18.87889099 5.989027977
-20.83781815 18.88479042 6.893279076
-20.85193825 18.96931839 7.837763309
-23.79141617 21.71708298 2.654396534
-23.85687447 21.86170006 3.686201572
-21.62063408 19.62205696 4.324892044
-24.73058319 22.91766167 5.973371983
-20.75354195 18.86107635 5.963803768
-20.10281181 18.24392128 6.664207935
-20.75696182 18.99744606 7.821529388
-23.78265762 21.85398674 2.654942274
-23.85841179 22.0104599 3.691325426
-21.64609528 19.78017426 4.337173939
-20.39871597 18.54858208 4.989420891
-20.5012188 18.72318649 5.906425476
-20.19940376 18.46799278 6.713380337
-20.72044182 19.08683968 7.828128815
-23.76073837 21.97812653 2.654492378
-24.19675446 22.51201439 3.739457846
-21.81046677 20.08516502 4.374402046
-20.27319145 18.54084778 4.970972538
-20.04488564 18.36711311 5.790942669
-20.35081291 18.75247765 6.781413555
-20.6980648 19.191679 7.840408802
-23.83472824 22.20349503 2.661419392
-24.02524185 22.48346901 3.722664595
-21.63976288 20.04000473 4.351794243
-20.12487793 18.50803566 4.947206974
-20.01625633 18.45990181 5.796476364
-20.04072189 18.54776382 6.693869114
-20.24015617 18.83063698 7.681628227
-26.89266396 25.59912682 1.707656026
-23.83869553 22.35716248 2.662989855
-24.75151443 23.40421677 3.82078433
-24.82980537 23.5643177 4.933063507
-20.12020683 18.62713814 4.956700802
-19.92554283 18.48670578 5.784406185
-19.99778175 18.62636185 6.696493626
-20.23150253 18.94823456 7.699127674
-26.8557682 25.73305893 1.703776836
-24.15258026 22.84124565 2.688412666
-24.91557693 23.73736382 3.847208023
-22.81121635 21.56388474 4.578929424
-23.07474327 21.92564774 5.654888153
-19.95366096 18.64119911 5.806324005
-19.90423584 18.65049171 6.681997299
-20.12149429 18.95655441 7.676729679
-24.25218201 23.11955261 1.633849859
-24.10601234 22.94549942 2.686145544
-24.96895027 23.95528793 3.859548569
-23.38322449 22.32580376 4.690945625
-22.91559219 21.90179634 5.630480289
-19.99021339 18.8062191 5.830861568
-19.78437805 18.64546585 6.658509731
-20.16934395 19.13685989 7.716947079
-26.62092781 25.82950592 1.691836715
-24.0902195 23.08336258 2.686259508
-22.76366615 21.80444717 4.587837696
-22.75684547 21.87708092 5.606098652
-19.86815262 18.79930305 5.809976101
-19.76320076 18.74784851 6.668747902
-19.89283562 18.96151352 7.62834692
-26.97283936 26.38663483 1.697820783
-22.63981628 21.81648254 4.574239254
-20.53441811 19.58715057 5.097373962
-19.86909294 18.92692757 5.824534893
-19.68659782 18.789608 6.660092354
-19.85963058 19.05281448 7.636475086
-26.83664322 26.41675377 1.691315413
-22.53614616 21.84994507 4.564296722
-19.81433868 18.92365837 4.939360619
-19.83778954 19.01978302 5.829919338
-20.18432426 19.47040558 6.849378109
-20.95982933 20.41116142 8.099099159
-26.69710159 26.3458271 0.4831741452
-26.23670197 25.93551636 1.673125386
-22.57078934 22.03622627 4.579591274
-19.83203316 19.07078171 4.954623699
-19.89902878 19.21650505 5.862282753
-19.67324448 19.02924156 6.691213608
-20.98295021 20.57580948 8.131692886
-26.18681526 26.05629539 1.668855906
-22.36193085 21.95242119 4.550476074
-20.63688278 20.10114861 5.156355858
-20.0125885 19.47405243 5.910160065
-19.69792938 19.18579865 6.717926979
