# .PCD v0.7 - Point Cloud Data file format
VERSION 0.7
FIELDS x y z
SIZE 4 4 4
TYPE F F F
COUNT 1 1 1
WIDTH 1327
HEIGHT 1
VIEWPOINT 0 0 0 1 0 0 0
POINTS 1327
DATA ascii
3.901261568 2.678488731 1.278911352
4.658524513 3.375264883 1.5978719
4.399228096 3.14032197 1.766041517
4.096189499 2.863529205 1.899489641
3.839355946 2.629043818 2.02075696
19.49061012 16.83347511 0.4674796462
21.89352226 19.02808952 1.461571693
4.639098644 3.324264765 1.149884343
3.966662645 2.713166952 1.285857201
4.259943008 2.982101679 1.526513696
4.604187012 3.299264193 1.808726907
4.048345566 2.793723822 1.883328676
3.845766306 2.61042738 2.019201279
19.67407036 16.87530708 0.4669517577
22.06667137 19.04547691 1.466399908
4.230965137 2.924234152 1.117248416
4.216033936 2.915319204 1.516910553
3.930461884 2.65832901 1.656737566
4.552915096 3.224050045 2.016190767
3.948684216 2.679415226 2.048489809
19.898386 16.94598961 0.4659243822
22.22384262 19.04719734 1.470751405
4.694376469 3.313689709 1.152559876
4.207118988 2.880720139 1.51340878
3.919286728 2.623509884 1.651854634
3.974680424 2.676247597 1.857261419
4.253139973 2.928780794 2.141796827
19.88430214 16.81473541 0.468519479
22.36438179 19.03999901 1.47462976
4.793213367 3.373882532 1.159484148
4.158634663 2.809416533 1.306012988
4.058290005 2.722745419 1.485957742
4.379721165 3.011628628 1.750854731
3.986405134 2.663096189 1.85754478
4.048108101 2.720050812 2.073016405
20.20201874 16.97802925 0.4658169448
22.53853416 19.0546608 1.479532838
4.847665787 3.393741608 1.162951231
4.260266781 2.874894619 1.3174299
3.998114824 2.644093752 1.473782897
4.057516575 2.699713469 1.677670002
3.99430275 2.645301819 1.856667519
4.014020443 2.664591312 2.058579445
20.31688881 16.95363045 0.4665142596
22.72656631 19.08024216 1.484876752
4.838599682 3.355713606 1.161464572
4.028248787 2.645885229 1.477142811
4.086244106 2.699927807 1.681539297
4.216863632 2.816877842 1.913107038
4.00149107 2.628725052 2.051049471
11.9487009 9.525514603 0.6002444029
11.95908165 9.539278984 1.154304147
4.700024128 3.20481658 1.150006413
4.073374748 2.660568953 1.483056664
4.273919582 2.839072704 1.720081329
4.487864971 3.028290987 1.982146263
4.023892879 2.623770714 2.054578781
11.96538258 9.466731071 0.601459682
11.9682045 9.473930359 1.154381037
4.66753149 3.147846222 1.146766543
4.266302586 2.801445723 1.314317465
4.118652821 2.674978971 1.488977551
4.31961298 2.852658749 1.727536798
4.073769093 2.640750885 1.868969202
4.152014732 2.710681677 2.091303349
11.99998474 9.423614502 0.6023967862
11.99367905 9.422999382 1.154969811
4.645287514 3.100275278 1.144334912
4.378687859 2.872371435 1.326904058
4.350348473 2.84975934 1.526545048
4.268339157 2.782155037 1.713924408
4.188009739 2.716584921 2.098997593
12.0663662 9.407658577 0.6028504968
12.04478741 9.394097328 1.156353831
4.595463276 3.0295434 1.139806867
4.263179302 2.747026682 1.31143856
4.260876179 2.746850252 1.509519219
4.306538582 2.789110661 1.719764709
4.110059738 2.622538805 1.872736454
4.321574688 2.805915594 2.137138128
21.13323784 17.0273037 0.4666057527
23.55862045 19.10167313 1.508535385
4.595417023 3.00186801 1.139112234
4.272790432 2.729573727 1.311393976
4.244162083 2.708316088 1.504977584
4.159980297 2.638518095 1.685702562
4.150578022 2.632378817 1.880521417
4.255200386 2.72472024 2.113002539
21.1268158 16.90174103 0.4691440761
23.7153244 19.09284782 1.513015985
4.912674427 3.24200964 1.162652135
4.274097919 2.706418991 1.310403585
4.765815258 3.123594761 1.591153026
4.197218895 2.646404028 1.691524386
4.195093155 2.646504164 1.889476061
4.292933941 2.731276274 2.121174335
13.89736462 10.726717 0.5798019171
23.89370346 19.10115433 1.518176794
4.745754242 3.07440877 1.149250984
4.26218605 2.671039343 1.30775404
4.512258053 2.882626772 1.546532035
4.215517998 2.636851549 1.693147063
4.193811417 2.620540857 1.886259556
4.432065964 2.822752714 2.160737991
13.90864277 10.6538744 0.5813128352
24.05858803 19.09695053 1.522942662
4.686563492 2.995733261 1.144033194
4.297523499 2.675278902 1.310879469
4.375409603 2.743965387 1.724996209
4.37524271 2.745841026 1.930670738
4.383626461 2.756201267 2.142152548
21.59906387 16.91000938 0.4699808359
24.2299099 19.09692001 1.527922869
4.675462246 2.959030867 1.142527699
4.309004784 2.658264875 1.311043739
4.698889732 2.983841419 1.574097872
4.287649155 2.645686388 1.70389092
4.526777267 2.845641613 1.967221737
4.331781864 2.687550306 2.122635603
21.93958092 17.06895828 0.4674726427
24.37987137 19.07819748 1.532268643
4.65489769 2.914859772 1.140318394
4.403846264 2.712198496 1.32143867
4.666341782 2.929694176 1.566784739
4.280993462 2.616453171 1.700307727
4.711705685 2.972646236 2.012439728
4.52895546 2.824548483 2.179787397
21.88116455 16.89386559 0.4709403217
24.57030869 19.09148979 1.537868977
4.676775455 2.906988621 1.141366839
4.441067696 2.716961622 1.324770212
4.693431854 2.924701929 1.569454312
4.579045296 2.834853172 1.761446476
4.363580227 2.661067247 1.919075966
4.410676003 2.701666832 2.13994503
21.97115326 16.84002876 0.4722549021
24.73313713 19.08107758 1.542644858
4.703967571 2.901963711 1.14278841
4.431934357 2.683933258 1.322502732
4.415293694 2.67245245 1.521397591
4.556681633 2.790320635 1.754323959
4.363674164 2.635989189 1.916266203
4.397384167 2.665468693 2.132433891
22.27323151 16.95591736 0.4705631733
24.91490746 19.08478546 1.548017383
4.710944176 2.880542517 1.14268899
4.452121258 2.674705505 1.323785901
4.398283482 2.633443832 1.516874194
4.352956772 2.602343321 1.910697937
4.402077675 2.644057035 2.130467892
22.15863228 16.73733902 0.4748164713
25.10639572 19.09493065 1.553705573
4.730316162 2.869077682 1.143530369
4.951748371 3.047823429 1.382692099
4.477171421 2.671311617 1.528248668
4.434111595 2.640274048 1.723792195
4.518189907 2.709608793 1.950459719
4.426429749 2.638454914 2.134513617
19.74577332 14.70431519 0.5112044811
25.28884506 19.09654045 1.559136629
4.77628088 2.878587008 1.146373868
4.793726921 2.894557476 1.362491608
4.492637157 2.658164501 1.529115677
4.455615997 2.632176876 1.726096392
4.734895706 2.855989933 2.003260136
4.490413189 2.664186954 2.150588274
19.74191284 14.58964539 0.5135792494
20.76005173 15.39784145 1.420873761
4.797249317 2.868084431 1.147341251
4.808443546 2.879065275 1.363058925
4.757475853 2.841185808 1.571057677
4.467814445 2.616649151 1.72644937
4.777104855 2.862553596 2.011129379
4.617267609 2.738914251 2.185640335
19.76588821 14.49731827 0.5155625939
20.79148674 15.30567932 1.421755672
4.797739506 2.841514826 1.146779895
4.804276466 2.848812103 1.361379266
4.539088726 2.643882036 1.53342545
4.598098278 2.693457127 1.751571774
4.69107008 2.770817518 2.204516649
19.77522659 14.39400101 0.5177440643
20.87471962 15.2538681 1.424234152
4.813888073 2.827212572 1.147398472
4.78264761 2.805212259 1.357635736
4.554483414 2.630486965 1.534301162
4.63856411 2.699212313 1.757806301
4.737955093 2.77870822 1.995314002
4.696017265 2.748515606 2.20257616
19.78567696 14.29201603 0.5199058652
26.06895065 19.13621712 1.582595468
4.820498466 2.805542469 1.147311091
4.861763477 2.839532614 1.365901351
4.591228008 2.634768248 1.538760066
4.615047932 2.655338049 1.750675797
4.739766121 2.75382328 1.992928863
26.18552399 19.31574059 8.659662247
19.77075958 14.17661762 0.5222886801
26.26259232 19.13978577 1.588467002
4.857166767 2.806890249 1.149470925
4.880405903 2.828255892 1.367022872
4.683804035 2.680207729 1.552245021
4.61417675 2.630464554 1.74841702
4.731497765 2.72263813 1.988155484
19.03307915 13.68838024 6.495820999
19.81051445 14.09788704 0.5240485072
26.45656776 19.14225578 1.59436965
4.898028374 2.812502146 1.151971936
4.820361137 2.755863428 1.358769536
4.805181026 2.746637106 1.570376635
4.616940498 2.607220173 1.746829391
4.703407764 2.675298452 1.978264213
26.60598373 19.34763718 8.748173714
19.82598877 14.00102901 0.5261312723
26.64928436 19.14240074 1.600254893
4.883802891 2.77499032 1.150352716
4.790092468 2.706697226 1.354080081
4.849469185 2.75376153 1.575912714
4.651100159 2.607768059 1.751772285
4.721987247 2.663639784 1.980223656
26.78735733 19.33945274 8.783677101
19.87467957 13.92937374 0.5277763605
26.83750725 19.13787079 1.606024504
5.001900196 2.839057207 1.377992392
4.806531429 2.695257187 1.567289233
4.688476086 2.610488653 1.757373929
4.746815681 2.656600952 1.983767271
19.17507172 13.4832325 6.498112202
19.94882393 13.87660789 0.5290961266
27.05332947 19.15250969 1.612657309
4.883605957 2.721820831 1.149244547
5.000468254 2.810926199 1.376702666
4.928814411 2.760113478 1.585460424
4.748090744 2.629476309 1.76755631
4.781088829 2.656452656 1.989687324
5.624898434 3.287439585 2.458892107
23.48995209 16.37332344 0.4858969748
27.3643074 19.24293327 1.622210622
4.872068405 2.687012911 1.1478585
4.877095222 2.693059444 1.361089587
4.89455986 2.709638834 1.578363419
4.799957275 2.642228842 1.776114106
5.640140533 3.269994736 2.459789276
23.62139702 16.34962654 0.486769259
27.57637596 19.25119781 1.628773093
4.910303116 2.688864708 1.150159121
4.898562431 2.683955193 1.3625983
4.924641609 2.705465794 1.581599355
4.813164234 2.627505779 1.776812077
5.683721542 3.268815994 2.21043992
5.684271812 3.272236347 2.469061136
23.79967499 16.35278893 0.4872073829
27.77428055 19.24765015 1.6349262
4.931833267 2.679622412 1.151254773
5.110704899 2.812007427 1.38639915
4.9290905 2.6824615 1.580710888
4.898717403 2.664147377 1.792253375
5.696497917 3.247862101 2.21050787
20.38610077 13.96003532 6.80448246
23.88085747 16.28483582 0.4888927639
27.98546028 19.25232506 1.641507387
4.965310574 2.677588224 1.153208613
5.141326427 2.806993723 1.388894796
4.930221558 2.657150269 1.579306722
5.625843525 3.163660049 1.938944817
5.669480801 3.198151827 2.200679302
6.080086708 3.498365402 2.578127623
23.94233704 16.20256233 0.4908337891
28.07152748 19.1734581 1.64428544
4.993964672 2.671875477 1.154809952
5.197876453 2.820356846 1.394419074
5.627039909 3.134854555 1.93678689
5.721815586 3.205841064 2.21064949
5.781672001 3.253452539 2.486683369
24.04296112 16.1543541 0.4921647906
28.25053596 19.15297508 1.64993
6.371891022 3.629317045 1.53022635
6.122398853 3.454965591 1.766977668
5.603307724 3.089896679 1.929693222
5.821444511 3.248362541 2.232490301
5.919466019 3.321455002 2.523378372
28.42736244 19.11594963 0.4414907098
28.46079445 19.15336418 1.656552196
5.788085938 3.181025743 1.21208322
5.632846832 3.074310064 1.442943692
6.304294586 3.55147624 1.794119477
5.515591621 2.998598814 1.909512162
5.618111134 3.074069023 2.179070711
6.12288332 3.434643745 2.579140425
22.20591545 14.61929512 0.5197321773
28.66974831 19.15139961 1.663158894
5.833321095 3.182580233 1.214837551
5.600955963 3.022670269 1.438106775
5.617854595 3.041725397 1.927996397
5.651042461 3.068024158 2.184292078
6.144142628 3.417804003 2.581504345
22.23201752 14.52234364 0.5219074488
28.89217567 19.15734482 1.67020154
5.758963585 3.10069561 1.208845735
5.614541531 3.003133297 1.438570857
5.661126614 3.038416862 1.687987328
5.686488628 3.06049943 1.939611316
5.684000015 3.061794519 2.189518929
6.194072723 3.420904398 2.592237473
22.27255249 14.43559933 0.5239117742
29.11828423 19.16423035 1.677382231
5.741624832 3.059055328 1.207043409
5.637890816 2.990333319 1.440175056
5.643738747 2.997261524 1.683536053
5.6238904 2.987932205 1.924664378
5.676686287 3.027493238 2.184833288
6.212114811 3.401557207 2.593681097
22.3011837 14.34087181 0.526058197
29.34149551 19.16752815 1.684499741
5.717475891 3.01307559 1.204757333
5.684212208 2.993174076 1.444440246
5.634049892 2.966098547 1.924476027
5.706361294 3.01882267 2.189274073
6.23009634 3.382135868 2.595127821
22.38570404 14.28429222 0.5275560021
29.57664871 19.17738533 1.692008257
6.084395885 3.233269215 1.230983377
5.717448235 2.986783743 1.447193623
5.672250271 2.958975554 1.684737325
5.603365421 2.916469097 1.916081071
5.702037811 2.986795664 2.185383081
6.267298698 3.375797272 2.6021595
22.387146 14.1714716 0.5300220847
29.85698318 19.21600723 1.700925827
5.967988968 3.123838186 1.22197628
5.701204777 2.946789503 1.444250941
5.710233688 2.95585227 1.689103127
5.629600525 2.905785799 1.919177175
5.74138689 2.984517097 2.192213535
6.141885281 3.259059906 2.562203407
22.4978199 14.13216305 0.5312378407
5.872462749 3.029708624 1.214517355
5.759183407 2.956822872 1.449864388
5.713677406 2.929314852 1.688024402
5.695141315 2.921353579 1.930164456
5.740114212 2.954679012 2.189119577
5.86724472 3.043394089 2.47940731
22.70016479 14.15305138 0.5314381123
6.390088081 3.339237213 0.9832341671
5.879446507 3.004793644 1.214528203
5.775852203 2.938939571 1.450729132
5.599791527 2.824795246 1.668507576
5.714885235 2.905883551 1.931957841
5.763163567 2.941211939 2.191985846
5.84842968 3.001374006 2.470588923
6.361381531 3.261160135 0.4513902068
22.62729454 13.99128437 0.5347526073
6.40315485 3.31582427 0.9837218523
5.85966301 2.962292671 1.212606311
5.714370728 2.869440556 1.442644477
5.66561079 2.840247393 1.677294254
5.663835049 2.843527555 1.919612646
5.740420818 2.897339344 2.183725357
5.865069389 2.983159781 2.47201252
6.374227047 3.237841606 0.4520170391
6.359199524 3.251895428 0.7172381878
5.876401424 2.944030762 1.213343263
5.675792694 2.815692425 1.43721807
5.773066044 2.882461548 1.692591548
5.683339119 2.828121424 1.921406746
5.735467434 2.865505934 2.17983532
6.143311977 3.136907339 2.548437357
6.383627892 3.212319374 0.4528222084
6.361912251 3.22206831 0.7179056406
6.325037003 3.201421499 0.9815154076
5.889735222 2.92352438 1.213840723
5.681978703 2.791555166 1.436935425
5.752891064 2.840704441 1.687877655
5.671397209 2.792166948 1.916950226
5.741856098 2.84124589 2.178729296
6.269565582 3.188854456 2.58110857
6.400535583 3.213875532 0.7182176709
6.278775692 3.140373468 0.9801960588
6.252711773 3.126846313 1.239598036
5.747263432 2.804189444 1.443359852
5.757483006 2.815270185 1.68706429
5.753080368 2.8201828 2.178818226
6.270540237 3.15857172 2.577911139
6.352764606 3.158312321 0.9825647473
6.017091274 2.946913481 1.222129464
5.826513767 2.828083038 1.451465726
5.736287117 2.774801254 1.682321429
6.005617142 2.950716257 1.97919035
5.811413288 2.830807686 2.190428734
6.362303734 3.188317537 2.600796461
23.10589981 13.74067402 0.5419166684
6.437782288 3.181106329 0.9852840304
6.194923401 3.031838417 1.234531641
5.821973324 2.798096895 1.450025678
5.79248476 2.782471895 1.689584136
6.144684315 3.011369228 2.004724026
5.8424263 2.82215333 2.195303917
6.356658936 3.153616905 2.59574151
23.31940079 13.76216412 0.5421816111
6.370744705 3.107513905 0.9833387136
5.836456776 2.778852701 1.450714231
5.842093468 2.785563469 1.695813656
6.051443577 2.922510147 1.984146595
5.840321064 2.792375803 2.192217112
6.288410664 3.079470396 2.572957993
23.41116905 13.70611382 0.5437555313
34.95884323 20.93002319 1.862342238
6.33214283 3.057348013 1.243514061
5.952133656 2.822916985 1.462893128
5.86322403 2.77045989 1.697617769
5.887475491 2.790326357 1.949699163
5.960915089 2.839763403 2.218619347
6.0534091 2.901345968 2.503030539
23.46541214 13.62645054 0.5457306504
34.93950272 20.74900818 1.862415195
6.367918968 3.048934221 1.245643616
5.954869747 2.795855522 1.462254167
5.874217033 2.74897027 1.697859645
5.921964169 2.783360481 1.954493999
5.963795662 2.812783241 2.216738462
6.026844501 2.855579853 2.492346048
23.52279663 13.54868317 0.5476803184
34.93806076 20.57991028 1.863061905
6.264316082 2.954502821 1.237762094
5.989692688 2.788662434 1.465258956
5.923949242 2.751388073 1.704109192
5.926264763 2.757543802 1.953351974
5.978229523 2.793040037 2.217649698
6.043037891 2.836643219 2.493797779
24.17250061 13.83187008 0.5436602235
34.94099045 20.41418839 1.863866568
6.090289593 2.818174124 1.22484839
6.012648582 2.773999453 1.466926575
6.039727688 2.793869257 1.720556378
5.93214035 2.732768774 1.952541232
6.01932621 2.789637327 2.224946022
6.045911312 2.809502602 2.49151516
24.24944878 13.76296806 0.5454931855
32.26985168 18.63059044 1.782270074
6.203905582 2.85796833 1.232599139
6.023659229 2.751996756 1.467253685
6.059260845 2.776930571 1.722123384
5.976681232 2.731565237 1.959331632
6.033683777 2.769692421 2.22586441
6.020437717 2.765185833 2.481290579
24.27305412 13.66180134 0.5478647947
32.29998779 18.49527931 1.783901691
6.198118687 2.825001955 1.231787682
6.087465286 2.761781693 1.473540902
6.090639114 2.767059565 1.725524783
6.085464001 2.768812656 1.978691816
6.138570309 2.804387569 2.248343468
6.084599972 2.775409937 2.496299505
24.41481972 13.63124466 0.549081862
32.36047745 18.37842941 1.786492586
6.175032616 2.781897545 1.229747653
6.25396204 2.832405329 1.491379619
6.162869453 2.78142786 1.735212445
6.055788517 2.722284794 1.970950842
6.152984619 2.784013033 2.249274492
6.26397562 2.854235411 2.543577909
24.64104843 13.64970684 0.5495084524
34.93854141 19.74972725 1.866876841
6.218719482 2.778652668 1.232496619
6.273726463 2.814649105 1.492693186
6.115754128 2.729378462 1.98074162
6.098260403 2.722533703 2.233828545
6.372105122 2.889099836 2.57077837
24.77106857 13.61013985 0.5508982539
33.07699585 18.50186539 1.810116529
6.329593658 2.814564466 1.240052342
6.303738117 2.802855492 1.495165944
6.24226141 2.771674156 1.744642377
6.175837994 2.736100197 1.990542531
6.149533272 2.724189043 2.243551254
6.367702961 2.858141184 2.566626787
24.87783813 13.56213665 0.5523979664
33.0234108 18.31600571 1.809262872
6.339022636 2.790466309 1.240358591
6.338261604 2.795009851 1.498194814
6.299454689 2.775902987 1.752002716
6.201359272 2.723619699 1.993703723
6.2932868 2.781045437 2.275244951
34.89440918 19.54037094 10.51984978
25.06677055 13.55517673 0.5532802343
33.09534073 18.20371056 1.812313914
6.399567127 2.797428131 1.24433887
6.416518688 2.810786963 1.506080627
6.301846027 2.747980833 1.750979662
6.295731544 2.749511242 2.010148764
6.385583401 2.805371523 2.294592142
35.10229111 19.49902153 10.5612812
25.13617516 13.47855949 0.5553023815
33.93199158 18.52930832 1.839086652
6.472993851 2.809851408 1.249222279
6.46733427 2.810210466 1.510890841
6.323030472 2.730951786 1.752843976
6.404035091 2.782655239 2.029262304
6.680190086 2.945482016 2.361566782
6.537511826 2.867257118 2.604821444
29.93472862 16.08546257 0.5141321421
33.77521515 18.28346062 1.835113406
6.48064661 2.784305334 1.249419928
6.502655029 2.800456524 1.513970852
6.475087166 2.78842926 1.774668813
6.413286686 2.758385897 2.029160976
6.611731052 2.87555337 2.342941523
35.6686554 19.49861526 10.68594074
30.02694702 15.9995594 0.5164696574
34.01774216 18.26468086 1.843548536
6.693346977 2.87449789 1.264227271
6.584784031 2.816935539 1.522278666
6.52751112 2.7882967 1.78128159
6.5031147 2.779766798 2.044654369
6.583785057 2.829335928 2.333913565
35.9752655 19.50877571 10.75467014
26.9582634 14.14863777 0.5470288992
33.93246078 18.06106949 1.841833115
6.737785339 2.868688345 1.267048955
6.588656425 2.792695522 1.789218068
6.551895142 2.777384996 2.052197695
6.635877132 2.828492403 2.343705893
36.28237534 19.51703072 10.82345486
27.02638245 14.06319904 0.549274385
33.842659 17.85636139 1.839993477
6.722920418 2.829679251 1.265658736
6.606929779 2.769025326 1.523054957
6.601394653 2.769728184 1.789800048
6.571442127 2.758395195 2.054104567
6.66065836 2.812062025 2.347096682
36.60014725 19.5290966 10.89510632
27.14156723 14.00346279 0.5511196852
33.96559143 17.7700119 1.844791293
6.73059988 2.803331375 1.265881419
6.640535355 2.757512808 1.525966048
6.620998383 2.750544071 1.791437268
6.532245159 2.706883907 2.044719696
6.831151962 2.87610817 2.384563684
36.90821838 19.53352356 10.96399975
30.5989666 15.76348305 0.5242161155
37.05483627 19.30035591 1.942031622
6.757448196 2.78750062 1.267473936
6.703836441 2.7620368 1.532181382
6.671854019 2.748400211 1.797818303
6.62767601 2.729614019 2.061252832
37.16162109 19.48289299 9.461951256
37.20993042 19.53232574 11.03107262
30.68862152 15.67373466 0.5266691446
37.39403534 19.31647682 1.95371902
6.800065041 2.780081749 1.270192504
6.740996361 2.751934767 1.53549552
6.879603863 2.831041813 1.827924013
6.735470295 2.758311272 2.080130577
37.48628616 19.49203682 9.524621964
37.51888275 19.53298759 11.10007572
30.56294632 15.46834564 0.5309449434
37.71088409 19.31821823 1.96475172
6.988677502 2.850787163 1.283271313
6.739593029 2.72088623 1.534541488
7.033880711 2.883158684 1.849893212
6.833123207 2.780690193 2.097031355
37.76315689 19.47313118 9.576113701
37.82829285 19.53172684 11.16913509
30.73647118 15.42353535 0.532708168
38.02642822 19.31705093 1.975785851
6.989340782 2.819833517 1.283021092
6.810073376 2.72828269 1.541560411
6.95072794 2.807303905 1.836010814
6.924051285 2.798713684 2.112618446
38.11289978 19.49136734 9.644515991
38.17582321 19.54874992 11.24857998
30.83927536 15.34041882 0.5350828171
38.36011505 19.32323265 1.987430692
7.005757332 2.797312498 1.283896327
6.910604 2.751042604 1.551900864
6.960007191 2.781217098 1.836104274
6.933290005 2.772738934 2.112571239
38.43725967 19.4936161 9.706959724
38.51704407 19.55997086 11.32621002
28.73300171 14.10326004 0.5553313494
38.61990356 19.29703522 1.996743202
7.015028477 2.771018267 1.284273744
6.939087868 2.735260248 1.554273129
7.028234959 2.787657976 1.845148563
38.84840012 19.57217026 11.40184689
8.950723648 3.705795288 0.3650645316
28.83055115 14.03277111 0.5574011207
7.062539577 2.766165733 1.287379265
7.025197983 2.750835896 1.563052177
7.089548111 2.790021658 1.853147268
39.15557861 19.51242256 8.250760078
39.19400787 19.5896225 11.48130035
28.89236069 13.94353104 0.5597680807
39.73217392 19.54474449 2.034073353
7.133160114 2.772925615 1.292124391
21.24245834 10.0542078 3.130193233
7.061122894 2.745619535 1.847671032
39.49549103 19.52414894 8.306120872
39.53152466 19.60051727 11.5584631
28.88796997 13.82044697 0.5626591444
39.75504684 19.38153267 2.03614521
20.92570496 9.786614418 2.266910791
21.31207466 10.00106144 3.135720968
39.75663757 19.46055984 6.749149799
39.86045456 19.54644394 8.366209984
39.81928635 19.54974937 9.977692604
39.89204025 19.61226082 11.64103603
29.89953995 14.20478058 0.5578911901
40.07696915 19.3699894 2.047644854
21.23684883 9.857084274 2.288207054
40.09191132 19.45661926 6.792448044
40.20492554 19.53822708 8.421386719
40.17393875 19.55599022 10.04687023
40.25137329 19.62086105 11.72320461
29.90641785 14.07097626 0.5610987544
21.00567436 9.626840591 1.448809147
21.20458603 9.74346447 2.28518486
20.81988525 9.562516212 3.077091217
40.43114853 19.44352341 6.835990906
40.57449722 19.54019737 8.481301308
40.49415207 19.53351593 10.10743904
40.60953903 19.61750793 11.80421066
23.6277504 10.81941891 0.6112242341
20.91511154 9.485817909 1.446746349
21.06634521 9.577760696 2.274713993
20.90592003 9.510229111 3.084357262
40.81338501 19.44946671 6.885960579
40.94462204 19.54860306 8.541771889
40.89530563 19.54929352 10.18659306
40.97515869 19.61527061 11.88716793
23.6110878 10.70867538 0.6137940288
20.88837242 9.381912231 1.446665883
21.07575989 9.491024971 2.27473259
21.0114727 9.471680641 3.093895912
41.19444656 19.46093369 6.936082363
41.32234573 19.55817413 8.603647232
41.21811676 19.5321579 10.24831486
41.33776093 19.61783981 11.97000885
24.35440063 10.96884251 0.6108421683
20.94561386 9.319519043 1.449248314
21.05075836 9.387685776 2.272350073
21.18493462 9.465779305 3.11090374
41.73806763 19.54933929 7.010424614
41.69707489 19.5636425 8.664921761
41.72353363 19.62926102 12.05904007
24.3866787 10.87945366 0.6131279469
20.91448021 9.214203835 1.449052334
21.23545265 9.386480331 2.284780502
21.1759491 9.370188713 3.107928753
42.06702423 19.52943611 7.052734375
42.07763672 19.56933212 8.727269173
42.09938049 19.63313103 12.14531517
30.1241951 13.52186966 0.5751894712
21.10284805 9.219202995 1.455776095
21.20627785 9.281282425 2.282154799
21.79437447 9.576638222 3.173687458
42.29459 19.46753693 7.080296516
42.46585083 19.5760231 8.791026115
42.38271332 19.57152748 10.47881699
42.47571564 19.64372826 12.23240757
30.34168053 13.50257492 0.576628387
22.85136604 9.964874268 1.511980653
20.75318336 8.979331017 2.249717474
21.31850052 9.261187553 3.119763374
20.74951553 9.006882668 3.871710062
42.72120285 19.52563858 8.830210686
42.79558182 19.59718323 10.56157684
42.73163223 19.59405518 12.28702641
22.15590477 9.526568413 0.6357139945
21.3591404 9.164104462 1.465517521
20.95352173 8.989796638 2.263346672
21.17008591 9.104652405 3.101752996
20.78183174 8.933702469 3.873344898
43.19226456 19.57597351 8.909981728
43.17720795 19.59598923 10.63653755
43.20709991 19.63805771 12.39991283
22.29366875 9.49654007 0.6370642781
22.08056259 9.410163879 1.489296079
20.79237556 8.820876122 2.251492023
21.07484245 8.97004509 3.089521885
20.81387901 8.860424995 3.874985695
34.29266739 14.94058609 0.5597442985
22.15439987 9.346021652 1.492584348
20.86584282 8.766801834 2.256208658
21.12142944 8.897895813 3.092739344
33.34394455 14.36133671 0.5694734454
22.82419777 9.55941391 1.514835596
20.78501701 8.641531944 2.250091314
21.34872246 8.913203239 3.115786076
35.31311417 15.11394691 0.5602154732
21.3352375 8.791579247 1.468237519
20.79258728 8.557453156 2.250220776
21.31737328 8.809057236 3.110650778
34.86986542 14.77377319 0.5664660931
21.35974121 8.713006973 1.469920158
22.83050156 9.388743401 2.393159866
21.27120209 8.703214645 3.104029655
38.8791275 16.67805862 6.532363415
26.54953384 10.92217064 0.621951282
21.20684433 8.555410385 1.465942621
22.40873528 9.109548569 2.363138437
21.24437523 8.602223396 3.099475622
38.92691803 16.53687668 6.534093857
26.53026199 10.80282307 0.6247874498
21.15002823 8.441814423 1.46504128
21.60198212 8.658976555 2.306075096
21.41361046 8.588626862 3.116286755
21.71816444 8.73696804 3.990772009
35.34729767 14.54568672 0.5742937326
21.34176064 8.437722206 1.472118974
21.67707825 8.602052689 2.311038017
21.47913742 8.528351784 3.121841908
21.74404526 8.658081055 3.991720438
21.55572701 8.44194603 1.479939818
21.64402962 8.497814178 2.308425903
21.76350594 8.562978745 3.151194096
21.72966766 8.561709404 3.986788511
35.70425797 14.40584183 0.5794350505
22.14471817 8.605693817 1.49985373
21.81769753 8.483028412 2.320363283
21.98073769 8.566616058 3.173259735
38.93100357 15.89240932 6.514342308
36.00046158 14.3843689 0.5813817382
21.97162628 8.440796852 1.495287418
21.87216949 8.416309357 2.323949814
22.02069092 8.493096352 3.176107645
39.01970673 15.76996231 6.52253294
36.69148636 14.52689648 0.5811654925
22.2234726 8.461089134 1.504372478
21.88415337 8.331468582 2.324577093
22.02190781 8.403136253 3.174790621
39.11613083 15.65852737 6.532166004
26.99467087 10.3442049 0.6383353472
22.38506699 8.43741703 1.510628343
22.05048943 8.311299324 2.336069584
22.1992321 8.391674995 3.192662239
38.59911346 15.28156853 6.451614857
27.03745842 10.25147343 0.6408526301
22.46940231 8.385341644 1.514359593
22.28543472 8.322950363 2.352410078
22.35442162 8.365333557 3.208083391
38.66109467 15.15755367 6.456399441
38.0565567 14.64966488 0.5847256184
22.67179871 8.376591682 1.521987915
22.39949036 8.297327995 3.21167469
38.73275757 15.02959824 6.462451935
38.04756927 14.49128056 0.5886443257
58.41255188 22.76634026 2.682526588
40.90201187 15.70463848 3.65914464
38.36601639 14.69883633 4.937317848
39.36748123 15.13082314 6.551014423
38.08249283 14.35101414 0.5923333168
58.42034912 22.53270149 2.685631752
42.25561905 16.08300018 3.754003286
38.64866638 14.65720367 4.965684891
39.39864731 14.98396778 6.551233292
30.01459503 10.99827003 0.6367508769
58.49782181 22.32735825 2.69103694
39.18044281 14.68859673 3.538008213
38.92038345 14.60938549 4.992908001
39.23048782 14.75773907 6.522400379
30.01499367 10.87739849 0.6397974491
40.30060577 14.93883896 2.100937128
38.91862488 14.4275713 3.519560575
38.70168686 14.36631203 4.967206478
39.25660324 14.61009121 6.52207613
30.03913498 10.76609516 0.6427277923
40.420681 14.82357502 2.106890202
38.84512329 14.24252415 3.514377117
38.81356812 14.25453663 4.97728014
39.32830429 14.48049736 6.528492451
30.01807404 10.63753128 0.6458752751
40.86691284 14.83337021 2.123539448
39.02217484 14.15514565 3.526825905
39.58407211 14.39683628 5.058470249
39.41805649 14.35772419 6.537619591
30.02825356 10.5213604 0.6488725543
40.84296036 14.66084957 2.124862432
41.82602692 15.06987476 3.723716259
39.28359604 14.12373257 5.024153709
39.42786407 14.20402431 6.535166264
30.05484009 10.41158676 0.6517968178
40.95110703 14.53876209 2.13053751
41.80089569 14.89362907 3.722069263
39.54189301 14.06494141 5.050168037
39.54453278 14.09122372 6.548370838
30.04728508 10.28921604 0.6548757553
40.97569275 14.39322662 2.133392572
40.69271469 14.31309032 3.644433737
39.72011948 13.97451878 5.067597389
30.0466938 10.17573452 0.6577697992
52.2389183 18.39029312 2.506095409
32.44982529 11.10236263 3.065904617
32.96430969 11.32011318 4.338279724
30.05323219 10.05918026 0.6607852578
31.55003357 10.63110924 1.827105641
13.89181328 4.184882641 1.763026357
32.67383575 11.08319378 4.305633545
30.04614258 9.943883896 0.6637052894
13.95831203 4.145358086 1.248253345
13.89623165 4.131671429 1.763437033
13.98298454 4.174745083 2.292635918
30.05555153 9.828925133 0.6667077541
13.82520676 4.042788506 1.244617701
14.01417828 4.121994495 1.77183032
14.03415489 4.138093472 2.297606468
30.06076241 9.712672234 0.669728756
13.73678398 3.957214832 1.24245441
14.14711761 4.111323833 1.781306624
14.0739851 4.097157001 2.301377296
30.08623886 9.597859383 0.6728248
13.76953411 3.912162542 1.244346261
14.04764748 4.021052837 1.774467945
14.00754261 4.015973091 2.293717623
14.05501175 4.041744709 2.826595545
30.3987236 9.588087082 0.6747069359
13.76352406 3.856271982 1.244923472
13.84589863 3.896257162 1.760455966
13.96241951 3.945594549 2.288402796
14.01206017 3.971932888 2.819268703
45.41137695 14.59161949 0.6235455871
13.75540161 3.799835443 1.245436907
13.81147385 3.830499887 1.758213162
13.96026325 3.890449762 2.287730932
13.78142071 3.838027 2.784780264
45.73997116 14.52576542 0.626983285
13.7394743 3.740959883 1.245696545
13.78243256 3.766954899 1.756362915
13.85049152 3.798933506 2.275521517
13.77701664 3.78298378 2.783125639
45.42850113 14.25318146 0.6324400902
13.76421738 3.698586702 1.247280002
13.76177883 3.709237099 1.755105972
13.85452175 3.749263048 2.275582314
13.91433239 3.778430462 2.802068233
45.63115692 14.14410686 0.636359334
13.66624928 3.612929821 1.244808078
13.75194263 3.650058985 1.754645228
14.02724075 3.75296998 2.293758154
14.04316425 3.767452478 2.81974411
46.81179047 14.34345722 0.6374150515
13.69594479 3.567201138 1.246651173
13.66142273 3.567342758 1.748513341
14.25010872 3.769175529 2.31731391
14.21618271 3.76738596 2.84377718
33.41032791 9.850170135 0.6837865114
13.71140385 3.519407988 1.247986913
13.69581032 3.525840998 1.751180768
14.41946888 3.769156694 2.335157871
14.12662506 3.683581829 2.829905272
33.45527649 9.735958099 0.6870280504
13.69546318 3.46423912 1.248234391
13.75479031 3.492034912 1.755595088
14.42603111 3.715854883 2.335548878
14.29811382 3.687073231 2.853842735
14.52336311 3.663121223 0.7453349233
13.76890945 3.437478304 1.251497984
13.72541046 3.432634592 1.753792048
14.39746475 3.654271841 2.332207918
14.38479328 3.662505865 2.86553669
14.52695751 3.61140275 0.7467190027
13.8869791 3.421519041 1.256325722
13.71293259 3.37883544 1.753191113
13.90153313 3.446793795 2.278756618
13.53641224 3.341528416 2.742189407
38.24368286 10.833848 0.6838414669
13.80639553 3.343682528 1.254457831
13.68454838 3.315101385 1.751513839
13.78529549 3.357794285 2.266052961
13.57930756 3.303149462 2.747613907
38.2826004 10.69250393 0.6877988577
13.75676537 3.273362875 1.253678918
13.65707302 3.254586935 1.749898911
13.82156849 3.313717842 2.269719124
38.27300644 10.54398346 0.6916921735
13.66971302 3.194943666 1.251588345
13.841465 3.258074999 1.76323092
13.82078838 3.260936975 2.269444466
14.28949833 3.411625862 2.848556757
38.27819443 10.40018368 0.695548892
13.7080822 3.157020807 1.253715277
14.07004261 3.273377895 1.779702306
13.85032082 3.217294455 2.272441387
14.37564373 3.385842085 2.860295296
14.34966946 3.387818336 3.392459631
38.26937103 10.25982189 0.6992455125
13.96769524 3.180976152 1.263434768
14.134202 3.238895178 1.784602761
14.02408028 3.218537807 2.290927172
14.47200394 3.359813929 2.873491287
14.35219574 3.336988211 3.391746283
38.29270935 10.1218214 0.703063488
14.09127617 3.16382432 1.268552184
14.25124836 3.222020864 1.793233395
14.02483082 3.165763855 2.29087925
14.48084927 3.307719469 2.874098778
14.35526085 3.283682108 3.391105175
38.28092575 9.973937988 0.7069613338
14.2091341 3.144223928 1.273497224
14.2680645 3.170367956 1.79485023
14.03685665 3.116325617 2.292061806
14.48760223 3.255067825 2.874433994
38.32821655 9.835801125 0.710932374
14.29431438 3.114651203 1.277345777
14.35121632 3.140090942 1.80114758
14.29446507 3.133586168 2.319582462
38.44456482 9.731091499 0.714395225
14.44040012 3.104146957 1.283255816
14.40095425 3.102696419 1.805081844
14.37658787 3.105486631 2.328323364
16.91682625 3.716597319 0.757013917
14.63739395 3.103893518 1.290990829
14.44867611 3.064495325 1.808889866
16.75848961 3.709755182 2.583542347
16.95601463 3.663786411 0.7586596012
14.67824268 3.060112715 1.293379545
14.53357697 3.033397198 1.815367937
16.64372826 3.615890503 2.571219444
15.08790302 3.114304781 1.308514953
16.78217888 3.590789795 2.586058855
41.24200439 9.89526844 0.7255621552
15.22550297 3.094143867 1.314302444
15.12457466 3.077700615 1.858227611
16.80140114 3.53330493 2.58814621
15.23542118 3.040024996 1.315691113
16.43227959 3.360637188 1.951387644
16.86738396 3.48482728 2.59527421
16.57451057 3.335948229 1.962074161
16.63228989 3.28101325 1.366360903
16.36971664 3.225910664 1.948153496
17.12594795 3.428144693 2.623169184
43.43333054 9.831652641 0.7396594286
16.6447773 3.222500563 1.367964268
16.42067909 3.17796731 1.952407122
17.2056427 3.387788057 2.63183713
16.70754623 3.176291466 1.371334434
16.53864098 3.149196148 1.961403608
17.15654945 3.31215477 2.626733065
67.24260712 15.21862793 0.7270308733
17.88185883 3.396930695 1.413637877
16.712286 3.126982689 1.974447846
17.06653786 3.227091312 2.61726737
19.31011581 3.65264225 0.7722657919
17.59591293 3.260112286 1.404953957
16.95129967 3.122155666 1.992135286
17.03102303 3.152648449 2.613679647
19.31615257 3.582980633 0.7742243409
17.68034363 3.21503973 1.409196019
17.3206501 3.146133423 2.019127369
18.60049438 3.36098814 1.442902565
18.75784492 3.413171768 2.122142315
18.58983231 3.290383816 1.44389236
18.80961037 3.356122971 2.126674652
18.74209595 3.259539843 1.450585008
18.90015793 3.307449579 2.133993149
59.64289474 12.08288288 0.7702756524
18.80524635 3.204811811 1.454220057
18.90678406 3.239827394 2.135357618
18.88192177 3.152640581 1.45835495
18.95732117 3.185186386 2.139827728
19.03082466 3.115249872 1.465083003
19.17625427 3.162511587 2.156387091
19.6356945 3.171478033 1.488110542
19.35423279 3.129823208 2.170062304
19.68692017 3.110557079 1.491447568
58.23001862 10.75502682 2.873938084
59.3770256 11.03613281 5.03500843
27.95536804 4.593080521 1.791392922
58.99898148 10.7463665 5.011106014
108.9722137 20.04920769 0.8338526487
28.00173569 4.500853539 1.795250297
28.01615524 4.527957439 2.794686317
82.77203369 14.71273136 0.8312084079
27.87890434 4.376406193 1.793027997
27.84262848 4.393750668 2.783792496
108.6987915 19.21126556 0.8560114503
27.84897614 4.275254726 1.794048309
27.73716354 4.273601055 2.777791262
108.5326614 18.80870438 0.8664852977
27.73806953 4.159635544 1.792145371
28.06990051 4.239583492 2.803192139
28.44591904 4.166765213 0.8110498786
27.79676819 4.070258617 1.796506643
28.34379768 4.192842007 2.824426651
64.5712204 10.37165451 0.8474649787
27.77642822 3.966729879 1.798017621
28.45241737 4.104977608 2.834000349
27.77622986 3.861956358 1.800388098
28.16475296 3.953240633 2.815006971
100.044632 15.82865143 0.9014564157
27.86353111 3.776987076 1.805858374
28.01212692 3.826469421 2.805735826
27.90323639 3.683673382 1.80961585
27.82746696 3.695617437 2.794164181
27.99591255 3.598718405 1.815339208
28.04005432 3.630426884 2.811266422
28.59893799 3.598528862 1.839751363
28.34238815 3.583076 2.834815502
34.77181244 4.445770741 2.069781065
35.12569809 4.53110075 3.32707572
34.67853165 4.313907146 2.069135427
35.27721405 4.253529072 0.8492448926
34.73197174 4.198161125 2.074074984
34.76919937 4.079854488 2.078440666
34.81789017 3.962991714 2.083259583
37.74316406 4.211051464 0.8653034568
35.15533066 3.885239601 2.098875761
35.70264816 3.833044767 2.122417927
37.46708298 3.934167862 2.191688061
37.84845352 3.849296093 2.209337711
37.92812729 3.725016832 2.215717316
47.72061539 4.750860691 2.58872366
47.55122375 4.562725067 2.586630344
47.7283783 4.380509853 0.9207269549
47.35528183 4.372963428 2.583526373
47.36922073 4.207398415 2.588391066
47.33884811 4.037191391 2.591598749
47.31980133 3.868484259 2.59525919
65.11813354 4.710999489 1.016881585
65.16120911 4.485789299 1.023931026
101.4363708 4.285843849 1.252868295
78.14881134 -3.438779116 1.351463675
58.26194763 -2.951871157 3.250563622
78.12636566 -4.243174553 1.377274513
58.25454712 -3.338165522 3.263272524
58.24542236 -3.541300058 3.269794226
58.20309067 -3.946291208 3.281917095
109.9562378 -6.548276424 9.355824471
109.8670044 -6.457350254 13.22309017
109.8117294 -6.367245197 17.11946487
101.6142502 -6.651279926 1.600128651
100.3907013 -7.206642628 5.126430988
100.4294128 -7.560787201 5.140430927
100.470871 -7.915514469 5.154628754
100.4991226 -8.269781113 5.1683321
100.5659637 -8.627343178 5.183799267
36.09264374 -3.639745712 3.633131266
100.5737534 -8.980825424 5.196765423
36.02093887 -3.760651588 3.632354021
100.6462479 -9.419494629 1.685076356
100.6161423 -9.337508202 5.211328506
35.97413254 -3.889485359 3.633813858
35.23626328 -3.793854475 4.820471287
36.04881287 -3.831384897 6.197478771
100.6358109 -9.710345268 5.225610733
35.16068268 -3.945388317 3.574295998
35.22893143 -3.923073769 4.825124741
36.12984467 -3.971052647 6.215690136
77.1876297 -7.929309845 4.201410294
35.13904953 -4.073163033 3.57770586
34.95845795 -4.022645473 4.79937458
35.23565674 -4.018797398 6.087043285
77.47058868 -8.275484085 1.505523682
84.8061142 -8.906315804 4.548704147
35.14451981 -4.184855461 3.582568645
34.98706818 -4.142014027 4.807701111
36.13059998 -4.218536854 6.227259159
71.09214783 -7.862182617 3.949678898
35.19406891 -4.313305855 3.591475248
35.19861603 -4.285387039 4.837402821
36.07292938 -4.340009689 6.224547863
34.85735321 -4.189207077 7.297113419
43.00397491 -5.297984123 1.196214199
42.9737854 -5.253069401 2.704314709
35.12808228 -4.430566788 3.591215849
35.36804581 -4.426137447 4.862375259
42.97531128 -5.14146328 7.271724701
34.79798889 -4.305950642 7.292307854
77.37445831 -9.070601463 1.531453609
35.13904572 -4.555468559 3.597131968
35.34981918 -4.542549133 4.865528107
35.16803741 -4.495071411 6.099725723
34.80540466 -4.422989368 7.299741268
70.72102356 -8.617752075 1.475842237
37.60847473 -4.975034237 2.474859953
34.39299774 -4.593080997 3.542206049
34.65877151 -4.593518734 4.791285992
35.12126923 -4.613971233 6.098688602
34.70027924 -4.534506798 7.286504269
54.84258652 -7.079048634 1.327809572
35.49702835 -4.871667862 2.384819984
34.31750107 -4.712100506 3.541411877
34.72226334 -4.722736359 4.804163933
35.00135422 -4.724680901 6.08663559
35.10233688 -4.706440449 7.368731499
53.39719009 -7.114414692 1.320228577
35.18435287 -4.967198372 2.375656605
34.48592377 -4.852575302 3.559996605
34.59504318 -4.836928844 4.795306206
37.69848251 -5.158893108 6.501927853
34.74228668 -4.789924622 7.3078475
35.14994049 -5.087505341 2.3787992
34.62928391 -4.99748373 3.576910734
34.26295853 -4.920188427 4.762420177
33.65578461 -4.821209908 5.895126343
34.72900772 -4.917111397 7.312398434
62.87034988 -8.672604561 1.430083752
35.05562592 -5.200293064 2.37923789
34.73321915 -5.132615089 3.59047246
34.10947418 -5.028792858 4.750512123
33.64330673 -4.938643456 5.899291039
34.86439133 -5.055906773 7.344657898
36.94449997 -5.265647411 9.087725639
50.23011398 -7.27939558 1.306621909
35.06480408 -5.319399357 2.384154797
34.72464371 -5.248353958 3.594749928
34.08139801 -5.139945984 4.752634048
34.37112045 -5.141432762 6.015818596
34.91218948 -5.17882967 7.360221386
36.93090057 -5.387982845 9.092193604
49.40151978 -7.340610981 1.303690553
36.02781296 -5.568427563 2.432895899
34.16006088 -5.2926507 3.554033518
34.11207199 -5.258525848 4.761643887
34.33003616 -5.257884026 6.015892506
34.85536957 -5.295170784 7.356520176
36.91217804 -5.516234875 9.096008301
48.86019516 -7.452167988 1.304207683
36.846035 -5.811655045 2.475546598
34.43593216 -5.456332207 3.581905842
34.19195175 -5.39596653 4.77703619
34.50933456 -5.408994675 6.049948692
34.82463837 -5.420786858 7.358163357
36.96569443 -5.660285473 9.116612434
46.7238884 -7.340093136 1.287539363
36.68310928 -5.926721573 2.47337532
34.34560013 -5.572398186 3.580139399
34.2082634 -5.525535583 4.785091877
34.57037354 -5.545696259 6.066101074
33.90768433 -5.42197752 7.192139149
46.24564743 -7.438632488 1.288016081
37.09449768 -6.114944935 2.497408152
34.53018188 -5.720157146 3.600515604
35.12818909 -5.774631023 4.898669243
34.55730438 -5.66659832 6.0706954
34.86092758 -5.672734261 7.379460812
46.14333725 -7.588449001 1.292507529
36.86919785 -6.207921505 2.491891384
34.33524323 -5.815077782 3.590017319
34.52636337 -5.813877583 4.834268093
34.60538483 -5.790024281 6.084383965
34.89980316 -5.801981926 7.394179821
41.08424377 -6.994449615 1.241898537
36.81960297 -6.325355053 2.494485855
34.48022079 -5.952439785 3.607023716
34.67657089 -5.952457905 4.857681751
34.7039032 -5.921198845 6.105886936
35.48390198 -6.003809452 7.511953831
40.91350937 -7.107759953 1.244751096
43.07260132 -7.399944305 2.790413618
34.77842712 -6.113846302 3.636665106
34.85964203 -6.097083092 4.885061741
34.83229065 -6.063777447 6.132421494
40.5062027 -7.190602779 1.245153904
37.13194656 -6.636267185 2.519428492
34.40307999 -6.180324078 3.611432552
34.90369415 -6.228102684 4.896508694
35.19665527 -6.243176937 6.195336819
17.61558914 -3.557032585 4.133301258
36.046772 -6.303616047 8.959142685
40.3397789 -7.308971405 1.248222351
37.68381119 -6.856120586 2.550521135
34.31718826 -6.289683342 3.609927177
34.80789948 -6.337712765 4.891541958
35.4272995 -6.404574871 6.237904072
17.50823021 -3.606397629 4.116980553
40.05345154 -7.413985252 1.250126123
37.70690155 -7.001394749 2.557260036
33.04319 -6.213696957 3.510801077
34.64996719 -6.443063736 4.879581928
35.2793541 -6.513886452 6.222679615
17.53859138 -3.676821709 4.126881599
52.76174164 -9.194046974 12.77464294
52.68491745 -9.134955406 14.72644043
39.77873611 -7.518977642 1.252107859
38.25090027 -7.226359367 2.588288784
33.14120865 -6.354011059 3.524593353
35.11122513 -6.64870739 4.940868855
34.784729 -6.559594631 6.153634548
17.46828651 -3.728132725 4.117459297
52.29188919 -9.306999207 12.68087769
52.13846207 -9.235687256 14.59594822
39.6875267 -7.639057636 1.255708933
38.25514984 -7.357344627 2.593741179
33.17378235 -6.472308636 3.53249836
34.4371376 -6.655545712 4.867235661
34.96417236 -6.707690239 6.188220024
17.53604317 -3.798704386 4.134198189
51.22268295 -9.309163094 12.44992542
50.99772263 -9.226522446 14.30709362
39.49744415 -7.741505623 1.258122206
36.05579758 -7.109161854 2.494880676
33.64996719 -6.666938782 3.577227592
34.18246841 -6.729442596 4.843179226
35.32234955 -6.887411118 6.250588894
17.49111176 -3.850796938 4.129478455
50.25031662 -9.32045269 12.24067783
50.1668663 -9.26140976 14.10003948
36.04579163 -7.26692915 1.221265316
35.99549103 -7.221645355 2.497020721
35.91599655 -7.177690506 3.770812988
34.30345535 -6.867043972 4.863720894
34.12502289 -6.80082655 6.072282314
17.48476601 -3.909296036 4.132162094
17.80072594 -3.94477272 4.849101067
49.48898315 -9.316874504 13.93334389
36.06154251 -7.406015873 1.226181149
43.28368759 -8.672522545 2.850132465
38.22559738 -7.725588799 3.969441414
33.54943848 -6.862546444 4.78087616
18.03002548 -4.089897156 3.58402276
17.11127472 -3.909560919 4.064981461
17.5808506 -3.976570606 4.803970337
48.29774857 -9.304853439 13.63202095
38.41060638 -7.968122959 1.259559035
43.37202454 -8.844640732 2.860753775
33.52695084 -7.013587475 3.584336758
33.43417358 -6.962398052 4.773626328
18.0321064 -4.155130386 3.588252068
17.02626038 -3.958883524 4.052989483
17.27320862 -3.987951517 4.738476753
47.44955826 -9.327672958 13.42012024
38.25271988 -8.084043503 1.262663364
43.44005585 -9.01376152 2.870462179
17.85489273 -4.221125126 2.280080795
33.3624649 -7.075622559 4.771915913
17.82590103 -4.182135105 3.560127258
16.98226929 -4.012121201 4.048676968
17.38667107 -4.070764542 4.769073486
46.79409409 -9.379553795 13.25927353
37.60009384 -8.090566635 1.259056807
42.10224915 -8.916023254 2.812611818
17.95663071 -4.304857254 2.29169488
33.40581894 -7.198144436 4.783346176
16.65597725 -4.026918888 3.381847382
16.96186829 -4.066460133 4.048715115
17.22794914 -4.100800514 4.737151623
45.65951538 -9.33840847 12.97037506
34.30838776 -7.585393429 1.222117782
41.93653488 -9.036139488 2.810945988
17.97641182 -4.370332718 2.296330929
34.69599152 -7.566650391 4.944562912
16.61750221 -4.07971096 3.379566908
16.9773922 -4.13063097 4.055913448
17.23541641 -4.164360523 4.743577003
44.9821167 -9.375380516 12.8030901
34.29462433 -7.706982136 1.226289749
44.82590485 -9.758923531 2.957130432
18.08724785 -4.457190037 2.308812857
16.69179344 -4.168667793 2.790809393
16.62543678 -4.141331673 3.384555101
17.12579346 -4.220737457 4.088778496
17.28479576 -4.236134529 4.759693146
44.80087662 -9.502983093 12.76825047
34.32355118 -7.837253094 1.231022835
44.8493309 -9.926214218 2.965084553
18.04329872 -4.513945103 2.308311701
15.65351582 -4.022184372 2.669372082
16.62343979 -4.201138496 3.388032198
17.77307892 -4.410493374 4.218058586
17.22476387 -4.286849976 4.750718594
44.79396057 -9.663571358 12.78013611
34.32848358 -7.962990284 1.235464215
43.74289703 -9.86241436 2.918054581
18.12416649 -4.59592247 2.318361282
15.67152786 -4.082623959 2.674736977
16.59410095 -4.255489349 3.387263298
17.86823654 -4.494024754 4.241006851
17.33101463 -4.370505333 4.780073166
44.80353546 -9.827642441 12.79660797
34.2389946 -8.069161415 1.23867619
41.13551712 -9.477928162 2.79739213
18.07196426 -4.650975704 2.317201614
16.56652832 -4.31006813 3.386795044
15.78766823 -4.133060932 3.842986107
17.23999596 -4.414815903 4.764043808
44.81250381 -9.991888046 12.81309032
34.21959686 -8.189807892 1.242812037
34.06015778 -8.126904488 2.456973553
18.07353783 -4.720379353 2.320772171
16.46877098 -4.364169121 2.777554274
16.60068703 -4.377465725 3.396052361
15.8426981 -4.20478344 3.857995749
17.39845467 -4.513465881 4.805887222
17.16725349 -4.446570396 5.399911404
21.65171242 -5.662074566 0.3065231144
30.05706215 -7.418479443 1.191501975
33.6010437 -8.152089119 2.439698935
18.02096367 -4.774968147 2.319602013
15.77017307 -4.277646065 2.696614027
16.62490654 -4.443076611 3.403799772
15.87879562 -4.270102024 3.869198322
17.32804871 -4.561885834 4.794706821
21.16669083 -5.632929325 0.3194562793
29.80480576 -7.46727562 1.191768885
33.55975723 -8.265787125 2.442919731
18.11621475 -4.861591339 2.331031799
15.87902069 -4.35599947 2.712981939
16.64113998 -4.50723362 3.410339832
15.93828869 -4.337918758 3.884797812
17.38406563 -4.633888721 4.812556267
17.0521946 -4.546890736 5.380037308
20.77573967 -5.621711254 0.3302181065
29.61189461 -7.533187389 1.192989707
33.3932991 -8.3514328 2.439963341
17.99581528 -4.897788048 2.323941231
15.85502911 -4.408721924 2.713455439
16.66292 -4.572814941 3.417801142
15.93162346 -4.394638062 3.887810946
18.96747398 -5.043014526 5.184849262
17.50188065 -4.706838608 5.506910324
20.34615326 -5.598836899 0.3417460322
29.36819077 -7.586280346 1.193470478
38.43225861 -9.616376877 2.695382833
17.94783211 -4.956148624 2.323361874
15.85992432 -4.467863083 2.717463732
18.07513237 -4.950046062 3.645128489
15.85316277 -4.438305378 3.877093554
18.92501259 -5.106357574 5.181027412
16.3266468 -4.510981083 5.195454121
19.90141296 -5.569370747 0.3535160124
29.25383759 -7.673062325 1.195896268
37.92448807 -9.640407562 2.676212072
17.79548645 -4.987022877 2.313673019
15.78845215 -4.512570381 2.712366819
17.1721096 -4.810736179 3.506600857
15.8672142 -4.499547482 3.884215832
