# .PCD v0.7 - Point Cloud Data file format
VERSION 0.7
FIELDS x y z
SIZE 4 4 4
TYPE F F F
COUNT 1 1 1
WIDTH 1299
HEIGHT 1
VIEWPOINT 0 0 0 1 0 0 0
POINTS 1299
DATA ascii
12.96713352 -22.06427956 4.367719173
14.07969093 -23.84996223 5.635706425
13.05647659 -22.1455555 6.182222366
10.67933273 -18.25417709 5.946102619
10.56502914 -18.04445648 6.640573025
20.24292946 -34.55451584 0.9368153214
20.72347832 -35.13394165 2.334771872
19.18528366 -32.55304718 3.51466608
12.50412655 -21.46988869 4.261975765
12.50577736 -21.44573975 5.120760918
12.83651257 -21.96102142 6.125798225
12.20851612 -20.89560318 6.720860004
4.617576599 -8.453542709 3.36125946
19.79946709 -33.87997437 2.27847147
21.96787834 -37.44541931 3.933310509
12.4211483 -21.50354004 4.262268066
13.61607075 -23.45595741 5.536764622
12.30564117 -21.25826263 5.938519955
10.92738056 -18.94659996 6.132641792
10.44282913 -18.12238312 6.645450115
19.43696785 -33.49264145 3.590635061
17.94265938 -30.94885635 4.604567051
12.35637569 -21.56744194 4.267700672
12.80355358 -22.27894592 5.28178215
12.2430439 -21.31594467 5.944485664
10.88854027 -19.03281784 6.148408413
10.46719551 -18.29998589 6.695329189
19.98237228 -34.71744919 2.317085505
20.87477112 -36.1830864 3.819456816
17.30933189 -30.11992455 4.494652271
12.33593464 -21.6898613 4.283505917
12.6529932 -22.19640732 5.257394314
12.67764187 -22.20106125 6.159613132
11.76678562 -20.64397049 6.615257263
10.36050701 -18.26031494 6.671453953
19.72361565 -34.54725647 2.309772253
19.31348228 -33.80613708 3.612826347
17.21403313 -30.18041611 4.49798727
12.43064308 -22.01749802 4.333517075
11.85054493 -21.00588799 5.00093174
12.54203892 -22.14228439 6.135993958
12.82202816 -22.58700562 7.17792654
10.71405983 -18.99671364 6.910336494
20.41825867 -36.24103928 0.9612026215
19.64011574 -34.67453384 2.315923691
19.06579208 -33.64567947 3.596726179
17.52882004 -30.96792984 4.592921257
12.57810116 -22.44004822 4.399346352
11.81364536 -21.10471153 5.015114784
12.33810806 -21.97364998 6.084473133
12.75352955 -22.65363693 7.186206341
10.68618107 -19.09499931 6.932920456
21.74534225 -38.61206436 2.494579315
19.00322533 -33.81536865 3.608868361
18.58895111 -33.04408264 4.85079813
13.7326088 -24.61662865 4.758479595
11.73116875 -21.13405609 5.014467716
12.24429798 -21.9825592 6.078176498
11.55118084 -20.76231384 6.620078564
10.67286777 -19.22668648 6.966236115
31.19360161 -55.79312134 1.067662358
30.99727631 -55.09286118 3.241250277
19.24978256 -34.51307297 3.666359901
18.58902931 -33.30517197 4.878930092
13.1712141 -23.83182716 4.621734619
12.02016735 -21.80080223 5.147163391
12.14766026 -21.9859848 6.07059288
11.76889229 -21.30093956 6.768338203
10.46123409 -19.00918579 6.882507324
30.95080376 -55.81101608 1.072783232
21.79786873 -39.32069397 2.527589321
18.66313934 -33.75444031 3.599154949
18.57963753 -33.55282974 4.905349255
13.07699203 -23.85341454 4.620065689
11.74288273 -21.48516273 5.074891567
10.98149967 -20.11735344 5.594759464
11.03074741 -20.17740631 6.429656982
10.3935051 -19.03867149 6.8821311
30.81173706 -56.01290894 1.078845859
21.76447487 -39.57581329 2.539624929
20.62870026 -37.5116539 3.918255329
18.50047112 -33.69322205 4.918003559
11.98261833 -22.07736206 5.191699982
12.01271057 -22.10249901 6.082669735
10.9727993 -20.24105644 6.438624382
10.69668293 -19.72055626 7.100696087
21.19013405 -38.88034821 2.508622408
19.02431679 -34.95593262 3.697350502
17.62242699 -32.39377975 4.749763012
13.06063652 -24.21194458 4.669136524
11.94009304 -22.18443108 5.207145691
11.89308453 -22.06399727 6.064857006
11.49023342 -21.31954956 6.744161129
10.87673187 -20.20260429 7.251148701
21.78852081 -40.22596741 4.145102978
17.52964401 -32.49967575 4.758341789
13.28839207 -24.81426811 4.764127254
11.88441753 -22.26017952 5.216428757
11.78063583 -22.04573822 6.051802635
10.58360958 -19.87171745 6.312503338
3.804890633 -7.70949316 3.063610077
20.76298141 -38.98521805 0.9992879033
20.85308075 -38.89750671 2.510382891
21.00535583 -39.12701797 4.048834324
14.19567108 -26.69171906 4.025021076
12.88536739 -24.28139305 4.670382023
11.82361126 -22.32717514 5.223927021
12.70555496 -23.88544846 6.501569748
11.52359581 -21.71924973 6.841494083
3.752941847 -7.672263145 3.047481537
20.26469421 -38.3818512 0.9992551208
20.06962395 -37.77462006 2.459956884
18.72317696 -35.25789261 3.716573477
14.14527988 -26.81423759 4.036786079
12.72355556 -24.18017197 4.648523331
11.68405437 -22.25073624 5.201799393
12.91589642 -24.46062851 6.63574028
10.8392868 -20.64623451 6.520456314
3.732754946 -7.691952229 3.050403357
20.68950081 -39.48871231 1.008902192
21.04178619 -39.8842926 2.556164026
18.62090683 -35.35622025 3.722824335
17.24577904 -32.75835037 4.777741432
12.68051624 -24.2956028 4.662655354
11.60431862 -22.2825489 5.202138424
11.48322868 -22.02273941 6.02273941
10.75673008 -20.65987396 6.515516758
3.695928335 -7.681247711 3.04322958
20.00827599 -38.53291321 1.00671196
21.58568001 -41.17781448 4.216323376
17.78289223 -34.02671814 4.93210268
12.75675106 -24.63415146 4.713707924
11.58141327 -22.41975594 5.224263191
11.40703869 -22.05902672 6.023981571
10.32986641 -20.03533745 6.325938702
20.03726959 -38.90677643 1.012191415
20.6470871 -39.80054855 2.553430796
19.81235695 -38.18134689 3.958995581
14.27952099 -27.72555542 4.14011097
12.9043169 -25.11147499 4.787607193
11.59380054 -22.62477875 5.260341167
11.38417244 -22.19499588 6.049919128
10.23591137 -20.0214901 6.313506126
9.75501442 -19.098032 6.822844505
19.92865372 -39.02250671 1.016165853
19.60542679 -38.15162277 2.479097605
19.73669815 -38.35420609 3.971490383
14.17521954 -27.76699257 4.141550541
12.80547237 -25.12994194 4.785647869
11.48156166 -22.59708595 5.248523712
11.37686157 -22.37100983 6.085346222
10.16244507 -20.05348969 6.313995838
8.611345291 -17.10110855 6.152167797
19.89465141 -39.29946136 1.02128458
19.60914803 -38.49243546 2.4951334
18.07369423 -35.50579453 3.727231264
17.60681915 -34.5552597 4.984626293
13.63082886 -26.92256546 5.075881004
11.44993305 -22.73117065 5.26970911
11.2994957 -22.4068985 6.086589336
11.06411457 -21.93060875 6.846604347
9.604477882 -19.1311779 6.814713478
31.45620155 -62.13586044 1.165483117
20.01016617 -39.59005737 2.545548677
21.33853912 -42.10689545 4.2856493
17.47968102 -34.59867096 4.98568821
13.01043606 -25.95117188 4.910737514
12.23662853 -24.43099594 5.612251282
11.2138834 -22.42691803 6.083987713
9.803267479 -19.69394302 6.194147587
9.561484337 -19.20516968 6.829967022
31.30134773 -62.36104202 1.172075748
19.50193596 -38.93227005 2.516213179
18.93519211 -37.78108597 3.916341782
17.2215519 -34.38704681 4.95505476
13.5005455 -27.1187439 5.097694874
12.25132084 -24.66223526 5.653201103
11.12558746 -22.44139099 6.080095291
9.733487129 -19.7209301 6.193987846
9.632858276 -19.50065804 6.918260098
19.36895943 -39.00000381 2.51985383
19.11096573 -38.44574738 3.970655441
14.37766457 -29.11170387 4.294775009
12.83713245 -26.04630089 4.916430473
12.393507 -25.14614487 5.745775223
11.03174877 -22.4539547 6.075441837
10.23310757 -20.86682892 6.51445961
9.608442307 -19.61416054 6.946465015
20.9805088 -42.5471611 2.68179059
21.77254677 -44.06548691 4.444649696
16.91345596 -34.37594604 4.945098877
12.83469582 -26.27132797 4.948199749
12.29871178 -25.18064117 5.746057034
10.93116951 -22.44330788 6.065549374
9.852002144 -20.2906208 6.341196537
9.605278015 -19.77898407 6.991071224
37.71017456 -76.9345932 1.282626629
31.13668823 -63.24752808 3.624270678
18.52818108 -37.95512009 3.924966812
18.21247101 -37.26229858 5.299133778
12.87162209 -26.56697464 4.991755486
12.24164963 -25.27946663 5.759840965
10.84482765 -22.46016121 6.062473774
10.20649338 -21.16399574 6.583120346
9.54299736 -19.82070541 6.99568224
37.49755859 -77.17336273 1.290474653
30.91872406 -63.35564041 3.630146027
18.70843697 -38.64479446 3.981381655
16.68123436 -34.49814606 4.952103615
12.72603703 -26.49992371 4.975915432
13.04505253 -27.10787582 6.125979424
10.75850105 -22.47667503 6.059387684
9.803553581 -20.53527641 6.395390511
8.18873024 -17.2786808 6.153742313
18.89575768 -39.40771484 2.540765047
18.85420799 -39.2753067 4.032755852
18.00124168 -37.47729492 5.317031384
12.60208607 -26.4747715 4.967007637
13.1279459 -27.50766754 6.200599194
10.67133713 -22.4910965 6.055862904
11.13543892 -23.39981842 7.204632759
8.109643936 -17.26394844 6.14122057
20.37641335 -42.79423141 2.695610046
19.01760483 -39.95211792 4.088011742
18.49879074 -38.82240295 5.479147911
12.58006763 -26.6571064 4.992040157
11.87961578 -25.19179535 5.723277092
10.57387829 -22.48412514 6.047195911
9.884431839 -21.04982376 6.526426792
8.045149803 -17.27815247 6.138254166
5.432689667 -12.26487064 0.4255555868
19.51312447 -41.37814713 2.631755829
18.17873383 -38.56335068 3.968760729
17.94534302 -38.01681519 5.375173569
12.51813602 -26.75944328 5.004020691
12.89532471 -27.50435066 6.186527729
10.47234344 -22.46795082 6.036375523
9.916815758 -21.29654884 6.588776588
7.979820251 -17.29037476 6.134715557
5.763717651 -13.06604099 0.4017883837
20.14177704 -43.35751343 1.081312656
20.52426338 -43.85841751 2.745450258
18.00470543 -38.53827667 3.964800119
13.40437508 -28.87438965 4.241922855
12.30584145 -26.54945374 4.965149879
12.63656616 -27.20492363 6.119255066
10.33462143 -22.37563324 6.007139206
10.03927803 -21.73398972 6.705203533
7.915332317 -17.30407906 6.131732941
5.663508415 -12.96303463 0.406785816
19.98839188 -43.41665649 1.085121512
20.01488876 -43.17113113 2.714811563
18.46240616 -39.84408569 4.073162556
13.51524353 -29.36074257 4.298770428
12.14189529 -26.43659592 4.942216396
12.53652 -27.23265266 6.118442535
10.24812794 -22.38842773 6.003554821
9.98425293 -21.80711937 6.718038082
7.835121632 -17.28463554 6.118039131
5.335519791 -12.36827374 0.4271963537
20.15665627 -44.16594315 1.093802929
18.03945923 -39.29806137 4.025281429
18.07917976 -39.31708527 5.522884369
12.45546436 -27.33423424 5.08361578
12.38858223 -27.15859032 6.097110271
10.13496876 -22.34436035 5.986256599
9.904800415 -21.82933426 6.716485977
7.746105194 -17.24576378 6.098133564
5.290173054 -12.38049603 0.4285130799
19.68029976 -43.53146362 1.092679262
18.24927711 -40.10005188 4.091091156
12.20111752 -27.03133392 5.029845715
12.26799583 -27.14084244 6.087266922
10.11455822 -22.50674629 6.018728256
3.531282425 -8.434727669 2.918751001
3.245872021 -7.813208103 3.030205965
5.182040215 -12.24977303 0.4341903031
19.46818733 -43.46163177 1.095520139
19.39199829 -43.00938034 2.709568501
18.05024529 -40.02935028 4.083352566
17.8812561 -39.61463547 5.550913811
11.9985218 -26.84579659 4.995052814
12.19399738 -27.22254372 6.097570419
12.73501015 -28.35433769 7.426352024
3.455773115 -8.341493607 2.889647484
3.222305298 -7.826140881 3.031398535
5.128771782 -12.23229599 0.436228931
19.65723228 -44.27431107 1.10478282
20.00481415 -44.7220993 2.788450956
17.8577137 -39.97043991 4.076646328
18.23690033 -40.75014496 5.68638134
12.2789669 -27.68566513 5.126952171
11.8101635 -26.63000107 5.972045898
11.77893257 -26.5165863 6.974707127
3.408194065 -8.30355072 2.876381159
3.197880268 -7.837251663 3.032025337
5.081073761 -12.23189068 0.4378015399
19.10550308 -43.14199829 2.717026472
17.48337364 -39.48981476 4.034577847
18.67407036 -42.06637192 5.844080448
12.03523445 -27.39848709 5.075998306
11.70635605 -26.62941933 5.966311932
9.757144928 -22.31754875 5.954162121
3.396593571 -8.34704113 2.885988951
3.082113504 -7.645290852 2.967185736
5.066271305 -12.2998333 0.4371829927
19.12052917 -43.55145645 2.736430883
17.4111557 -39.69052505 4.049798489
18.56074142 -42.19996643 5.856208324
12.09960175 -27.77725983 5.133089542
11.69194603 -26.8384819 6.002506733
12.28083229 -28.09645653 7.340851307
3.339749575 -8.287570953 2.866744995
10.15091515 -23.31891251 8.023866653
4.97217083 -12.19939423 0.4418784082
20.17362595 -46.34608841 2.864964008
17.42490005 -40.10560226 4.082973003
18.62783241 -42.73997498 5.918210506
11.71941471 -27.19052887 5.033726215
11.95308304 -27.68029594 6.165465832
13.00330544 -29.98129082 7.786310196
3.343309641 -8.36862278 2.886821985
8.522957802 -19.91013145 6.915235043
4.945556164 -12.24600315 0.441975832
17.29811478 -40.18973923 4.088423252
13.14905357 -30.71493912 4.440571785
11.79661751 -27.61478996 5.097962856
11.91308403 -27.84396362 6.19237566
12.71984291 -29.61720467 7.690564156
3.4104774 -8.590886116 2.94665575
3.424586058 -8.612039566 3.269926548
4.909155846 -12.27054501 0.442743063
18.71764183 -43.87316513 2.753447294
17.77678299 -41.66263962 4.210521698
13.05330753 -30.7805233 4.445642948
11.81388092 -27.9093914 5.141220093
11.47671413 -27.10492516 6.038397789
13.17998791 -30.94007683 8.000184059
3.403572559 -8.637891769 3.275123835
4.83176899 -12.19938278 0.4463945925
18.48349953 -43.7436409 2.748294115
18.36554337 -43.41757965 4.356208801
12.98095608 -30.90052032 4.457401752
11.39188862 -27.19504547 5.021955967
11.39247417 -27.16264725 6.04430294
9.444676399 -22.63391304 5.999757767
7.148509026 -17.32843208 5.38904047
3.313441277 -8.505396843 3.229483843
4.772867203 -12.1701622 0.448754102
18.89431 -45.11977005 2.812079191
12.91730213 -31.04229927 4.471843719
11.27935696 -27.18718338 5.016636372
11.62790298 -27.96471214 6.199095726
9.455510139 -22.86925888 6.050219059
7.064578533 -17.29260635 5.373549938
3.317795038 -8.589034081 3.253312826
4.723508358 -12.16279411 0.4504396319
20.15119362 -48.88277817 1.167613864
21.08919144 -50.73731232 3.070190668
17.82496452 -42.97154617 4.31553793
18.00887108 -43.33192825 5.970060349
11.7736702 -28.60642433 5.240763664
11.54823208 -28.04109573 6.208669186
11.51827908 -27.92213821 7.253452301
6.97491312 -17.24214745 5.35406065
3.28088069 -8.577531815 3.246632576
4.633617878 -12.0573597 0.4550344646
20.01588058 -49.03033829 1.17233634
17.85401344 -43.37962341 5.97191906
11.8621788 -29.08844566 5.314014435
10.74480534 -26.40067291 5.875705719
11.40956402 -27.92950821 7.248038769
6.900010109 -17.22516632 5.344015598
3.288961649 -8.671867371 3.273864985
4.584064484 -12.04758358 0.4567508399
19.82294464 -48.67201996 2.977376461
18.55389214 -45.55844498 4.529186726
11.74424076 -29.08382797 5.309102535
10.63401985 -26.38697243 5.86775732
12.25911522 -30.22867584 7.789922714
6.832052708 -17.2239418 5.338441372
2.715744257 -7.3810215 2.858346939
4.458480358 -11.85058308 0.4639868438
18.09411049 -44.88512421 4.471205711
12.87701416 -32.14880371 4.595513821
11.84834003 -29.61640739 5.390359402
9.176002502 -23.11147499 5.210337639
11.24840069 -28.07833481 7.269451141
6.76121521 -17.21529198 5.330864429
2.689220905 -7.381515026 2.856071949
4.405338764 -11.82900143 0.4659990668
19.28936958 -48.68819046 1.180059195
18.0680294 -45.26177216 4.501205921
17.58468628 -43.99965668 6.035884857
11.60243893 -29.30208397 5.335889339
9.102451324 -23.15410042 5.214392185
11.10245228 -27.99425888 7.242476463
6.694941521 -17.21709824 5.326267242
2.674390316 -7.410294533 2.862846136
4.324579716 -11.74294567 0.4699510932
19.14400673 -48.80904007 1.184505224
17.08052444 -43.26055527 4.332231522
20.82048988 -52.44493484 7.059801579
11.65632915 -29.72185326 5.399027824
9.031664848 -23.2037735 5.219891071
12.29924011 -31.2326088 8.006000519
6.631653309 -17.22581673 5.323655605
4.308359623 -11.81823826 0.4691618681
33.20123291 -84.87817383 1.489651084
17.02681732 -43.57827377 4.357329845
20.59687424 -52.43571091 7.054010391
11.79050541 -30.36477089 5.497576714
8.963301659 -23.27120972 5.228741169
11.20980263 -28.8410511 7.42953825
6.567671299 -17.24082756 5.322600842
3.136580229 -8.694285393 3.266451836
4.251373291 -11.78479576 0.4714710414
19.09620285 -49.34013748 3.012764454
16.97026825 -43.89429474 4.382301807
20.37071037 -52.41815186 7.047286987
11.56034374 -30.10038948 5.451092243
8.901790619 -23.35673904 5.241215706
11.06900597 -28.77263451 7.40643692
6.51154232 -17.27538872 5.327027321
2.492429495 -7.160577774 2.776211262
4.215575218 -11.80516815 0.4722045064
18.60433578 -48.57988358 2.978784323
17.6056118 -45.96450806 4.553973198
20.21913147 -52.56268311 7.060540199
11.48315048 -30.20482445 5.463799
10.5514431 -27.79265976 6.115960598
9.604154587 -25.33380699 6.583854675
5.990670681 -16.1210289 5.002476215
2.478800297 -7.190571308 2.78352809
4.179692268 -11.82542324 0.4729351997
19.51888084 -51.44412231 3.111429214
17.53564072 -46.22888947 4.57474184
19.95483017 -52.41768646 7.038709164
11.37603664 -30.23346138 5.464448929
10.27649784 -27.35063553 6.023703098
9.509010315 -25.34327698 6.580263615
5.914573669 -16.08392334 4.987757206
2.475169897 -7.243347645 2.798184872
4.135710239 -11.81866074 0.4743697643
19.36244965 -51.53830719 3.116729021
17.74843025 -47.25980377 4.659481525
19.78282166 -52.50901794 7.045628548
12.6385088 -33.81288528 6.031064987
10.338871 -27.78998184 6.105751991
9.428053856 -25.37625885 6.58260107
5.861690521 -16.09786606 4.987443924
2.427933931 -7.187452316 2.778306007
4.094122887 -11.82367516 0.4755210876
17.99882698 -48.46955109 2.976541519
17.56778908 -47.27281189 4.659207821
19.71539116 -52.84904099 7.082946301
12.48228741 -33.74931335 6.016674042
11.6208868 -31.44319534 6.822798252
7.898598671 -21.62235641 5.688934803
5.807483196 -16.11624908 4.988186359
2.424945116 -7.245970249 2.794690847
4.059508801 -11.84727573 0.476133734
19.302742 -52.88178635 1.244039178
18.79797363 -51.11060333 3.099105358
17.49645424 -47.57638168 4.68321991
19.56689644 -53.00655365 7.097970963
9.779809952 -26.87816811 5.916081429
8.141366005 -22.48644257 5.888379574
5.762128353 -16.15798569 4.995418549
2.377473831 -7.187936306 2.774229288
4.024085522 -11.86889267 0.4767974615
19.15917587 -53.05204391 1.249117851
18.52387238 -50.90972137 3.090890884
17.25336075 -47.42199326 4.669040203
19.43966293 -53.22328186 7.120207787
12.05852127 -33.31606674 5.939479828
9.643933296 -26.79213333 5.894547939
5.944801807 -16.83191872 4.548513412
5.723316193 -16.21774101 5.007648468
2.352620363 -7.188929081 2.772469521
3.983923674 -11.88357162 0.4777144492
18.39027977 -51.08652115 3.100080252
17.05895042 -47.39563751 4.665583134
11.9325037 -33.3243103 5.93677187
9.525114059 -26.74975586 5.881714821
5.863661289 -16.79297638 4.535597801
5.244516373 -15.09587002 4.694452763
2.341771603 -7.227595806 2.782618523
3.918608427 -11.82214451 0.4806995392
18.62331963 -52.73598099 1.253558397
18.7355957 -52.61502457 3.171654463
17.2334671 -48.40983963 4.748865128
12.92097092 -36.41246414 6.422670364
9.412266731 -26.73622513 5.87442112
5.790368557 -16.7654953 4.525628567
2.697650194 -8.282597542 2.817112446
2.288691759 -7.155004025 2.75761652
3.862576962 -11.79121494 0.4828679562
18.73411942 -53.18032074 3.19882369
16.77764702 -47.66252136 4.685359001
18.44457054 -52.24397278 6.989913464
10.77741241 -30.84735298 5.535962105
9.304191589 -26.72059631 5.867007256
5.728469372 -16.77726173 4.524789333
2.671017408 -8.294167519 2.818228722
2.266644478 -7.162873268 2.7581141
3.771650553 -11.65370941 0.487927258
18.39319611 -53.26972198 1.26558125
18.17526627 -52.21260834 3.155341864
16.62511063 -47.77800369 4.693766594
18.26863861 -52.31900406 6.995316029
8.245142937 -24.07848167 4.459764957
8.862520218 -25.78170395 5.677973747
5.679204941 -16.81538773 4.530368328
2.638477325 -8.285123825 2.81380868
2.273837805 -7.255914688 2.785315514
3.770261526 -11.77702904 0.4857652783
18.88091469 -55.26434326 1.287413597
18.06327438 -52.46794891 3.168236017
16.76986122 -48.71610641 4.770790577
11.62566185 -34.00738907 4.782076359
8.145445824 -24.05471611 4.45331049
8.760748863 -25.77147484 5.671912193
5.633435726 -16.87275887 4.540334225
2.593117476 -8.243535042 2.800401926
2.288546562 -7.368583679 2.818749666
3.717362165 -11.7403059 0.4879247248
5.699251652 -17.4980011 0.9412859082
17.16700172 -50.40172195 4.910060406
11.55392933 -34.15634155 4.797882557
8.065534592 -24.08657646 4.455706596
8.687620163 -25.84255028 5.681869507
5.176681519 -15.73528767 4.270135403
4.962735653 -15.10300732 4.677600384
2.242944002 -7.311287403 2.798808336
3.670569658 -11.72671413 0.4894893467
5.607862949 -17.41930389 0.9416462779
16.98662758 -50.4404068 4.912165642
10.83117867 -32.43159485 4.587766171
8.000919342 -24.16306305 4.465193272
5.676143646 -17.38290977 4.019168377
5.107316971 -15.70328426 4.259597301
4.926649094 -15.16034222 4.689722538
2.221601009 -7.322618961 2.800442934
3.606134653 -11.6598444 0.4925020635
5.526639462 -17.36861038 0.9422530532
17.2219429 -51.7681694 3.139271498
16.78829193 -50.42555237 4.909849644
11.0728159 -33.50577927 4.715082645
5.585926533 -17.30754852 4.001839638
5.056522846 -15.72457123 4.261606693
2.53993082 -8.337389946 2.820623398
2.200212002 -7.33387804 2.802075863
3.567353725 -11.66857624 0.4934250116
5.431991577 -17.27579117 0.9424484968
5.494294167 -17.31832504 1.546933413
5.46271801 -17.20362282 2.144173622
12.37454891 -37.76182938 5.225385189
8.397892952 -25.88479996 4.731925011
5.515761852 -17.28953362 3.995800734
5.014383793 -15.77158642 4.269677162
2.505080938 -8.320443153 2.814178944
2.191049814 -7.381398201 2.815075397
3.541005373 -11.71516895 0.4933093488
5.349890232 -17.21862221 0.9429652691
5.413690567 -17.26717377 1.544934273
5.371181488 -17.118433 2.136754274
12.25541306 -37.8347702 5.231824398
7.883660793 -24.62988472 4.531261444
4.978143215 -15.83701324 4.282081127
2.47651124 -8.321709633 2.812740564
2.197386742 -7.476214886 2.842860699
3.503905058 -11.72937107 0.4940719903
5.280591011 -17.1991291 0.9438297153
5.33660841 -17.22515869 1.543358803
5.304504395 -17.1067009 2.135460138
11.30863285 -35.38479996 4.934869766
8.218801498 -25.93119812 4.733948231
5.10085392 -16.41577911 3.820106506
4.949451923 -15.92647171 4.300123215
2.450992584 -8.332064629 2.813806057
2.18022418 -7.501966953 2.849047184
3.434474468 -11.64251614 0.4975567758
5.213323116 -17.18506622 0.9447379708
5.259893894 -17.18280792 1.541768432
5.237976074 -17.09470177 2.134155989
5.261567593 -17.13747597 2.739262819
5.373457909 -17.46154976 3.396832466
5.034216881 -16.39595604 3.813971043
4.947993755 -16.10131073 4.338119984
2.445236683 -8.403075218 2.831419945
2.153386831 -7.498515606 2.846133471
3.387317657 -11.63024998 0.4990627766
5.149225235 -17.18026924 0.9457286596
5.190823078 -17.16296005 1.541222095
5.172203064 -17.08433723 2.13299942
5.180640221 -17.09032059 2.732581615
5.214521885 -17.16555595 3.348545074
4.975587845 -16.4002018 3.81257534
4.917562008 -16.19911194 4.357972622
2.405046463 -8.373196602 2.821475983
2.133666515 -7.516854763 2.85004282
3.33918786 -11.60765648 0.5007770658
5.081200123 -17.17228889 0.9467328787
5.125132084 -17.16277695 1.541608214
5.104330063 -17.07649994 2.132051229
5.114936352 -17.07979774 2.730374098
5.044176579 -16.8355999 3.294924021
4.922594547 -16.43131638 3.816347837
6.972395897 -22.85521507 5.907493591
2.418644428 -8.506917 2.856158495
2.211003304 -7.844249725 2.950153351
3.293606043 -11.59250259 0.5022786856
5.023803234 -17.18799591 0.9479117393
5.064127445 -17.1671772 1.542191029
5.045353413 -17.08654213 2.132615089
5.048177242 -17.0652256 2.727701902
4.978840351 -16.82279587 3.291354418
4.872750282 -16.46328926 3.820424795
9.673043251 -31.73304558 7.972404003
2.383164644 -8.487523079 2.849193811
3.246424675 -11.57142258 0.5039253235
4.971528053 -17.21029091 0.9491012096
5.00316143 -17.17134476 1.542766094
4.994475842 -17.11265182 2.134537935
4.966361523 -17.00101852 2.719096422
4.918900967 -16.82674408 3.290448189
4.837111473 -16.53182983 3.831757784
4.943831444 -16.85537148 4.502509117
2.347854376 -8.467973709 2.842221975
2.115443707 -7.705176353 2.903330803
3.202442408 -11.55341339 0.5054234862
4.915733337 -17.23136139 0.9503266811
4.950880527 -17.19354248 1.544162154
4.938319206 -17.13183403 2.135882378
4.894322395 -16.96685028 2.714120626
4.856590271 -16.81260109 3.286802292
4.901763439 -16.93960571 3.9090271
4.862526417 -16.78006363 4.482336521
2.335039377 -8.516355515 2.853798866
2.028425217 -7.507165909 2.840047598
3.167572975 -11.57219887 0.5059915185
4.864411831 -17.26757622 0.9517008066
4.898520947 -17.22599792 1.54605782
4.883251667 -17.15463448 2.137538195
4.831682205 -16.95246887 2.711582422
4.79565239 -16.81230164 3.285285473
4.848845005 -16.96778297 3.912392855
4.800476074 -16.77623177 4.478715897
2.308231354 -8.524374008 2.85435462
2.002919436 -7.506782532 2.838251352
3.123442411 -11.56647205 0.5072510242
4.808969021 -17.29019165 0.9529362321
4.849399567 -17.26977921 1.548484445
4.829203606 -17.18107605 2.139507294
4.765847206 -16.94712448 2.710063219
4.741530418 -16.83452415 3.287329912
4.791302681 -16.98070526 3.912824154
4.742429256 -16.79542542 4.480358601
4.698668003 -16.62708664 5.047899246
1.98733592 -7.539360523 2.846707821
3.076251268 -11.54274368 0.5089188218
4.763348103 -17.35763931 0.9546741247
4.798294067 -17.31808281 1.55114615
4.778345585 -17.22921371 2.143277884
4.700121403 -16.93116379 2.707335472
4.687307358 -16.86686325 3.290914536
4.733115673 -17.00179482 3.914773226
4.690970421 -16.82670593 4.484982491
4.63837719 -16.6265049 5.044509411
1.961143136 -7.540994167 2.845501184
3.035298109 -11.53996468 0.5100260973
4.718523026 -17.41837883 0.9562959075
4.745337009 -17.35005379 1.553033233
4.727288723 -17.26680183 2.146193743
4.636775017 -16.9225769 2.70551157
4.625246525 -16.8621254 3.288782358
4.67329073 -17.00675201 3.913726568
4.6409688 -16.86344719 4.490907669
4.58627224 -16.65357399 5.048653603
1.931838512 -7.527471066 2.839707136
2.978697538 -11.48121452 0.5125786066
4.67278862 -17.4770813 0.9578984976
4.708643436 -17.43949509 1.557600617
4.68531847 -17.33682442 2.151812315
4.579564571 -16.93475723 2.70619297
4.565995693 -16.86665916 3.288131237
4.619435787 -17.0322876 3.916706085
4.603689671 -16.94507027 4.507271767
2.170515776 -8.455426216 2.82942152
1.915379524 -7.558037758 2.847591877
2.935912371 -11.47036266 0.5138704777
4.62939024 -17.54529762 0.9596007466
7.022182465 -25.89618683 1.951968431
4.529316902 -16.97159767 2.709842682
4.514834404 -16.89952087 3.291941404
4.568131924 -17.06710434 3.921515703
4.484814167 -16.71837234 5.059948444
1.942191243 -7.741627216 2.902811766
2.89588666 -11.46898174 0.5149068236
4.581330776 -17.59798813 0.9611443281
6.937488079 -25.93011284 1.954170585
4.480471134 -17.01402473 2.714176178
4.464021206 -16.93412781 3.296046972
4.525622845 -17.13394737 3.93255949
6.584433556 -24.47042084 6.244701862
4.458867073 -16.84000587 5.089743614
1.917566061 -7.746432304 2.902723551
2.854580879 -11.46987915 0.5159248114
4.537668705 -17.66790962 0.9628685117
6.861589432 -25.99651909 1.95789361
4.430648804 -17.06473923 2.719480038
10.56979179 -39.3835907 6.805491447
6.963358402 -26.22014236 5.690089703
6.496393204 -24.49039078 6.245562553
7.428470135 -27.83729362 8.052904129
1.896508574 -7.764081955 2.906626463
2.784789562 -11.35613441 0.5198208094
6.783006191 -26.07159615 1.962060571
14.36940193 -54.15471649 5.205790043
10.36965656 -39.20609665 6.77458334
8.86525631 -33.60575867 7.116310596
4.454724789 -17.30177116 4.579789639
2.01287961 -8.301967621 2.782235622
1.8786726 -7.798636913 2.915688515
2.747312546 -11.36193085 0.5206362605
14.13896942 -54.03865433 5.195715427
10.13074303 -38.8501091 6.716035366
8.871254921 -34.08826447 7.205994129
4.393029213 -17.30197716 4.577437401
1.879016399 -7.906928539 2.674479723
1.849391699 -7.786552906 2.910457611
2.716844797 -11.39468861 0.5207583904
12.35641098 -48.00165558 4.694534779
10.36589146 -40.33536148 5.495929241
6.524810791 -25.69106102 4.658408642
8.053262711 -31.45730972 6.693824768
4.333372116 -17.30950356 4.57682085
1.840008736 -7.859101295 2.660354137
1.849173784 -7.883670807 2.938907623
2.672837734 -11.37505341 0.5222054124
6.535308361 -26.17259598 2.88362813
10.52675533 -41.52505493 5.636353016
4.089111805 -16.6613884 3.247273207
7.969686031 -31.57631874 6.713553905
4.28504324 -17.36026001 4.586225033
1.967869282 -8.449746132 2.818023443
1.843939185 -7.964176655 2.962227583
2.643137932 -11.41147232 0.5222250819
6.440452576 -26.15154266 2.881728888
3.994922161 -16.51192284 3.222883701
9.637883186 -38.5113945 8.049600601
1.958536029 -8.518009186 2.835140944
2.594083309 -11.37839699 0.5240374207
6.352039337 -26.19228172 2.88495636
11.6821537 -47.31933975 6.324406147
3.905534744 -16.39979172 3.204253197
4.026911259 -16.86011314 3.867237568
7.809612274 -31.80810356 7.912178516
1.802623987 -8.010138512 2.973468781
2.559913874 -11.39710617 0.5244904757
6.27060318 -26.26173973 2.890583515
3.81512928 -16.27953911 3.184401751
7.445590973 -30.87261963 6.568256378
4.124902725 -17.47075081 4.604887009
2.000066996 -8.924467087 2.941598415
1.872420549 -8.401529312 3.092260122
2.515380859 -11.37293243 0.5260094404
15.96448803 -67.27315521 1.512621641
10.13143253 -42.41394424 5.736223221
3.736779451 -16.19277191 3.169862747
3.903105021 -16.85197258 3.862429142
4.07408762 -17.51522255 4.612975597
1.970903993 -8.92755127 2.941124678
1.849658847 -8.422813416 3.097332954
2.46551466 -11.32522869 0.5281019211
16.37814331 -69.27268219 3.99220562
10.29595852 -43.82722473 4.346878529
9.665630341 -41.11597824 5.580121517
3.667883396 -16.14217567 3.160993338
3.834666252 -16.8137722 3.853541851
7.898951054 -33.60806656 8.314369202
1.865766764 -8.616387367 2.856402159
1.924213886 -8.846371651 3.225892067
2.411936045 -11.25977898 0.530618012
12.48709774 -53.77690887 5.171730042
8.117868423 -35.20439148 4.874475479
3.600292206 -16.09513664 3.152709246
3.773804903 -16.80589294 3.850536346
7.848082066 -33.90475845 8.378538132
1.814409733 -8.521103859 2.829662561
1.858873367 -8.696344376 3.178382397
2.364198208 -11.21746922 0.5325426459
15.3635807 -67.8497467 1.530217052
8.276021957 -36.50168228 3.739269972
7.998590469 -35.23621368 4.877175808
3.536227465 -16.06129456 3.146509647
3.714379311 -16.80352592 3.848627329
7.687582016 -33.74160004 8.337010384
1.749603987 -8.3652668 2.786756039
1.875207543 -8.889261246 3.236086845
2.337855339 -11.2767849 0.5319911838
15.60898018 -69.21403503 3.994979143
8.115889549 -36.37475967 3.728687525
5.83024931 -26.35142136 3.818083286
3.473329067 -16.03104401 3.140898228
3.662510872 -16.83350563 3.852977514
8.328199387 -37.07858658 9.099617004
1.724628687 -8.382858276 2.790294647
1.874672413 -9.015163422 3.27321887
2.286959171 -11.21851826 0.5342850685
7.87049675 -35.8640213 3.686306953
5.733224869 -26.33660698 3.815570593
3.410644293 -16.01270676 3.137124062
3.612204552 -16.87099266 3.858799219
8.670129776 -39.17802048 9.577532768
3.798112154 -17.63188171 5.264019966
1.701201797 -8.38432312 3.078628302
2.256188631 -11.24167824 0.5345262289
7.76289463 -35.92873764 3.691660643
5.658053875 -26.3980217 3.822196484
3.366735935 -16.0527935 3.14254427
3.562779188 -16.90003014 3.863091707
4.343585014 -20.37887764 5.258280277
3.753146172 -17.6933136 5.278172493
1.676574349 -8.391703606 3.079657316
2.221816063 -11.25731659 0.5349892974
7.528625011 -35.91555405 1.183619261
7.626059055 -35.93575287 2.435339689
11.64960957 -54.3499527 5.218976021
8.652318954 -40.51297379 5.501166344
3.332308292 -16.13718414 3.154866457
4.28128624 -20.44915962 4.543762684
4.266749859 -20.3556118 5.250775814
3.712757349 -17.79117584 5.301977634
1.651416659 -8.403033257 3.081853151
2.165336847 -11.17735672 0.5378127098
4.262556553 -21.08553123 1.017038345
7.484958649 -35.90477371 2.434904814
11.22619152 -53.33167267 5.134603024
8.471196175 -40.3791008 5.484155178
6.401210785 -30.6926918 5.414856911
4.187704563 -20.36463356 4.52586937
4.194948673 -20.3709259 5.252069473
4.185870171 -20.28423882 5.965570927
1.620423675 -8.393951416 3.077772141
2.120184898 -11.13982487 0.5395449996
4.174348831 -21.03246498 1.017579079
4.211225986 -20.95483017 1.731918454
4.192393303 -20.83902359 2.440635204
8.307150841 -40.32024765 5.476123333
4.121115208 -20.43087769 3.819876671
4.10863924 -20.34506989 4.520508289
4.122461319 -20.3661747 5.24891901
4.114649296 -20.30111885 5.967358112
4.051843166 -19.97625542 6.615059376
2.082486868 -11.13737392 0.5404164791
4.100080967 -21.02729797 1.018602967
4.12740469 -20.90283775 1.730033755
4.100046158 -20.74413872 2.432814121
4.080901623 -20.6078949 3.131009817
4.036570549 -20.36757469 3.809075356
4.028776646 -20.30332375 4.5110116
4.051898479 -20.34166908 5.975649357
3.983061075 -19.98254204 6.61396265
2.056198835 -11.19164181 0.5399143696
4.027840137 -21.01331329 1.019465089
4.05273962 -20.89358139 1.730164647
4.026154995 -20.71848297 2.430742264
4.00633049 -20.59466362 3.128991365
3.965929985 -20.36979103 3.808478832
2.928329229 -15.24375725 3.538990498
5.096211433 -25.82589722 6.495240211
3.54834795 -18.23042488 5.409993649
1.792761803 -9.63594532 3.453281403
2.037520409 -11.27688789 0.5386295915
3.956850767 -21.02331161 1.020651698
3.987146616 -20.91078758 1.731518149
3.953690529 -20.71670723 2.43066597
3.928778648 -20.56557655 3.125110149
3.906510115 -20.4098587 3.81382966
2.843188763 -15.08033085 3.506612778
5.00991106 -25.82713127 6.493198395
3.493463516 -18.25708961 5.415056705
1.767290592 -9.668336868 3.461843252
2.002478361 -11.28983307 0.5391197801
3.889640093 -21.05269051 1.022058964
3.917208433 -20.92453957 1.732741833
3.887811184 -20.74792099 2.433338165
3.855308533 -20.53746223 3.121388197
3.849925041 -20.48339081 3.824351788
2.707973242 -14.65614128 3.424299479
4.948748589 -25.97824478 6.525391579
3.331837177 -17.76026344 5.280539513
3.812126637 -20.16093063 6.659854412
1.954358935 -11.23389816 0.541246593
3.828962326 -21.11721611 1.023874521
3.851376295 -20.95962524 1.734977365
3.82288146 -20.78479004 2.436492443
3.780505896 -20.5194912 3.118873596
3.806349516 -20.62665749 3.845710278
2.66229558 -14.67890835 3.427725554
5.753449917 -30.60454559 7.581187725
3.236769199 -17.58735275 5.232483387
3.753764153 -20.22278595 6.675933361
1.911035895 -11.20134354 0.5428013206
5.59483242 -31.01461792 1.141132236
5.606618404 -30.66182899 2.194104433
3.764401674 -20.85670471 2.442566633
3.709576607 -20.52075768 3.118667364
5.470776081 -29.795578 5.26604557
2.664090633 -14.9525671 3.479239702
3.692058802 -20.32761574 5.22888279
5.767147064 -31.15393066 10.00313663
1.874759436 -11.20599174 0.5434622169
5.525557518 -31.2306881 1.145249009
5.517119408 -30.75973892 2.199604988
5.45971632 -30.40951157 3.23502183
3.642659187 -20.54325294 3.121005297
5.358249187 -29.7540493 5.258442879
2.621231079 -14.99645042 3.486744642
3.624853849 -20.3459549 5.231366158
1.76170814 -10.33782673 3.299105406
1.609451175 -9.509028435 3.408350706
1.83742547 -11.2046051 0.5442585945
13.48776722 -75.35010529 4.310522556
5.347226143 -30.37728691 3.232549667
3.58381319 -20.61047363 3.128676653
5.257782459 -29.77627754 5.260766506
2.569274664 -14.99186802 3.484994888
1.728499413 -10.3438158 3.299669266
1.565305471 -9.43910408 3.385922194
1.807263613 -11.25461006 0.5438749194
5.236423016 -30.35248566 3.230712175
6.387159824 -36.77557755 5.048295021
6.375144482 -36.62221909 6.320000172
2.51184988 -14.95614052 3.477313757
1.297823191 -8.152941704 2.443497181
1.306140423 -8.188427925 2.725400448
1.388140798 -8.625998497 3.137446642
1.767794728 -11.24115276 0.5449422002
5.125824928 -30.35762405 3.231389284
6.92817688 -40.61930084 5.504270554
6.252110004 -36.69379044 6.329746246
2.457672358 -14.95158386 3.475589752
1.277056813 -8.184267998 2.450067043
1.239665627 -7.960380077 2.664025307
1.357907653 -8.621498108 3.13505578
1.7358706 -11.2830677 0.5447416902
12.45868301 -74.10836029 4.258413315
5.02879715 -30.41060257 3.236043215
6.914722919 -41.32213593 7.045043468
2.407678843 -14.95609093 3.475670099
1.229721427 -8.069592476 2.423304081
1.204412103 -7.911405087 2.650271177
1.369090557 -8.848889351 3.203230619
1.698380828 -11.28117561 0.5455238223
6.788352489 -41.63813782 4.168038368
7.885314941 -48.1048584 6.392065048
3.210221052 -20.09194183 3.757742882
2.347430468 -14.91430855 3.466890574
1.199685216 -8.044908524 2.417135477
1.175892949 -7.892596245 2.644596815
1.299906731 -8.617596626 3.131961346
1.65302062 -11.22979259 0.5474491715
7.716558933 -48.22843933 4.71540308
7.768026352 -48.42591858 6.429695129
3.137173176 -20.06778908 3.753414392
2.277892351 -14.79818058 3.443970442
1.171096325 -8.027807236 2.412717581
1.18271637 -8.087481499 2.695693493
1.270539641 -8.608760834 3.128387928
1.627214789 -11.30069542 0.5465245843
7.549704075 -48.24704742 4.71745491
7.601594448 -48.45250702 6.432412624
3.065582752 -20.05116653 3.750282288
2.227236032 -14.79429531 3.442541122
1.152861118 -8.074168205 2.422788382
1.151586533 -8.055197716 2.686471701
1.231803656 -8.541180611 3.107008219
1.586115003 -11.27469349 0.5478423834
7.613087654 -49.74219894 4.842113972
8.252686501 -53.71071243 7.056196213
2.998436213 -20.06162643 3.75137043
2.183024883 -14.83100128 3.448895216
4.018118858 -26.47220993 6.615647793
1.112878203 -7.973097324 2.664057016
1.218013763 -8.628605843 3.132715225
1.542263031 -11.2287569 0.5496086478
5.997750759 -40.2839241 4.057399273
2.933635235 -20.08749199 3.754869938
2.133538723 -14.83453846 3.448939323
1.493595481 -10.62949181 3.004090309
1.075944424 -7.89846468 2.643659115
1.065674067 -7.820450783 2.886705637
1.505101442 -11.22617054 0.5503650904
6.922733307 -48.32179642 1.371010184
6.914939404 -47.46318436 3.003751516
7.723668098 -52.83599091 5.100226402
7.891426563 -53.8254509 7.069129944
1.97969389 -14.14013767 3.315723419
1.461433411 -10.64806175 3.007712841
1.052185059 -7.907841682 2.645573854
1.051275611 -7.89034605 2.907204151
1.475854754 -11.27887726 0.5498470068
6.739720821 -48.22288513 1.372114778
6.745325565 -47.43949127 3.004078388
6.863394737 -48.18736649 4.714828968
6.716250896 -47.05129623 6.264875889
5.722137928 -40.16351318 6.858003139
2.776789665 -19.92630005 4.41993618
1.427176237 -10.65301323 3.008255959
1.070464969 -8.204252243 2.723607779
1.029993296 -7.916632175 2.914489985
1.436651468 -11.26218605 0.5509139299
6.578662872 -48.27579498 1.37507987
5.549062729 -40.15156937 2.658204556
6.680619717 -48.08850861 4.70727396
6.531165123 -46.90903854 6.24781847
6.044699192 -43.42037201 7.360647202
1.910267234 -14.31880474 3.34876132
1.398973584 -10.70033741 3.01846981
1.052162051 -8.259572029 2.737716436
1.005282283 -7.920098305 2.914878368
1.396774292 -11.23940468 0.5521101356
5.33422327 -40.32372284 1.278380036
5.406719208 -40.13301468 2.658560753
6.546452522 -48.20631027 6.401656151
5.251311302 -38.79206848 6.644388199
1.888019204 -14.50436592 3.383676052
1.017188549 -8.19797802 2.720859289
1.366741538 -11.3039341 0.5513461232
5.193984032 -40.32224655 1.280264854
5.281851768 -40.24264145 2.665040255
5.280497074 -40.17644119 4.051203251
6.199140549 -46.94230652 6.251569748
5.136160374 -38.94118881 6.666738987
1.8589679 -14.64903641 3.410801411
3.994763613 -30.39726448 7.499785423
1.327170968 -11.28286552 0.5524883866
5.054327488 -40.32423782 1.282182813
5.086442947 -39.76166534 4.01734972
6.031672478 -46.91617584 6.248446941
4.985561848 -38.87913513 6.656478405
1.742216468 -14.13512802 3.312296629
3.889320612 -30.39721489 7.498301029
1.285869598 -11.23165798 0.5542686582
5.953523159 -47.72401428 3.025075674
4.94972086 -39.77311707 4.018939972
4.587079048 -36.87228775 5.056486607
6.03424263 -48.08420181 8.078318596
1.747952104 -14.54840946 3.390717506
1.213892341 -10.35088634 2.936967373
1.258975744 -11.31152153 0.5531159043
5.784511089 -47.70079041 3.025480509
6.898423672 -56.55148697 5.414619923
4.917644501 -40.51403046 5.488745689
4.717030048 -38.8411026 6.649526596
1.220754504 -11.28387356 0.554349184
5.761292934 -48.7483902 4.766670227
4.573805332 -38.71696091 6.629905224
1.630877614 -14.36470032 3.354929209
1.175963163 -11.2447834 0.5559234023
5.587143898 -48.78286743 4.770457745
3.332384109 -29.4171524 4.171963692
4.419903755 -38.66526031 6.621471882
1.596835256 -14.50319099 3.380976439
1.160562634 -11.41955376 0.5526128411
4.507133007 -40.73706055 4.101940632
3.228708506 -29.39491844 4.169466019
4.311303139 -38.83072662 6.646704197
1.559981346 -14.60424614 3.399924278
1.110084534 -11.29431438 0.5560324788
4.975820541 -46.30012512 4.565685749
3.127825499 -29.35005188 4.164303303
4.680962086 -43.40989685 7.353753567
1.504125714 -14.53918648 3.387229204
1.072409749 -11.28421116 0.5568714142
8.072958946 -77.13050079 4.445334911
5.782369137 -55.41870117 5.325645924
3.019571781 -29.27968216 4.156150341
4.551605225 -43.61048126 7.384475708
1.452499866 -14.50907707 3.381225348
1.239844799 -12.47830868 3.418187141
1.034024596 -11.26601219 0.5578814149
4.098843098 -40.87880707 4.116158009
2.915913343 -29.24842072 4.15266943
4.093094349 -40.62905502 6.923772335
1.959245563 -19.88720512 4.406011581
1.202777982 -12.51738644 3.426713228
1.006315827 -11.35713959 0.5564654469
5.52816391 -58.24736023 1.531171203
5.629665375 -57.85705948 3.524347544
3.956039667 -40.8629837 4.115698338
2.812117338 -29.21282768 4.148704052
3.585875511 -36.94474411 6.354588032
1.897277713 -19.94070625 4.415914059
1.159045696 -12.4922905 3.420686245
5.301910877 -57.98550034 1.530373812
5.420394421 -57.76884842 3.522035122
5.217942715 -55.55902481 5.340846539
2.709553003 -29.18674469 4.145897865
3.456666231 -36.9272995 6.351836681
1.818039179 -19.81797409 4.392269135
1.113285422 -12.46528149 3.414239645
5.092507362 -58.00251389 1.533308864
2.599525452 -29.13107491 4.139624596
3.324578762 -36.94539642 6.35463047
1.741991043 -19.75587654 4.380208492
1.070796251 -12.47111511 3.41528511
6.335148811 -72.95886993 4.257616043
4.045276165 -46.83953094 4.616688728
2.493265867 -29.11257172 4.137796879
3.165385008 -36.65780258 6.310269833
1.678921938 -19.83440018 4.394983768
1.023963094 -12.42821693 3.405293941
4.496789455 -54.2063446 5.232090473
2.389187574 -29.11741638 4.138775349
3.005513668 -36.33606339 6.260692596
1.603485703 -19.77370834 4.383274078
4.256072044 -53.52320862 3.325298071
4.355687141 -54.66578674 5.271660328
2.302072287 -29.20819664 4.149951935
3.115885019 -39.14919662 6.695374012
1.294104338 -16.75896645 3.808786392
4.050768852 -53.26078415 3.314467669
3.980650425 -52.26807022 5.072983265
2.212488413 -29.33869171 4.165899754
3.080852509 -40.43071365 6.893563271
1.50977838 -20.23836517 4.47164011
3.778037548 -53.65224075 1.488242984
3.861181498 -53.18484879 3.31263566
4.063158989 -55.69560623 5.360285759
2.115838051 -29.38571358 4.171964169
2.865246773 -39.40608215 6.735584259
1.192726612 -16.86318016 3.828562498
3.588200331 -53.58127594 1.489609122
3.210568428 -46.35304642 4.581828117
2.020567894 -29.4561882 4.180847168
2.750307083 -39.60244751 6.766253948
1.142003179 -16.94159698 3.843508244
4.217254639 -63.84146881 3.831641912
3.029674768 -46.03768539 4.556727886
2.585278988 -39.24767685 5.34510994
1.344474435 -20.80702209 3.862845659
1.08928442 -16.99829483 3.854346991
3.655778646 -58.47679138 3.574233055
2.86355257 -45.91854477 4.548030376
2.437195301 -39.14569473 5.333790779
1.274053454 -20.80160522 3.862249374
3.441665173 -58.44182205 3.574705601
2.696028233 -45.76099014 4.536144257
2.304214239 -39.16964722 5.337443829
1.195199847 -20.71327782 3.848885775
1.957064509 -33.18304062 6.938283443
3.593349218 -64.52002716 3.871298552
2.509032726 -45.23867416 4.493786335
2.169295549 -39.16141129 5.337309837
2.017649174 -36.30696106 6.2589674
1.123055696 -20.56868935 4.534962654
2.348227739 -45.13953781 4.486812592
2.171754599 -41.59964752 5.628154278
1.067867041 -20.87269211 3.874138117
2.191303492 -45.10352325 4.4851408
2.039114952 -41.80514145 5.65358448
2.030715704 -44.98134232 4.476284504
1.735053182 -38.2604332 6.562882423
1.869904518 -45.01421738 4.480498791
1.616268754 -38.7903862 5.296943665
1.194956422 -28.8506813 5.108838558
1.695695519 -44.70595551 4.456176281
1.470139742 -38.62122726 5.277899265
1.088673711 -28.76778603 5.096687794
1.100101709 -31.91752815 4.480741024
1.895125389 -60.67248535 5.797343731
1.186139703 -38.01090622 5.207402229
1.705932736 -61.38378143 5.859028816
1.003705859 -57.58771133 5.546754837
-28.08654022 18.88858986 0.8001748919
-27.97854042 18.93425179 0.7970998287
-27.88341331 18.99555779 0.7936296463
-27.78499603 19.06065178 0.7899596095
-27.67362595 19.10902023 0.786685288
-27.58133507 19.17133904 0.7831593752
-27.46189308 19.21259308 0.7799882293
-27.41534996 19.30934715 0.7758315802
-27.40793991 19.43663788 0.7711106539
-27.4250412 19.59041977 0.7657602429
-27.4744854 19.76389885 0.7601405978
-27.529459 19.93624878 0.7546248436
-27.57842064 20.11879921 0.7486258149
-27.62792587 20.30321503 0.7425445914
-27.6782589 20.48277855 0.7366346717
-27.72952461 20.65744209 0.7309023142
-27.77217293 20.82631683 0.7252370119
-27.87476349 21.06023026 0.7180329561
-27.94725037 21.26401901 0.7114760876
-28.0196228 21.47668076 0.7045610547
-28.09591293 21.68714905 0.697769165
-28.18564606 21.91825104 0.6903833151
-28.25494576 22.12644577 0.6835250854
-28.37534904 22.38806152 0.6754171252
-28.53041458 22.66706848 0.6671794057
-33.5786705 33.19855499 0.32995525
-33.46455383 33.30157089 0.3232583404
-33.34196854 33.3953476 0.3167562485
-33.22986603 33.50047684 0.3099532723
-18.33589935 20.4777317 0.5582688451
-16.58584595 19.6166153 0.5546565056
-16.32103348 19.37454224 0.5592342019
-16.21251106 19.36194229 0.5570030212
-16.13357735 19.39171791 0.5535204411
-16.02191734 19.36602783 0.5517980456
-15.9373827 19.3795948 0.5489091277
-15.84401894 19.37949371 0.546423614
-15.77612877 19.41016388 0.5431344509
-15.70933628 19.4493866 0.5394513011
-15.64355183 19.49717331 0.5353691578
-15.56343174 19.51578331 0.5322864056
-15.48874187 19.53534126 0.5292931795
-15.42371273 19.57689857 0.5254889727
-15.34998035 19.60471916 0.5220951438
-15.2803793 19.64614677 0.5181411505
-15.2159214 19.69579697 0.513915658
-15.15874863 19.75000572 0.5096584558
-15.10463524 19.80202484 0.5055810213
-15.06174564 19.87267113 0.5008990765
-15.02864552 19.96748161 0.4952995777
-15.07421494 20.1942997 0.4854661524
-15.42686367 21.10784531 0.450689882
-15.63920116 21.63223076 0.4309927225
-15.83095455 22.12894058 0.4120445549
-9.475680351 13.7310915 2.622526407
-9.132650375 13.10573673 2.543495655
-9.36133194 13.71876717 2.610957384
-9.027779579 13.10178852 2.533468246
-9.150996208 13.44736862 3.05953455
-10.20864964 15.76655865 2.269362926
-9.004784584 13.16480255 2.536110401
-9.121781349 13.49991798 3.062077761
-9.345878601 13.97616673 2.124283552
-8.969298363 13.20054626 2.53555131
-9.07786274 13.51981544 3.059542894
-9.303516388 14.00395679 2.122221708
-8.843845367 13.03234863 2.511270523
-9.033874512 13.53956032 3.05700469
-8.806321144 13.06211185 2.510098457
-9.018967628 13.62637043 3.06484127
-8.763921738 13.08080482 2.507653475
-8.973045349 13.64227104 3.061722994
-9.528261185 14.90561962 2.179110527
-8.852318764 13.41113186 2.54088378
-8.796848297 13.35185623 3.011603117
-9.47698307 14.92780685 2.17615509
-8.830428123 13.48126793 2.544256449
-9.518820763 15.16382217 2.189767838
-9.518317223 15.30273724 2.1958673
-8.589255333 13.14948463 2.497091532
-8.576597214 13.19623947 2.971642256
-9.48945713 15.37545681 2.196887016
-8.51325798 13.08648205 2.485431433
-8.47678566 13.07489109 2.948025465
-8.978804588 14.38949966 3.665688515
-9.438486099 15.38802719 2.193569899
-8.361979485 12.8370409 2.452716827
-8.426919937 13.07416153 2.942803621
-8.920913696 14.37514877 3.656876564
-9.35571003 15.32935238 2.184686899
-8.3166008 12.91609478 2.914116144
-9.184160233 15.04811192 2.159200191
-8.560397148 13.57043457 2.526888609
-8.229426384 12.81901646 2.89452076
-8.45056057 13.45881462 3.471198082
-9.351613045 15.61310959 2.197003126
-8.216493607 12.83620834 2.439710379
-8.240742683 12.97036171 2.912339449
-8.404644966 13.47094822 3.467644453
-9.310898781 15.66806889 2.196387291
-8.461812019 13.5864563 2.519397736
-8.205893517 13.01200199 2.913393259
-8.360064507 13.49297237 3.465690136
-8.165139198 13.06414413 3.85426116
-9.483876228 16.26481056 2.236042738
-8.316526413 13.42619133 2.970319986
-8.31125927 13.49741077 3.460753441
-8.122062683 13.07903481 3.851412058
-8.013619423 12.76195049 2.86635685
-8.268162727 13.51002216 3.457668304
-8.085818291 13.11209297 3.85269022
-10.09505939 18.18091393 2.367599964
-8.061699867 12.93346214 2.43362999
-8.114712715 13.14976406 2.919444084
-8.494844437 14.25035763 3.590058088
-8.054942131 13.15339851 3.856144667
-10.08345032 18.33284187 2.373549223
-8.175109863 13.44270802 2.957962513
-8.057788849 13.21312904 3.391077042
-7.969693184 13.05401707 3.827722311
-9.750980377 17.62882996 2.317157507
