# .PCD v0.7 - Point Cloud Data file format
VERSION 0.7
FIELDS x y z
SIZE 4 4 4
TYPE F F F
COUNT 1 1 1
WIDTH 1268
HEIGHT 1
VIEWPOINT 0 0 0 1 0 0 0
POINTS 1268
DATA ascii
-14.94210529 -28.53393745 5.706457138
-14.97822475 -28.56543159 6.845076561
-19.02443886 -35.99339294 9.929112434
-14.98290634 -28.34667778 1.277782917
-14.93601036 -28.37425613 2.370946407
-14.98462677 -28.42882156 3.473683357
-15.01364517 -28.4586277 4.584289074
-15.06650352 -28.52044678 5.713287354
-15.10181236 -28.54976463 6.853176117
-19.02201462 -35.6819191 9.865405083
-15.09799004 -28.36344337 1.278388858
-15.05113125 -28.39111137 2.374000311
-15.09996796 -28.44533157 3.479171753
-15.12812424 -28.47304344 4.591966152
-15.17258263 -28.51877403 5.720528126
-15.21648407 -28.56316566 6.86553669
-18.97824287 -35.35695267 9.794693947
-15.22375679 -28.35340118 1.278582335
-15.17991734 -28.38643265 2.376318216
-15.2174654 -28.41936684 3.481457472
-15.25542164 -28.46418953 4.597831726
-15.29720402 -28.50428391 5.727329254
-15.34509563 -28.55506897 6.875496864
-18.96807098 -35.03973007 9.729190826
-15.33900833 -28.33501434 1.278603196
-15.31275558 -28.38816261 2.379024029
-15.33598804 -28.40603447 3.484781981
-15.38866425 -28.46517372 4.605121613
-15.43060017 -28.504776 5.736897945
-15.46899605 -28.54911423 6.885472298
-18.9679718 -34.75868607 9.672197342
-15.46609783 -28.33705711 1.27898407
-15.43424988 -28.39119148 2.3815732
-15.46632481 -28.41305351 3.490139961
-15.50949955 -28.4544239 4.610505581
-15.55840397 -28.51699257 5.747748852
-15.59111404 -28.53921318 6.894676208
-18.96118927 -34.48309326 9.615683556
-15.58366013 -28.33258057 1.279225945
-15.55188179 -28.37535667 2.383168459
-15.59110165 -28.42049026 3.495343685
-15.62660313 -28.44763184 4.616147041
-15.67959309 -28.50530052 5.754843712
-15.7143259 -28.54179573 6.9061656
-18.93259621 -34.1588707 9.547077179
-15.71410561 -28.33876038 1.279670715
-15.66182041 -28.35656738 2.384478569
-15.71300507 -28.41081238 3.499136209
-15.74964333 -28.43933105 4.621981621
-15.80194473 -28.50615883 5.763811588
-15.84356022 -28.54279137 6.917985439
-18.90877724 -33.86055374 9.484307289
-15.83177948 -28.32185173 1.27969563
-15.79153824 -28.36057091 2.387255907
-15.83105564 -28.39371109 3.502231836
-15.87394238 -28.44360352 4.629274368
-15.91943836 -28.4866066 5.769640446
-15.97103214 -28.53981781 6.929033756
-18.92113304 -33.61515045 9.436218262
-18.68800735 -33.16931152 10.7024498
-15.9535532 -28.31137276 1.279830337
-15.92147636 -28.36400414 2.390017986
-15.95918179 -28.39335251 3.507017374
-16.01109123 -28.44691086 4.637205124
-16.0429554 -28.47681808 5.777309418
-16.09274673 -28.52611542 6.937799931
-18.91020012 -33.31959534 9.375589371
-18.93298721 -33.31552887 10.76790428
-16.08832169 -28.31136322 1.280163169
-16.05038071 -28.35371208 2.392124891
-16.09130096 -28.38790703 3.511582613
-16.12758827 -28.42499352 4.64131546
-16.18342972 -28.48412514 5.788636684
-16.22737312 -28.5226078 6.949538708
-19.06563759 -33.32367706 9.393509865
-19.11668396 -33.36713791 10.80356789
-16.21648979 -28.31012344 1.28045249
-16.17260361 -28.34222794 2.394049168
-16.22183037 -28.38984299 3.516677141
-16.25220871 -28.41627884 4.64732933
-16.31531906 -28.48682976 5.798745632
-16.35533714 -28.51796913 6.960540295
-19.21934128 -33.32370758 9.410517693
-19.26940918 -33.36467361 10.82276917
-16.33664131 -28.29458237 1.280478835
-16.3041172 -28.34568024 2.396864414
-16.35052872 -28.38778114 3.52141571
-16.38001442 -28.41214943 4.654047489
-16.43629074 -28.47027588 5.805440426
-16.48347092 -28.51277733 6.971526623
-19.36728668 -33.31302261 9.424832344
-19.45411682 -33.41461945 10.85839367
-14.77132988 -25.47455597 1.230007052
-16.42661858 -28.33312607 2.398757696
-16.46916199 -28.36806107 3.524435043
-16.51412201 -28.41767693 4.66218853
-16.56447411 -28.46507263 5.814282417
-16.61784363 -28.51712036 6.984762192
-19.52948189 -33.32508469 9.445370674
-16.59587669 -28.2927742 1.281041384
-16.55852127 -28.33544159 2.401541471
-16.59507942 -28.35978889 3.528631449
-16.64538574 -28.41750717 4.669593811
-16.6948719 -28.46269417 5.823726654
-16.74124908 -28.50239563 6.993828773
-19.67985535 -33.31640244 9.460538864
-16.72057152 -28.28247643 1.281144977
-16.6875267 -28.33205414 2.404007435
-16.73254013 -28.36969376 3.53468442
-16.78270531 -28.4155159 4.677184582
-16.83060455 -28.46817017 5.8346982
-16.909832 -28.56087494 7.019491673
-19.82185555 -33.28031921 9.46940136
-14.4858427 -24.42874908 1.21193552
-17.05023193 -28.69804192 2.428430557
-17.18692398 -28.88372803 3.591557503
-17.2273922 -28.92329407 4.756673813
-17.29151726 -28.99002838 5.941013813
-17.06844139 -28.59044075 7.039433002
-19.97865295 -33.2803154 9.487207413
-17.3220253 -28.81634331 1.291354418
-17.27017403 -28.8371067 2.439392328
-17.32251167 -28.88448524 3.596881628
-17.36104202 -28.92025375 4.764015675
-17.37329865 -28.90246391 5.935266972
-17.20397758 -28.59220505 7.052600861
-20.12951469 -33.26967621 9.502319336
-15.30075836 -25.37755966 1.229527712
-17.40151215 -28.83087349 2.441794872
-17.44075775 -28.86739731 3.600189447
-17.50644875 -28.93514442 4.773975372
-17.43373108 -28.78116226 5.923336506
-17.34215736 -28.6080513 7.068433762
-20.29918289 -33.28811646 9.525434494
-17.58411598 -28.81287193 1.291826844
-17.53450394 -28.83727646 2.444824696
-17.57670021 -28.86700821 3.605480909
-17.63313675 -28.91911697 4.779607296
-17.54553032 -28.75313377 5.92810154
-17.46874809 -28.593647 7.078172207
-20.44896126 -33.28627777 9.542340279
-20.60016441 -33.48086166 11.02602005
-17.7018013 -28.78341293 1.291560173
-17.67047882 -28.83663559 2.447595835
-17.71072197 -28.8626442 3.610416174
-17.77735138 -28.94087029 4.790293694
-17.69610786 -28.77496147 5.942684174
-17.59123039 -28.57206726 7.08638525
-20.6046524 -33.28018951 9.559177399
-20.73871231 -33.44588089 11.03682995
-15.14129162 -24.56749916 1.215577483
-17.79807472 -28.82191658 2.449548244
-17.84921455 -28.86440849 3.616014242
-17.90714073 -28.91721725 4.795370579
-17.75121117 -28.64626884 5.929484367
-17.734972 -28.58304596 7.102128029
-20.75361633 -33.25008011 9.570598602
-17.98054123 -28.79027939 1.292197943
-17.93497658 -28.81023788 2.451841354
-17.99009132 -28.86889076 3.621934414
-18.0363884 -28.90282631 4.801431656
-17.84903336 -28.5742054 5.927335739
-17.87261391 -28.58345795 7.115589619
-20.89694977 -33.2229805 9.582050323
-18.1126442 -28.78102493 1.292278409
-18.06988144 -28.815979 2.45490694
-18.11387825 -28.8459816 3.62512064
-18.17548752 -28.90286255 4.809629917
-17.95410538 -28.53458595 5.930195332
-18.00083351 -28.56842995 7.125639915
-21.07297516 -33.25777817 9.609572411
-18.24003983 -28.77436829 1.292387724
-18.21426392 -28.82463837 2.458311081
-18.24808884 -28.84909248 3.630712986
-18.31207848 -28.90879822 4.818335056
-18.09426117 -28.53770828 5.94163084
-18.13939285 -28.57902336 7.14099884
-21.22949409 -33.24891663 9.626332283
-18.36364174 -28.75061607 1.292193532
-18.33759689 -28.81079865 2.460243225
-18.38303185 -28.8417511 3.635564327
-18.43851852 -28.88769341 4.823629379
-18.22110748 -28.53018188 5.950628281
-18.26359749 -28.55628967 7.149507523
-21.40202332 -33.27563858 9.652032852
-18.51429749 -28.75641632 1.292539835
-18.48291588 -28.80831528 2.463166237
-18.52964401 -28.8405304 3.641368866
-18.58261681 -28.89251709 4.832732677
-18.3567028 -28.51405334 5.959208488
-18.41013908 -28.55597496 7.163986206
-21.54528046 -33.2323494 9.660681725
-18.65814972 -28.7614212 1.29285419
-18.61360931 -28.79344559 2.465218782
-18.66938972 -28.83856964 3.646863461
-18.7214489 -28.88842583 4.840622902
-18.49198341 -28.50710106 5.969050407
-18.55425262 -28.56146431 7.179246426
-21.69804764 -33.21491241 9.675600052
-18.78660774 -28.74255371 1.292729497
-18.75222588 -28.78960419 2.467953682
-18.80266953 -28.82605171 3.651323318
-18.85271072 -28.87217712 4.846822739
-18.63186455 -28.50609207 5.980107784
-18.69313812 -28.55815315 7.192604542
-21.87062836 -33.22586823 9.698512077
-18.92415428 -28.73635864 1.292828202
-18.8899231 -28.7834816 2.470570803
-18.93832588 -28.8162365 3.656104326
-19.01242256 -28.88652611 4.857973099
-18.75640488 -28.48156929 5.986835003
-18.82559204 -28.54446411 7.203683853
-22.03825569 -33.21604538 9.71689415
-19.07092667 -28.74274063 1.293149114
-19.03943062 -28.78330994 2.47371912
-19.08089828 -28.8156929 3.661885023
-19.1373024 -28.8591938 4.862704277
-18.91265869 -28.49233055 6.000887394
-18.96596527 -28.54153061 7.217383385
-22.20705223 -33.21895981 9.737981796
-19.18812943 -28.71557808 1.292844772
-19.16813469 -28.77265739 2.475952148
-19.22106934 -28.82113457 3.668036938
-19.27423859 -28.8592205 4.871051788
-19.04383659 -28.48621941 6.010710239
-19.09387207 -28.52998734 7.228479862
-22.35714149 -33.2057724 9.753767967
-19.34672928 -28.73711967 1.293429017
-19.29356003 -28.75653839 2.477870703
-19.36182976 -28.81601524 3.673443079
-19.41364861 -28.86190796 4.879860401
-19.17856979 -28.48441124 6.021440506
-19.24135971 -28.53549385 7.244404793
-22.5007 -33.18234634 9.766866684
-19.47589111 -28.71530151 1.29321897
-19.44453049 -28.76597977 2.481513739
-19.49365997 -28.79719162 3.677477837
-19.55705643 -28.85893059 4.888360977
-19.32854652 -28.4932003 6.034872532
-19.39024925 -28.54190826 7.260687351
-22.67580223 -33.19106293 9.790118217
-19.61436272 -28.70599174 1.293229818
-19.58661652 -28.76163864 2.484341621
-19.63247681 -28.78756142 3.682509899
-19.70639801 -28.86341095 4.898035526
-19.4434948 -28.45122719 6.038745403
-19.53148651 -28.53639412 7.27431488
-22.86588478 -33.21964264 9.819130898
-19.76226807 -28.70910072 1.293460131
-19.72543907 -28.75175285 2.486852884
-19.7714653 -28.77730179 3.68752408
-19.84021378 -28.83457756 4.903343678
-19.61221313 -28.48448372 6.057064056
-19.66494751 -28.51902962 7.285289288
-23.02818298 -33.19561768 9.834712982
-19.84408188 -28.61882973 1.291984677
-19.85421371 -28.71663284 2.487999201
-19.87586594 -28.71777153 3.687449217
-19.86981773 -28.66975021 4.888178825
-19.75632095 -28.47167397 6.067307949
-19.79623985 -28.49788666 7.29549408
-23.18038559 -33.16857147 9.848557472
-19.80618477 -28.36288834 1.287485838
-19.82870674 -28.48679161 2.47692132
-19.84969139 -28.47670364 3.668435097
-19.86251068 -28.4551239 4.865617752
-19.87820244 -28.44751358 6.074260712
-19.95293999 -28.51118279 7.313960552
-23.33843422 -33.1607399 9.866893768
-19.88311195 -28.26771736 1.285905361
-19.86408615 -28.33325005 2.470652819
-19.90864754 -28.35554695 3.661920309
-19.97047997 -28.41148949 4.867898941
-20.03402901 -28.45931244 6.088829517
-20.10419464 -28.5157814 7.330525398
-23.51040649 -33.15913391 9.888257027
-20.02694321 -28.264328 1.285989046
-19.98457336 -28.29761124 2.471619368
-20.04694176 -28.34374237 3.666877985
-20.10897827 -28.39919472 4.875351429
-20.17383194 -28.44802666 6.09907341
-20.24179077 -28.50065804 7.342556953
-23.69535255 -33.1740036 9.914486885
-20.1579361 -28.24256325 1.285731554
-20.14763451 -28.31940651 2.476138592
-20.19484138 -28.34414482 3.673167467
-20.25470161 -28.39585495 4.884215355
-20.33375168 -28.46314812 6.114524841
-20.39236641 -28.50228691 7.358706951
-23.86330414 -33.16446686 9.934025764
-20.32956314 -28.27480125 1.28645134
-20.27900124 -28.29705238 2.477962017
-20.33587265 -28.33424759 3.67842555
-20.40073586 -28.38189316 4.892049313
-20.48105621 -28.46003532 6.126574993
-20.52678299 -28.48113823 7.369572163
-24.03598976 -33.14837646 9.953030586
-20.46330261 -28.24495506 1.286039352
-20.43554688 -28.29776573 2.481392145
-20.49977303 -28.34407234 3.686136246
-20.55163574 -28.38354301 4.901826859
-20.62394714 -28.4399662 6.136088371
-20.69679642 -28.49663544 7.390137196
-24.18915939 -33.11698151 9.966748238
-20.62844849 -28.26600075 1.28654182
-20.56838036 -28.27574539 2.483277559
-20.62685776 -28.31367302 3.689332247
-20.69682884 -28.37654877 4.910394669
-20.77047348 -28.43389893 6.147792816
-20.83155632 -28.47415352 7.400964737
-24.38240433 -33.13779068 9.995551109
-20.75051498 -28.23887634 1.286154032
-20.73266029 -28.29454231 2.487715721
-20.76964951 -28.31335258 3.695436478
-20.85302544 -28.38311195 4.921084881
-20.90883636 -28.41613007 6.157328129
-20.98536491 -28.4860096 7.419353008
-24.56427956 -33.14213181 10.01988697
-20.89196777 -28.2266674 1.286036968
-20.87073135 -28.28758049 2.490415573
-20.92472076 -28.31824112 3.702472448
-20.99746132 -28.37313843 4.929375648
-21.0701313 -28.43751526 6.173968315
-21.12043571 -28.46225739 7.430143833
-24.72893715 -33.13446045 10.03982925
-21.05067253 -28.23598671 1.286305904
-21.01498413 -28.27791405 2.493134737
-21.07400131 -28.31447601 3.708645821
-21.12153053 -28.34572792 4.934618473
-21.21612549 -28.42780113 6.185307503
-21.27120399 -28.45812225 7.445801258
-24.87802887 -33.09391785 10.05168629
-21.19743919 -28.22872353 1.286265492
-21.15453911 -28.26125717 2.495440245
-21.22352028 -28.31000519 3.714799643
-21.28816605 -28.36274147 4.947152138
-21.35988617 -28.41428566 6.196013451
-21.43184853 -28.46567345 7.464443207
-25.06188011 -33.09735489 10.07639694
-21.36288261 -28.24441147 1.286637068
-21.30282402 -28.25498581 2.498416662
-21.3683567 -28.2985363 3.720260382
-21.44296074 -28.36326981 4.957286358
-21.50746727 -28.40477562 6.207620621
-21.57948494 -28.45542908 7.478932858
-25.25809669 -33.11524582 10.10552311
-34.31258011 -44.50422287 1.583526134
-21.47474861 -28.27787781 2.503245115
-21.51584053 -28.28952789 3.726038694
-21.59311104 -28.35681152 4.966450691
-21.65891075 -28.39922333 6.220128536
-21.72488403 -28.44140053 7.492652416
-25.44145393 -33.11532974 10.12974072
-21.61242104 -28.25601768 2.505295038
-21.66598892 -28.28294563 3.732132673
-21.73854828 -28.34341049 4.974644661
-21.82040977 -28.40533829 6.235069275
-21.8741188 -28.43131256 7.50747776
-25.61298561 -33.09925842 10.14949512
-21.90629959 -28.34278488 1.288647294
-21.76761055 -28.25540924 2.508702993
-21.83995628 -28.30526352 3.741398811
-21.88167572 -28.32622528 4.982343674
-21.97111511 -28.39676476 6.247229099
-22.03459358 -28.43432617 7.525661945
-25.77740288 -33.07325745 10.1665659
-22.0232563 -28.29266739 1.287789464
-21.91556549 -28.24469948 2.511500835
-21.97692108 -28.28007317 3.745604277
-22.04236603 -28.33004761 4.993347168
-22.12946129 -28.39671516 6.261208057
-22.1879673 -28.42737579 7.541573048
-25.97135544 -33.08292389 10.1942606
-22.17033577 -28.27936554 1.287596583
-22.06622314 -28.2363987 2.514474869
-22.12775993 -28.27131271 3.751637459
-22.195858 -28.32382202 5.002904415
-22.266922 -28.36979294 6.269956112
-22.35642242 -28.43798828 7.561965466
-26.15584373 -33.07952499 10.21838093
-22.313797 -28.26072502 1.287299037
-22.22338867 -28.2351284 2.517919302
-22.27754784 -28.26028442 3.75748229
-22.35208321 -28.31993484 5.012916088
-22.44071579 -28.38664055 6.287569523
-22.49164581 -28.40670204 7.572206974
-26.33940315 -33.07371902 10.242033
-22.46247482 -28.24759483 1.287094712
-22.38334846 -28.23618507 2.521538496
-22.43636894 -28.25933075 3.764480591
-22.50099373 -28.30608368 5.021483898
-22.59230423 -28.37513733 6.299646854
-22.65940475 -28.41423798 7.592181683
-26.51331711 -33.05498505 10.26211357
-22.63300133 -28.25995255 1.287348747
-22.52070427 -28.20871925 2.523372889
-22.59292221 -28.25452805 3.771122217
-22.66526604 -28.30988884 5.032875061
-22.76804543 -28.39182854 6.317521572
-22.81620026 -28.40732384 7.608757973
-26.70611572 -33.05793381 10.28881836
-22.78340912 -28.24687195 1.287130475
-22.66963387 -28.19445992 2.526069403
-22.73824501 -28.23517418 3.776234627
-22.81586838 -28.29610443 5.041638374
-22.90746307 -28.36361504 6.326494694
-22.97449112 -28.4011631 7.62568903
-26.88925171 -33.047966 10.31195259
-22.91214561 -28.20703506 1.286416173
-22.83795738 -28.20246887 2.530212164
-22.91571045 -28.25333786 3.785513639
-23.00493431 -28.32723999 5.057487488
-23.06476402 -28.3559494 6.339732647
-23.13428307 -28.39573669 7.642972469
-27.06762505 -33.03115082 10.33328819
-23.03055382 -28.1544075 1.285460472
-22.97830391 -28.17602921 2.532182693
-23.04730797 -28.21575546 3.788743258
-23.13906288 -28.28204536 5.062107086
-23.21463013 -28.33846474 6.351114273
-23.28415871 -28.37753868 7.657235622
-27.26070786 -33.01911163 10.35761452
-23.18127441 -28.13936043 1.285183668
-23.16357231 -28.19211578 2.537086248
-23.22280502 -28.22922516 3.797642231
-23.29927254 -28.27660179 5.072463512
-23.38870811 -28.33875084 6.366988182
-23.44439697 -28.37058067 7.674476147
-27.46361923 -33.02869034 10.38731766
-23.33737946 -28.12966919 1.284997225
-23.29170799 -28.15917397 2.538503647
-23.36757469 -28.20545959 3.802504539
-23.45455933 -28.26434326 5.081851006
-23.5534668 -28.34636307 6.382988453
-23.60231018 -28.35986519 7.690945148
-27.64219475 -33.01991272 10.41043663
-23.50676537 -28.13435555 1.28506577
-23.47415733 -28.17912865 2.54353261
-23.54109001 -28.21422768 3.811022997
-23.61043739 -28.2614727 5.09223938
-23.70784569 -28.33109474 6.395222187
-23.77201462 -28.36175156 7.710763454
-27.82667542 -33.00543213 10.43344402
-23.67253113 -28.13366127 1.2850281
-23.61647034 -28.1513443 2.545517683
-23.6888237 -28.19202232 3.81617713
-23.78177834 -28.26570511 5.104422092
-23.85462379 -28.30613899 6.405600548
-23.94331741 -28.36426544 7.730931759
-28.01395798 -32.99299622 10.45730972
-23.81406784 -28.11372757 1.28463304
-23.79697037 -28.16654205 2.550304413
-23.8594532 -28.20479202 3.824894428
-23.96651459 -28.28401566 5.118944168
-24.02757263 -28.31021881 6.42206955
-28.14335251 -32.9651413 8.916052818
-28.2298317 -33.01187515 10.49088955
-23.97899055 -28.10997581 1.284524202
-23.95726585 -28.16698837 2.553977966
-24.01151276 -28.18559837 3.83050704
-24.12278748 -28.26860428 5.128243446
-24.20388031 -28.32654953 6.44042635
-28.33270645 -32.95328522 8.936284065
-28.42889404 -33.02146149 10.52054691
-24.14019394 -28.10092354 1.284310699
-24.11200523 -28.15049553 2.556774378
-24.19413185 -28.1999855 3.839934111
-24.26389694 -28.24478912 5.135710716
-24.37487984 -28.32592773 6.456237316
-28.53016281 -32.9493103 8.958734512
-28.59376144 -32.97994614 10.53636932
-24.31361961 -28.10449219 1.28431952
-24.25762177 -28.12281418 2.5588696
-24.35193443 -28.18517876 3.846168995
-24.44116783 -28.24141693 5.147719383
-24.5329895 -28.30971718 6.468971252
-28.72270012 -32.93849564 8.979660988
-28.78909492 -32.96020126 10.56047726
-24.47605324 -28.08507538 1.283897161
-24.44278336 -28.12883568 2.563384056
-24.53068924 -28.18310165 3.854299307
-24.62989998 -28.25913048 5.162617683
-24.69079781 -28.28255272 6.480380058
-28.93694305 -32.93916321 9.004951477
-29.00649452 -32.97491455 10.59394169
-24.63527107 -28.07061005 1.283560038
-24.60881805 -28.12186241 2.566888094
-24.67421341 -28.15041733 3.858656168
-24.79236984 -28.24642944 5.172769547
-24.87450218 -28.29259491 6.498866081
-29.14066124 -32.93797302 9.028812408
-29.20203781 -32.96398544 10.61985779
-24.81151772 -28.08332443 1.283715129
-24.78586197 -28.12587929 2.571142912
-24.85869598 -28.17148018 3.868734121
-24.94702339 -28.22413063 5.181483746
-25.05323982 -28.29585075 6.516105175
-29.3218441 -32.92205429 9.047884941
-29.40049744 -32.95495224 10.64663029
-24.97797775 -28.07460785 1.283466816
-24.92608452 -28.09800911 2.57313633
-25.03219223 -28.16962624 3.876707554
-25.12601662 -28.2273941 5.194419861
-25.21947098 -28.29389381 6.531576157
-29.51819992 -32.91022873 9.069447517
-29.58170509 -32.93721771 10.66949749
-21.27162743 -23.88916588 1.207009315
-25.10771942 -28.10475731 2.577634096
-25.18227196 -28.15080452 3.882414103
-25.28436279 -28.21668243 5.204588413
-25.3813591 -28.27653694 6.544804096
-29.71321678 -32.90694427 9.092205048
-29.77540016 -32.92055893 10.69444752
-25.30824089 -28.06056786 1.283012271
-25.27271271 -28.1018219 2.581323624
-25.36713791 -28.15895271 3.89166975
-25.44499016 -28.19786453 5.214178085
-25.53459167 -28.25852013 6.557181835
-29.9329567 -32.91758347 9.120063782
-29.97437286 -32.91958237 10.72300816
-25.47467804 -28.03910255 1.282500505
-25.45019722 -28.09212112 2.58501029
-25.52715492 -28.1296978 3.897158861
-25.62754631 -28.20142555 5.227511883
-25.72195625 -28.25671959 6.574846745
-30.12912941 -32.89033127 9.139573097
-30.18495178 -32.90707016 10.7513361
-25.64068985 -28.02561378 1.282131195
-25.61772346 -28.08013916 2.588372707
-25.71263313 -28.13599968 3.906362772
-25.82341385 -28.20819092 5.242144108
-25.89534187 -28.24839973 6.590441227
-30.33070564 -32.87878036 9.162142754
-30.38106728 -32.87788773 10.77477264
-25.83587074 -28.04171181 1.282292604
-25.78746796 -28.05992699 2.591430187
-25.88611221 -28.12834167 3.914047718
-26.02310944 -28.22706604 5.258248806
-26.09015846 -28.25181007 6.609574318
-30.53800964 -32.87189865 9.186177254
-25.99964714 -28.02357483 1.281821012
-25.96034431 -28.06088448 2.59550643
-26.06537247 -28.12556458 3.922370911
-26.16275978 -28.18180656 5.26397562
-26.23740196 -28.22342491 6.620337009
-30.76197624 -32.88094711 9.214659691
-26.17610741 -28.01757622 1.281561852
-26.13410378 -28.05212021 2.599180698
-26.24491692 -28.1218605 3.930668116
-26.33075142 -28.17479706 5.275416374
-26.43626404 -28.2380619 6.641334534
-30.97818756 -32.88035965 9.240872383
-26.34029961 -27.99776649 1.281042099
-26.31089401 -28.04533768 2.603021383
-26.40810013 -28.1000824 3.936952829
-26.53422737 -28.19366646 5.291912556
-26.59831429 -28.21341515 6.654089928
-31.16321373 -32.84630585 9.258475304
-26.54244232 -28.015728 1.281201124
-26.50889206 -28.05909729 2.608274698
-26.59095573 -28.09744263 3.945530653
-26.69368935 -28.1660347 5.300860882
-26.78681564 -28.21477699 6.672599316
-31.3594017 -32.82255936 9.279033661
-26.71695137 -28.0041256 1.28081274
-26.6736927 -28.03761101 2.611201286
-26.76013756 -28.0796566 3.952428102
-26.87001801 -28.15459633 5.312604904
-26.98815727 -28.22781754 6.693817616
-31.60417175 -32.84672165 9.31261158
-26.89310837 -27.99305153 1.280424595
-26.85834503 -28.03518295 2.615442991
-26.95898819 -28.09074402 3.962771893
-27.0493927 -28.14507484 5.324792385
-27.15088463 -28.20054054 6.706497669
-31.82177162 -32.84172821 9.338700294
-27.05679131 -27.96834755 1.279779434
-27.05176926 -28.04028893 2.62023139
-27.13007355 -28.07256889 3.969783545
-27.25150681 -28.15710831 5.340707779
-27.32914543 -28.18782616 6.722496033
-32.01744843 -32.8134079 9.35879612
-27.23481369 -27.95692444 1.279366493
-27.22290421 -28.02181053 2.623464108
-27.3041935 -28.05633354 3.977099895
-27.42866516 -28.14286995 5.352372646
-27.52870369 -28.19507408 6.743022919
-32.22589493 -32.79655457 9.382214546
-25.67618942 -26.23116875 1.247796893
-27.39424706 -28.00247002 2.626672029
-27.51114655 -28.0714283 3.988185167
-27.60322571 -28.12493706 5.363542557
-27.70470619 -28.17768669 6.758360386
-32.46124649 -32.80480194 9.412678719
-27.62446022 -27.96352577 1.279046774
-27.59143448 -28.00745964 2.631568909
-27.83523369 -28.1998539 4.012761593
-27.78367615 -28.11167526 5.375623703
-27.91485023 -28.19256592 6.780955315
-32.68439865 -32.79944229 9.439757347
-27.80046082 -27.94645691 1.278502464
-27.76468086 -27.98768997 2.634819746
-28.02632141 -28.19561768 4.021800995
-27.95013809 -28.08363914 5.385336399
-28.10416412 -28.18566132 6.798968792
-32.88392258 -32.76966858 9.460476875
-27.99537659 -27.94654846 1.278259754
-27.96108246 -27.98928261 2.639565706
-28.20053101 -28.17376137 4.028835773
-28.16817474 -28.10443878 5.403452396
-28.25819016 -28.14346123 6.809372425
-33.11904526 -32.77295303 9.490468025
-28.17908859 -27.93453026 1.277787328
-28.13336182 -27.96628952 2.642668724
-28.36199188 -28.13859177 4.034363747
-28.40677261 -28.14330292 5.424813747
-28.47509956 -28.16067123 6.83309269
-33.35459137 -32.7749939 9.520424843
-28.38332558 -27.94087219 1.27763772
-28.34770966 -27.98243713 2.648495913
-28.52355003 -28.10262871 4.039867401
-28.56255913 -28.1013813 5.432571888
-28.66669083 -28.15218163 6.851325989
-33.56348038 -32.75006866 9.543281555
-28.5588913 -27.91862679 1.276959896
-28.52483368 -27.96167374 2.651829004
-28.6649456 -28.04668236 4.043046474
-28.74726677 -28.08599854 5.444983006
-28.84994507 -28.13454437 6.867712021
-33.74972534 -32.70251083 9.56015873
-28.76817131 -27.92698669 1.276826143
-28.70942307 -27.94685173 2.655608416
-28.82807541 -28.01056099 4.048667908
-28.95828247 -28.09413338 5.461573601
-29.04640961 -28.12812614 6.886797428
-28.97639465 -27.93284225 1.276636362
-28.91759872 -27.95290565 2.660872698
-28.99858475 -27.98043823 4.055085659
-29.19875908 -28.1282177 5.482804775
-29.24752998 -28.12471199 6.906761169
-25.68915939 -24.70751953 1.218028307
-29.09689903 -27.93064117 2.66421771
-29.19957733 -27.9870739 4.065522671
-29.34946632 -28.07728195 5.489523411
-29.43445778 -28.10680771 6.923668861
-29.32424164 -27.89590454 1.275377393
-29.28635406 -27.92611122 2.668586969
-29.39507294 -27.98727798 4.075275421
-29.5509758 -28.08187866 5.505197048
-29.6430645 -28.11717415 6.94610405
-29.49919128 -27.87682152 1.274722695
-29.48198891 -27.9260273 2.673305988
-29.58206367 -27.97841072 4.084017277
-29.72937584 -28.06400108 5.517109394
-29.8447628 -28.11979485 6.966997147
-29.71579361 -27.89452744 1.274722338
-29.68090057 -27.92762947 2.678185225
-29.78407097 -27.98200035 4.094369411
-29.9285717 -28.0639267 5.532260895
-30.02776527 -28.10412025 6.983930588
-29.92345047 -27.86476135 1.273784757
-29.91683006 -27.92340851 2.683717251
-30.01427269 -27.97160912 4.10522604
-30.15896225 -28.05240059 5.548797607
-30.23008156 -28.06639671 7.000385284
-30.09465218 -27.83877754 1.272974372
-30.11943436 -27.92543221 2.68872118
-30.18434143 -27.94368935 4.111917973
-30.34996796 -28.04216003 5.562489033
-30.44154358 -28.07378006 7.023002148
-30.30658722 -27.8385601 1.272599578
-30.31044388 -27.9157753 2.692946196
-30.40694427 -27.95202827 4.123699665
-30.5293541 -28.02039337 5.574289322
-30.64007187 -28.06825447 7.042870998
-30.52937508 -27.8464489 1.272359014
-30.50943756 -27.90247536 2.697215557
-30.61802101 -27.9485817 4.134141445
-30.79413414 -28.06332588 5.598516464
-30.88077736 -28.08897972 7.070140839
-30.74958229 -27.85048676 1.272037268
-30.72071075 -27.89866257 2.702202797
-30.81745529 -27.9334774 4.14324522
-30.96992302 -28.02621078 5.608744621
-31.06544113 -28.05890656 7.085906506
-30.93700027 -27.82442284 1.271162987
-30.93835449 -27.89895248 2.707531452
-31.01716042 -27.91731453 4.152318954
-31.17281914 -28.01166725 5.623131752
-31.24430084 -28.02268982 7.100437164
-31.14578819 -27.81568527 1.270588279
-31.08993912 -27.84049606 2.708721638
-31.23522186 -27.91572952 4.163317204
-31.4180851 -28.03238678 5.643994808
-31.49217796 -28.04493904 7.128812313
-31.367033 -27.8162365 1.270168066
-31.35961533 -27.88293839 2.717156649
-31.450634 -27.91035652 4.173955917
-31.58848 -27.98707199 5.653205872
-31.72858238 -28.05549812 7.154737473
-29.62949753 -26.14635849 1.239812613
-31.58135986 -27.88229752 2.722571611
-31.66335297 -27.90122032 4.184236526
-31.79826736 -27.97438431 5.668426991
-31.94736099 -28.0493679 7.177009583
-31.79540253 -27.80076408 1.268994212
-31.82785988 -27.90111732 2.729439974
-31.87638664 -27.89092827 4.194483757
-32.00531769 -27.95799446 5.683151245
-32.11814499 -28.00124931 7.189610481
-32.00547791 -27.78741646 1.268288374
-32.01986694 -27.87221146 2.732928038
-32.10194397 -27.88973999 4.205997944
-32.25221252 -27.97369194 5.703873634
-32.3526268 -28.00559807 7.214829445
-32.20663071 -27.76524734 1.267412543
-32.30645752 -27.8694191 4.215203762
-32.50435257 -27.98231888 5.724431992
-32.59970856 -28.01875305 7.242420673
-32.42650604 -27.75730705 1.266778469
-32.52903366 -27.90523529 2.746910572
-32.52964401 -27.8632679 4.226324558
-32.67570496 -27.93186951 5.733491898
-32.83679199 -28.01218033 7.266836643
-32.66525269 -27.76340103 1.266381741
-32.72953796 -27.88871956 2.75116539
-32.7654953 -27.86601257 4.238707542
-32.90237427 -27.925951 5.750861168
-33.04027939 -27.99573708 7.286659241
-32.88274384 -27.7504425 1.265632153
-33.0123024 -27.92869568 2.759879589
-32.98631668 -27.8548336 4.249433994
-33.26411819 -27.98491096 7.309328079
-33.12229156 -27.75392532 1.265161991
-33.23993301 -27.92166138 2.765229225
-33.19818497 -27.8348999 4.259153843
-33.49751282 -27.98031807 7.33376503
-33.34823227 -27.75435829 1.264651537
-33.47724152 -27.92089653 2.771095276
-33.41490936 -27.82715607 4.269942284
-33.72819901 -27.9719429 7.357564449
-33.55735397 -27.7302475 1.263664603
-33.71022797 -27.92468071 2.777056694
-33.62421417 -27.80243492 4.279272556
-33.93901825 -27.95589828 7.3784585
-33.78236771 -27.71743965 1.262864947
-33.9389534 -27.91383171 2.78229785
-33.86497116 -27.80138206 4.291800022
-34.08443069 -27.93135262 5.845294476
-34.18277359 -27.95487404 7.404588223
-34.03752136 -27.71725082 1.262245178
-34.16332245 -27.8883152 2.786816835
-34.10457993 -27.78807831 4.303509235
-34.41614151 -27.93424797 7.427543163
-34.24118042 -27.68457222 1.261065602
-34.41941071 -27.88617325 2.793130875
-34.37123489 -27.80394745 4.318539143
-34.59582901 -27.92508125 5.88574791
-34.65605545 -27.91712952 7.451657295
-34.46878815 -27.67888832 1.260380626
-34.59908295 -27.79741859 4.330120087
-34.88995361 -27.91324043 7.476610184
-34.71573257 -27.68664742 1.259919524
-34.83041763 -27.79211235 4.341988087
-35.1461525 -27.9249649 7.505722046
-34.95040512 -27.68333817 1.259249568
-35.10652542 -27.86488724 2.809465647
-35.07791519 -27.79768562 4.355429649
-35.35251999 -27.89689255 7.525209904
-35.20264053 -27.66276169 1.25816226
-35.33997345 -27.78341103 4.368408203
-35.51782608 -27.86300087 5.954883099
-35.60799408 -27.87536049 7.550823689
-35.43311691 -27.6433773 1.257146597
-35.57711029 -27.76793671 4.380020618
-35.84170532 -27.86512375 7.575330257
-35.67989349 -27.63469887 1.256303787
-29.8379364 -23.31711197 2.484886885
-29.81863213 -23.2561512 3.788226843
-36.08682251 -27.85205841 7.600850582
-29.51636696 -22.85634804 1.171944976
-29.66629028 -23.02648163 2.468318462
-29.81520271 -23.09117126 3.777633905
-36.19379044 -27.79164124 6.003857136
-36.34658813 -27.84821701 7.629023552
-29.5188179 -22.6985817 1.168593884
-29.65837097 -22.85977936 2.461110592
-29.66507339 -22.81868172 3.752457857
-36.61632538 -27.84991646 7.658946514
-29.58181572 -22.58599472 1.166026473
-29.75590897 -22.771492 2.459875345
-29.63397598 -22.63594627 3.739315748
-29.49399948 -22.36379814 1.161541939
-29.73052216 -22.59329033 2.451757669
-29.58584023 -22.4419632 3.724578857
-29.5363121 -22.23733711 1.158721685
-29.74471092 -22.44483948 2.445899725
-29.67082405 -22.34550858 3.723118305
-29.50334167 -22.05723381 1.154963732
-29.583498 -22.16309929 2.430009365
-29.66316032 -22.18247795 3.712538958
-29.6515255 -22.01499939 1.153624654
-29.59542465 -22.02309036 2.424462557
-29.73059273 -22.0816288 3.709903717
-29.6303196 -21.84446526 1.150022268
-29.64261246 -21.90865135 2.420889854
-29.69881248 -21.90284348 3.697088003
-29.8194809 -21.82250214 1.148982882
-29.68974876 -21.78665161 2.417007923
-29.76079369 -21.79097557 3.693519354
-29.75610352 -21.6234684 1.144877315
-29.7937336 -21.70461464 2.416252375
-29.84362602 -21.69374657 3.692009926
-29.89405823 -21.56500816 1.143189549
-29.90078926 -21.62438583 2.415658474
-29.96385002 -21.62227249 3.694144964
-29.98579216 -21.47415161 1.140934467
-29.88254738 -21.45760345 2.408261776
-30.10695457 -21.56600571 3.698485136
-30.31033516 -21.54162407 1.141384602
-30.07141113 -21.43314934 2.412099361
-30.22367287 -21.49104118 3.700260878
-30.32751846 -21.39878464 1.138217449
-30.22243118 -21.38184929 2.413858652
-30.30554962 -21.39206123 3.698685408
-30.54170799 -21.38865662 1.137310505
-30.28060532 -21.26730728 2.410616159
-30.60232162 -21.43717575 3.717702627
-30.74979019 -21.36526108 1.136124849
-30.45158958 -21.22049713 2.41309166
-30.70091057 -21.34028435 3.717219591
-30.93116951 -21.33059311 1.134770751
-30.63075066 -21.18578148 2.41628623
-30.87548065 -21.3010788 3.724443436
-40.62919617 -27.69372559 6.364393234
-33.73820114 -23.02422142 1.162751198
-31.04547119 -21.30478096 2.431919813
-33.50223923 -22.87705612 3.964640379
-33.55874634 -22.73948479 1.157072544
-33.49263763 -22.75424385 2.554993629
-33.50052261 -22.70879745 3.954381943
-33.42771149 -22.49681473 1.152151942
-33.45984268 -22.56661224 2.546424627
-33.55786896 -22.58778954 3.950262547
-33.39513397 -22.31097221 1.148147106
-33.55349731 -22.46957588 2.544869184
-33.47926331 -22.37144661 3.932904243
-33.39204025 -22.14494133 1.14447248
-33.33224487 -22.16320419 2.526545048
-33.61149216 -22.29078293 3.935408115
-33.4812088 -22.03790855 1.141782045
-33.34563446 -22.00825119 2.520542622
-33.56656265 -22.09768677 3.921363831
-33.49573135 -21.87583733 1.138116837
-33.47031021 -21.91563606 2.520000458
-33.54971695 -21.91519547 3.909542322
-33.59931183 -21.77784157 1.135560274
-33.56225967 -21.81029701 2.518093586
-33.63332367 -21.80420494 3.907606602
-33.60707092 -21.62856293 1.132188082
-33.57740402 -21.65729141 2.512242079
-33.73498535 -21.71239853 3.907842636
-33.6894455 -21.5174427 1.129396558
-33.59168625 -21.51239204 2.506707191
-33.86554337 -21.62984467 3.91026783
-33.77317047 -21.40703201 1.126607895
-33.66870117 -21.39812088 2.504069805
-33.92947006 -21.50627708 3.906560898
-33.93532944 -21.34376526 1.124587297
-33.84622192 -21.34452057 2.506544352
-34.04077148 -21.41132164 3.907225132
-34.13694382 -21.30321121 1.122926235
-33.97065735 -21.25808907 2.506299734
-34.16722488 -21.32505226 3.909276962
-34.27331924 -21.22273827 1.120594859
-34.13784027 -21.19655991 2.508197546
-34.47185516 -21.34392166 3.927553654
-34.6008873 -21.25411415 1.120078325
-34.33942413 -21.15441895 2.511794567
-34.59830475 -21.25576401 3.929546118
-37.13322449 -22.56957054 1.14044857
-34.68255234 -21.19384956 2.522429943
-37.28015518 -22.6584053 4.16289711
-37.07361603 -22.36173248 1.135932684
-37.10881424 -22.43977928 2.636775732
-37.42522812 -22.56803513 4.165867805
-37.03035736 -22.16453552 1.13158834
-37.14929199 -22.29017448 2.631806612
-37.28654861 -22.3140831 4.14329195
-37.12498856 -22.05553818 1.128722787
-37.19266129 -22.14253044 2.627001762
-37.25891495 -22.13399124 4.13132
-37.76943588 -22.25719643 1.130840778
-37.26477814 -22.02005959 2.623980522
-37.3832283 -22.04068756 4.133020878
-37.25764465 -21.79659271 1.122246742
-37.32256317 -21.88951683 2.6202631
-37.43798447 -21.89927864 4.128017902
-37.41773224 -21.71507835 1.11973083
-37.38877869 -21.75521469 2.61662674
-37.57236862 -21.80233383 4.130136013
-37.58821487 -21.63850212 1.117278814
-37.49472046 -21.64295959 2.614938259
-37.70303726 -21.70278549 4.131921291
-37.61123657 -21.48034859 1.113518953
-37.62311554 -21.54270935 2.614336729
-37.99615479 -21.69158554 4.148070335
-37.94827271 -21.49302292 1.112448454
-37.81445312 -21.47619438 2.616768599
-38.30366898 -21.68620682 4.165403843
-38.19426727 -21.45431328 1.110543251
-38.12711716 -21.4740696 2.62501359
-49.35345459 -27.2259922 5.114034176
-49.52758789 -27.09765244 1.195730567
-49.79800797 -27.23994446 5.140437126
-50.23402023 -27.26865005 5.167209148
-40.99670029 -22.23895836 1.117292404
-40.97998428 -22.2888298 2.733656406
-41.37922287 -22.43683243 4.384898186
-50.61006927 -27.1667614 7.19217205
-40.91807556 -22.016922 1.112392783
-40.89853668 -22.05587387 2.722233295
-41.23121643 -22.17698669 4.361821175
-51.05555725 -27.17165756 7.232234955
-40.90962601 -21.83212662 1.108064651
-40.90462112 -21.88730049 2.715717793
-41.16533279 -21.96113014 4.345983505
-51.4556694 -27.15026474 7.266420364
-40.96816254 -21.68202782 1.104261518
-40.90120316 -21.7054348 2.708430767
-41.12689972 -21.76042366 4.332609653
-51.87646866 -27.14802933 7.303885937
-40.9743309 -21.50572014 1.100052238
-40.91843414 -21.5346508 2.702145815
-41.16061401 -21.5969677 4.325520992
-52.26691437 -27.1163311 7.33659029
-52.14516449 -26.89536095 1.179825187
-40.97250366 -21.38276672 2.697607279
-41.2704277 -21.47178459 4.325003624
-41.21218872 -21.26626015 1.093318224
-41.05644608 -21.24583054 2.694471836
-41.42636108 -21.36905479 4.328439236
-41.2722435 -21.11706924 1.08949101
-41.14706039 -21.1031456 2.691299915
-41.45670319 -21.20409584 4.321160316
-41.32455826 -20.96421242 1.085600376
-41.31459808 -21.01557732 2.692378759
-41.72680664 -21.1558609 4.334308624
-41.82144547 -21.02542496 1.084863663
-41.50531006 -20.92943001 2.694148302
-44.69850922 -22.21805 1.10070169
-41.97354507 -20.97496796 2.708588362
-44.70385742 -22.03900146 1.096361518
-44.60049057 -22.04018784 2.82133913
-45.34892654 -22.33914185 4.610925198
-44.60531235 -21.80228615 1.091087699
-44.70668411 -21.90917969 2.819096088
-45.21979141 -22.0850563 4.589604855
-44.90110397 -21.7501297 1.088481069
-44.67485428 -21.70407677 2.810230255
-45.17264175 -21.87075996 4.575284481
-44.69742966 -21.46628952 1.08252275
-44.69293213 -21.52290154 2.803661585
-45.20426178 -21.69372749 4.567638397
-44.78713226 -21.31851387 1.078515887
-44.72848129 -21.3501606 2.797905684
-45.23883438 -21.51838112 4.560288429
-44.90368271 -21.18270874 1.0746665
-44.76882172 -21.17989349 2.792387009
-45.40904617 -21.40459633 4.564268589
-44.92869568 -21.01497269 1.070451736
-44.97625351 -21.08487129 2.794343948
-45.54085922 -21.28235435 4.56555891
-45.19242096 -20.94403458 1.067483544
-45.08692551 -20.95511055 2.792330503
-45.94937897 -21.2727356 4.58923912
-45.39759064 -20.84576988 1.064108968
-45.26290131 -20.84434891 2.792841673
-45.95106506 -20.89793396 1.062781692
-45.48993301 -20.75498009 2.795582533
-47.80937958 -21.49860382 1.068781734
-45.8377533 -20.7070179 2.803230047
-47.84602356 -21.31676674 1.064112902
-48.02326965 -21.45261765 2.891680717
-47.8600235 -21.13548279 1.059555292
-48.02326584 -21.26439857 2.884440899
-47.97462845 -20.98691559 1.055315614
-48.03343964 -21.07112122 2.877295971
-48.16636658 -20.86996078 1.051478267
-48.21076584 -20.94783974 2.877426624
-48.67980576 -20.88406563 1.049334884
-48.38965607 -20.8243351 2.877602816
-48.96417999 -20.80145454 1.04588151
-48.7052269 -20.75564384 2.883637667
-51.83872986 -21.75924873 1.055772662
-48.94491959 -20.65432358 2.886353493
-29.36428642 -12.71044827 3.154004574
-29.38068199 -12.6102829 0.9367555976
-29.34590149 -12.62591267 2.04141283
-29.74444008 -12.74876118 3.178774834
-29.34004402 -12.54574966 4.255828857
-29.22229767 -12.42917538 0.9329828024
-29.20261955 -12.45648575 2.031019926
-29.44815636 -12.51169491 3.148879766
-29.23653793 -12.38648701 4.23602438
-29.03308296 -12.24347305 0.9292408824
-29.12937546 -12.31003189 2.023435593
-29.06311798 -12.24856472 3.112342596
-29.16362762 -12.24615669 4.220303059
-29.10046768 -12.15293217 0.9266162515
-29.11125755 -12.19170094 2.0184443
-29.08232117 -12.13910294 3.107948303
-29.09393883 -12.10206795 4.20467329
-29.05176353 -12.01774693 0.9234365225
-29.2532177 -12.1294117 2.01999855
-29.00237274 -11.99189281 3.095691919
-29.09038544 -11.98987389 4.197250843
-28.96693802 -11.86957836 0.9201025367
-29.09244156 -11.95131111 2.008819818
-28.99823189 -11.87432194 3.08952117
-29.0102787 -11.83751392 4.180196285
-28.94325066 -11.73954773 0.9169139266
-28.92706871 -11.76732159 1.997298479
-29.01421356 -11.75884151 3.084690809
-28.93685532 -11.69442177 4.164381981
-28.98277283 -11.6391964 0.9141538739
-28.98366547 -11.67325115 1.995313764
-29.0278492 -11.64845943 3.079995394
-28.97656822 -11.59395885 4.161829472
-55.63838959 -21.29377174 1.024910927
-28.94992065 -11.54581642 1.989579201
-29.07290649 -11.54977703 3.077804327
-29.07196426 -11.51380348 4.165780067
-28.9949646 -11.41420841 0.9083346128
-28.98325348 -11.44334412 1.986647367
-29.08387566 -11.43868351 3.072951555
-29.08486938 -11.4034071 4.160169601
-29.12566566 -11.3524971 0.9060780406
-28.97109413 -11.32452488 1.981847644
-29.18646812 -11.36638546 3.075594664
-29.11795807 -11.30039978 4.156939507
-29.04141426 -11.21374702 0.9029434323
-29.02254486 -11.23443985 1.97989583
-29.134758 -11.23882961 3.066163063
-29.28383636 -11.25008583 4.169429779
-29.13572311 -11.13290024 0.9003701806
-29.15854263 -11.17400742 1.981406569
-29.34028435 -11.19647026 3.07656908
-29.41404533 -11.18631363 4.177778721
-29.25060272 -11.05874538 0.8978561759
-29.20754242 -11.07677746 1.97913146
-29.34423637 -11.08283901 3.071242809
-29.44439697 -11.07575989 4.173930168
-29.33316231 -10.9728651 0.8952008486
-29.27310371 -10.97942638 1.977318764
-29.29492569 -10.95119286 3.061813593
-29.64001656 -11.02747631 4.189435959
-29.38327789 -10.8756094 0.8924136758
-29.35186577 -10.89776802 1.976465344
-29.4698391 -10.89624214 3.069800854
-29.8092804 -10.96904564 4.201882362
-33.0735321 -12.00608253 0.9024007916
-29.47571373 -10.82523441 1.977212071
-29.55599022 -10.81619549 3.071175814
-32.85842896 -11.87732983 4.543865681
-29.88895226 -10.82099724 0.8883256912
-29.64129829 -10.77164078 1.979831576
-29.7156086 -10.75436211 3.077935219
-32.86672592 -11.75250816 4.537224293
-60.03110886 -20.5917778 0.9838369489
-29.78958511 -10.7056036 1.981513262
-29.97751236 -10.72508144 3.092532396
-32.82540131 -11.61807823 4.525359631
-60.17936325 -20.4081192 0.9782394171
-32.63087845 -11.51453972 2.090714455
-32.59649658 -11.45729828 3.287861347
-32.84785843 -11.49846649 4.520438194
-32.77961731 -11.40072155 0.8881283998
-32.63549805 -11.39019299 2.086243868
-32.58590317 -11.32821941 3.281044722
-32.73915482 -11.33715916 4.500685215
-32.77601624 -11.27362061 0.8848048449
-32.73489761 -11.29617786 2.08554697
-32.60333633 -11.20836544 3.276406765
-32.89709091 -11.25461388 4.510846615
-32.80818939 -11.15801716 0.8815848231
-32.63177872 -11.13190365 2.076608181
-32.71743011 -11.1188345 3.279159069
-32.9372139 -11.14081478 4.508051872
-32.84378052 -11.04349613 0.8783676624
-32.77636337 -11.0579567 2.077928543
-32.74934006 -11.0033617 3.275660992
-33.16513062 -11.08464718 4.526463985
-32.94018936 -10.94751358 0.8753048182
-32.73720551 -10.92068672 2.071787119
-32.78465652 -10.88895226 3.272444248
-33.19337845 -10.9727993 4.522725105
-32.95972061 -10.82791996 0.8720255494
-32.88688278 -10.84105873 2.073055029
-32.86923599 -10.78935242 3.272974014
-33.32205963 -10.88475037 4.529940605
-36.50042343 -11.75545883 0.8774053454
-32.96937561 -10.74049759 2.071681261
-33.02618027 -10.7108736 3.278967619
-33.49248886 -10.80833721 4.54183197
-33.17404175 -10.64051342 0.8658674955
-33.06499481 -10.64344692 2.070811033
-33.15619278 -10.62355614 3.282912016
-33.78876877 -10.76764202 4.567782879
-36.48698807 -11.48182869 0.8701789975
-33.27163696 -10.57821274 2.074224234
-33.25746536 -10.53349972 3.284979105
-36.51792145 -11.35282326 0.8665563464
-33.55530167 -10.54012299 2.080796242
-33.43691254 -10.45898151 3.292608738
-36.50989914 -11.21284962 0.8628460169
-33.78115463 -10.47745037 2.08485651
-34.1211853 -10.52574921 3.337942362
-36.56492233 -11.09078407 0.8592604995
-33.9973526 -10.41063404 2.088502169
-36.51292419 -11.06275654 3.510400295
-36.90687561 -11.04744816 0.8561961055
-36.50042725 -10.97345257 2.179300308
-36.5715332 -10.94154072 3.508488178
-38.03653717 -11.21538353 0.8544457555
-36.54706573 -10.84914112 2.176107883
-36.67210007 -10.83151436 3.509706736
-37.02121735 -10.80156517 0.848913312
-36.63768387 -10.7365551 2.174585581
-36.80319214 -10.72913647 3.513187408
-37.41137695 -10.76616478 0.8457705379
-36.80717087 -10.64442062 2.176031113
-36.93786621 -10.62698841 3.516925097
-37.9413147 -10.77152348 0.8429431915
-36.88750076 -10.52800846 2.174097061
-37.21732712 -10.56860256 3.531638861
-40.3681221 -11.25256348 0.8423918486
-37.10709763 -10.45397758 2.177623034
-37.32069778 -10.45640564 3.533029795
-9.144638062 -3.205817223 2.462743521
-40.46231842 -11.13391876 0.8386229277
-40.43766403 -11.16093445 2.296980143
-40.47047424 -11.11978245 3.758354902
-9.146664619 -3.174010515 2.460822105
-40.47254562 -10.98640633 0.8345311284
-40.44058228 -11.0190382 2.291970491
-40.53330231 -10.98515987 3.756275892
-9.14324379 -3.139211178 2.457805634
-40.59897614 -10.8751173 0.8307645917
-40.66597748 -10.92470551 2.294955254
-40.80125427 -10.90814877 3.769537926
-9.131640434 -3.104216337 2.45343852
-40.74627686 -10.76069069 0.8267851472
-40.7437973 -10.80066681 2.29271698
-40.82266998 -10.76235199 3.764439583
-9.158530235 -3.089909554 2.11969471
-9.14328289 -3.073190212 2.453215599
-9.127536774 -3.05796814 2.789594173
-40.94968414 -10.65880966 0.8228223324
-40.88905334 -10.6849184 2.292689085
-41.14051437 -10.68714905 3.780940056
-9.141194344 -3.051996946 2.115130901
-9.13947773 -3.038524151 2.450199127
-9.108551025 -3.019831896 2.782829285
-41.31254578 -10.59308147 0.8189370632
-41.06511688 -10.57560444 2.29377079
-41.69919968 -10.66625786 3.814860344
-9.123703957 -3.014234781 2.110569954
-9.147060394 -3.006559134 2.44927454
-9.110758781 -2.985061169 2.780610085
-45.59822845 -11.43071461 0.8175526857
-41.48793411 -10.51482964 2.303570747
-44.19065094 -11.08695602 3.988643169
-9.129602432 -2.980304718 2.109320402
-9.135321617 -2.970221519 2.444863319
-9.116280556 -2.952755451 2.779269695
-48.0881424 -11.82907581 0.8142974973
-44.12505722 -10.97178555 2.394456863
-44.33522415 -10.95730972 3.992042542
-9.148173332 -2.952584505 2.110117197
-9.119596481 -2.933134317 2.439757586
-9.113687515 -2.92034173 2.776306868
-45.63154984 -11.10357857 0.8082900047
-44.3843689 -10.86807919 2.398121834
-44.36454391 -10.80115128 3.987124681
-9.141879082 -2.917620659 2.10723424
-9.12680912 -2.901242018 2.438831091
-9.103690147 -2.88470912 2.771631718
-45.56333542 -10.92155457 0.8036196828
-44.79767227 -10.79674149 2.407305956
-44.56869125 -10.68339634 3.994818687
-9.127711296 -2.88104558 2.103236198
-9.126207352 -2.867665768 2.436511278
-9.105031013 -2.851629496 2.769456148
-10.65401363 -3.220910549 0.4097704291
-44.44662857 -10.51354885 0.7986985445
-44.41215897 -10.54911232 2.387623072
-44.79402161 -10.56896877 4.00400877
-9.125020027 -2.84707427 2.100912809
-9.133191109 -2.835748911 2.435581446
-9.104337692 -2.818163872 2.766863346
-10.59593678 -3.167673588 0.4109938443
-44.80463409 -10.42746925 0.7942202091
-44.72915268 -10.45458508 2.393276453
-45.10105896 -10.4704771 4.019022942
-9.129956245 -2.814769745 2.099704027
-9.120779991 -2.799797535 2.431174994
-9.077041626 -2.777591944 2.75840044
-10.58612919 -3.127006769 0.4105407596
-52.25733948 -11.82150936 0.7899906039
-44.93421936 -10.32630062 2.394574881
-48.00951004 -10.91240597 4.219965458
-9.1137743 -2.776470184 2.095384598
-9.069636345 -2.756066799 2.419824839
-9.108670235 -2.7508955 2.762877464
-10.63059807 -3.099614382 0.4081870019
-52.06403351 -11.60115147 0.784932673
-47.95654297 -10.79426765 2.496825695
-48.21477509 -10.78837109 4.227578163
-9.039719582 -2.742803574 1.756667972
-9.081249237 -2.73835516 2.088935852
-9.12803936 -2.736414909 2.428314924
-9.113036156 -2.720239639 2.761576176
-10.61036015 -3.05880785 0.4081355035
-9.029854774 -2.724825144 0.7862150073
-9.06545639 -2.727886915 1.43300283
-9.055624962 -2.714749098 1.756833076
-9.114617348 -2.713603735 2.091944456
-9.122969627 -2.702204704 2.425298452
-9.101940155 -2.686565638 2.756950378
-9.030422211 -2.703248978 0.463906765
-9.067547798 -2.699532986 0.7852823138
-9.056522369 -2.705957413 1.10813272
-9.064012527 -2.694676399 1.431518197
-9.081834793 -2.685357332 1.757944107
-9.121025085 -2.681742907 2.091009855
-9.12744236 -2.669928312 2.424015999
-9.095194817 -2.650544643 2.75306344
-9.04838562 -2.674050093 0.4625584185
-9.048241615 -2.662922382 0.7843616605
-9.063106537 -2.672757864 1.107157946
-51.90293503 -10.97907925 4.466977596
-9.11985302 -2.646776438 2.088916302
-9.11051178 -2.633596897 2.418920279
-9.107223511 -2.619813442 2.753373384
-9.056137085 -2.644442081 0.4616055489
-51.95190048 -10.8004179 4.462617874
-9.114041328 -2.61429882 2.08636117
-9.112805367 -2.601015091 2.417290688
-9.107301712 -2.588477612 2.751238823
-10.72371006 -2.926542997 0.4007315338
-51.94195938 -10.63503456 0.7583707571
-52.08703995 -10.71120167 2.611315012
-52.12968826 -10.64572716 4.467381001
-9.116208076 -2.581722021 2.084868431
-9.111104965 -2.567732096 2.414967537
-9.10564518 -2.555218697 2.748641729
-51.97559357 -10.45377254 0.7530225515
-52.01499939 -10.50974751 2.602250576
-52.4110527 -10.50898361 4.479430676
-9.114356995 -2.548449039 2.082820654
-9.113162994 -2.5351758 2.413336039
-9.10001564 -2.521308661 2.745215893
-52.29990768 -10.32487297 0.7474397421
-52.1270752 -10.34240627 2.599624395
-9.102635384 -2.513482809 2.079388618
-9.12674427 -2.50467205 2.413777351
-9.100043297 -2.488465786 2.743032694
