# .PCD v0.7 - Point Cloud Data file format
VERSION 0.7
FIELDS x y z
SIZE 4 4 4
TYPE F F F
COUNT 1 1 1
WIDTH 1302
HEIGHT 1
VIEWPOINT 0 0 0 1 0 0 0
POINTS 1302
DATA ascii
1.970632792 -33.81690598 8.260321617
2.289230585 -44.05339432 1.370657444
2.551044703 -46.92337799 3.018851519
2.554459095 -46.89691544 4.632808208
1.942975402 -35.70892715 4.926947594
2.34214282 -42.77622604 7.258908749
1.898707986 -34.77826691 7.242602348
2.105039835 -38.26147461 9.269444466
2.010157347 -36.49670792 10.18828487
2.135541677 -43.99917221 1.371760726
2.390229225 -46.93191147 3.020935297
2.393868446 -46.91136551 4.635390759
1.753640771 -34.42616272 4.775183678
1.968843818 -38.46305084 6.59298563
1.879567146 -36.68368149 7.60605526
1.97293365 -38.2526741 9.267602921
1.99106431 -43.97203445 1.373126984
2.237524033 -46.94149017 3.022995949
2.241644382 -46.93283463 4.638519764
1.684546471 -35.22553253 6.093203545
1.759674191 -36.67768478 7.605340004
1.975180268 -40.96687698 9.884090424
1.84104681 -38.02311325 10.59134674
1.852512956 -44.43255234 1.381314158
2.069229603 -46.96325684 3.025826931
1.539434433 -35.09793854 3.649534702
1.48466599 -33.68335724 4.68847084
1.55478406 -35.1562233 6.083209991
1.719076037 -38.68946075 7.989299774
1.553684235 -34.97228622 8.523379326
1.60728395 -35.92354584 10.03697109
1.691673875 -44.21092987 1.380107164
1.900640607 -46.98041153 3.028445482
1.480405569 -36.56262589 3.773250818
1.595617771 -39.25235748 5.352237701
1.430495977 -35.20491409 6.091516018
1.441914201 -35.25191116 7.334723473
1.413706064 -34.49586487 8.41559124
1.562371612 -37.93045425 10.56725502
1.531052709 -43.95073318 1.37834239
1.749345183 -47.0302887 3.032497168
1.325530052 -35.77480316 3.708420992
1.280605674 -34.51442337 4.789239407
1.307454109 -34.98015976 6.05751276
1.315911293 -35.11511612 7.30928278
1.307148814 -34.64430618 8.44974041
1.383820534 -36.52445984 10.19622803
1.386179686 -44.12368774 1.382508516
1.587197304 -47.0080719 3.033135414
1.202302098 -35.74324036 3.706928968
1.23999548 -36.56663513 5.034535885
1.212225914 -35.58850861 7.400229454
1.330759525 -38.68513107 9.367934227
1.23377645 -44.07426453 1.383609295
1.42652297 -47.02721786 3.035797834
1.432802439 -47.11180878 4.661050797
1.037649632 -34.09328461 4.741000652
1.080438256 -35.36930847 6.119438648
1.065788031 -34.80679703 7.251962662
1.163444161 -37.5994873 9.12207222
1.148532033 -37.01569366 10.32694435
1.078926086 -43.91235352 1.383138776
1.265952826 -47.05379105 3.038833141
1.271976829 -47.14625931 4.66552496
1.073945045 -39.48021317 6.756429672
1.133226037 -41.48718262 8.526646614
1.076699972 -38.97137833 10.84420872
1.105069757 -47.07381058 3.041560411
-23.98472977 14.90227795 0.8841639161
-24.24338722 15.12689209 1.758534908
-27.42684364 17.28569221 2.87488246
-26.99418831 17.04382324 3.845031261
-27.03995132 17.12415886 4.863263607
-26.97779465 17.1366787 5.875248432
-27.00020027 17.20825577 6.917006016
-26.85313988 17.15661621 7.927736282
-26.83493233 17.20131111 8.989345551
-26.7852211 17.22488594 10.06049538
-24.72881317 15.52511978 0.8724561334
-27.31065369 17.35303497 1.854185104
-27.28910255 17.31377602 2.865362883
-26.91326523 17.10914421 3.83866787
-26.94627953 17.18720627 4.854104042
-26.89361382 17.20016098 5.866133213
-26.89029694 17.25412941 6.900338173
-26.7951889 17.24447823 7.924515247
-26.75948143 17.27710915 8.98031044
-26.76259041 17.33189583 10.07018948
-27.33929825 17.44632149 0.8402991891
-24.19296265 15.3056612 1.753922462
-27.28463173 17.43983269 2.865773916
-26.6868515 17.07272911 3.81527853
-26.6805172 17.17893028 5.831135273
-26.66178894 17.21590424 6.854213238
-26.38242722 17.07541656 7.81656599
-26.36594963 17.12094879 8.862565994
-26.40999794 17.20445061 9.952535629
-27.33683586 17.56177902 0.8363233209
-24.71390915 15.77848053 1.768821716
-27.27227592 17.54859161 2.865537643
-26.37790489 16.97654915 3.782185555
-26.36402893 17.07079124 5.774129391
-26.38428688 17.14110184 6.795791626
-26.2416935 17.09029198 7.787625313
-26.22595978 17.13637161 8.829903603
-26.18261528 17.16363716 9.882984161
-27.02189445 17.46392059 0.8356116414
-24.31739998 15.60901642 1.754773855
-27.26469994 17.66736221 2.86570096
-26.36077118 17.08431435 3.783293724
-26.34119415 17.11956024 4.773472309
-26.310812 17.1535759 5.771300316
-26.28936195 17.19450569 6.782748222
-25.96236992 17.01091385 7.718473434
-25.95031738 17.05932999 8.751754761
-25.91713715 17.09348106 9.798467636
-27.28893852 17.78247833 0.8281124234
-24.88823509 16.12450981 1.771125674
-27.25658607 17.78628349 2.865833521
-26.10327721 17.02106476 3.756185055
-26.13499069 17.09876633 4.746161461
-26.07299614 17.10388756 5.730647087
-26.09573364 17.17641068 6.745066643
-25.93804169 17.11942673 7.725069046
-25.92547417 17.16784286 8.75982666
-25.88228416 17.18891907 9.803380013
-23.95175171 15.52155209 0.8625360131
-23.43199921 15.19824314 1.723849535
-27.25957489 17.91996956 2.866838932
-25.90028763 17.00079536 3.735608339
-26.02858162 17.142313 4.73462677
-25.96086693 17.14916801 5.716142178
-25.95520401 17.20141411 6.721136093
-25.88933372 17.20454216 7.72390461
-25.85941505 17.24056816 8.753130913
-25.86111832 17.30070496 9.814691544
-24.00777054 15.66983318 0.8581229448
-27.26651192 18.05091476 2.868111134
-25.75860596 17.0173912 3.722073555
-25.72478676 17.04196548 4.691202641
-25.7080574 17.08532524 5.672270298
-25.67840195 17.11982536 6.66246891
-25.65210152 17.15144157 7.666929245
-25.60993385 17.1781559 8.683589935
-25.57836151 17.21355057 9.723061562
-23.84932899 15.66365814 0.8562233448
-24.90787888 16.48436356 1.766764522
-27.24860191 18.164505 2.867544413
-25.49966431 16.94754219 3.69470191
-25.63803673 17.09777451 4.682808876
-25.57683372 17.10863686 5.653373718
-25.53343773 17.13298988 6.636773586
-25.39987373 17.08530235 7.605349541
-25.31471062 17.07972336 8.598128319
-25.28577423 17.1166153 9.627292633
-23.76448822 15.71555042 0.8532618284
-23.44750786 15.52800179 1.719733357
-27.2334137 18.28054047 2.867189407
-25.45968246 17.03641129 3.693146229
-25.42064285 17.06289291 4.653535843
-25.40289307 17.09955025 5.625637054
-25.39967346 17.15351295 6.613865852
-25.33279228 17.16085434 7.599377632
-25.09332275 17.03978157 8.538624763
-25.09795189 17.09564781 9.57230854
-23.80612373 15.85482216 0.8489223719
-51.73117828 36.5415535 2.594494581
-27.23553658 18.41623878 2.868172884
-25.24851608 17.00463104 3.671531916
-25.34512329 17.12569237 4.646962166
-25.28025436 17.13335609 5.608884811
-25.29460335 17.20062065 6.598715782
-25.20605659 17.18557358 7.574999809
-25.01702309 17.10131073 8.528249741
-24.97624207 17.12913513 9.544117928
-23.7731514 15.93975163 0.8454679251
-25.06501389 16.95259476 1.766513228
-27.23525429 18.5444603 2.86894846
-25.1444149 17.04511833 3.662405968
-25.12969589 17.08360672 4.617654324
-25.081604 17.10342598 5.575950146
-25.07802963 17.15722275 6.554845333
-25.02199364 17.16619873 7.533463955
-25.00201035 17.20910835 8.539126396
-24.96826172 17.24251747 9.55978775
-23.36816406 15.74689579 0.8467322588
-24.90336609 16.94861984 1.759813666
-27.2295742 18.66930389 2.869332075
-24.96866417 17.03124809 3.644790649
-25.00193787 17.10585594 4.602572918
-24.97470856 17.14132881 5.562012196
-24.94635582 17.17649841 6.532372952
-24.90953445 17.19993019 7.51328516
-24.70000648 17.09809303 8.45063591
-24.67655563 17.13887978 9.463579178
-23.2843399 15.79194641 0.8439608216
-27.22649956 18.79672432 2.869920254
-24.81867981 17.03557014 3.630214691
-24.81110764 17.07943916 4.577190876
-24.77991676 17.11171532 5.529779911
-24.74784088 17.1438446 6.492912292
-24.71683311 17.17150688 7.46901226
-24.58852005 17.13097382 8.428051949
-24.59578514 17.1955452 9.450537682
-23.45860863 16.03233147 0.8377956152
-27.20692825 18.91226196 2.869287729
-24.55809021 16.95453644 3.602483511
-24.60811996 17.04224205 4.549779415
-24.53707123 17.04369545 5.487458229
-24.54049873 17.10281563 6.451114178
-24.47378349 17.10266876 7.409484863
-24.40086746 17.10418892 8.378937721
-24.36424637 17.1346302 9.377727509
-23.38508415 16.08596802 0.8348293304
-27.20586395 19.04244041 2.870046616
-24.50678253 17.03195572 3.599609613
-24.50464439 17.0800705 4.538607121
-24.46356773 17.10449409 5.480414867
-24.46848488 17.16506958 6.443699837
-24.38963699 17.15538788 7.397686958
-24.11031914 16.99556732 8.293779373
-24.0778141 17.02870941 9.282859802
-23.28447723 16.11854935 0.832221806
-27.21051025 19.17770767 2.871242523
-24.28631783 16.9727726 3.576438189
-24.36668968 17.09062004 4.521783352
-24.29025269 17.08738899 5.452503204
-24.32496643 17.16539192 6.41751194
-24.22421837 17.14409447 7.361362934
-24.10118675 17.10566139 8.306777954
-24.05887222 17.12546158 9.293320656
-23.27034378 16.21208572 0.8286297917
-27.21139717 19.30418015 2.872125626
-24.1092453 16.95138741 3.558570623
-24.19610214 17.07475281 4.499582767
-24.15429497 17.09241295 5.431953907
-24.1218338 17.12373543 6.376577854
-24.08028793 17.14265442 7.330783367
-24.04902458 17.17630959 8.304019928
-24.03518867 17.22474289 9.302989006
-23.16166496 16.23779106 0.8261247277
-27.20690727 19.43378067 2.872660637
-23.9435463 16.93756485 3.542040348
-23.91802025 16.96718597 4.459369659
-23.87943268 16.99270821 5.382606983
-23.88236237 17.05161667 6.32622242
-23.83476448 17.06534386 7.270006657
-23.8023243 17.09768105 8.233801842
-23.76669502 17.12837791 9.214785576
-48.3364563 36.1282196 0.4662545621
-27.18925476 19.55369186 2.872221947
-23.87506294 16.99931526 3.537119865
-23.88526154 17.05738068 4.459782124
-23.8464489 17.08289528 5.384049892
-23.83981514 17.13458061 6.326320171
-23.77231598 17.13245201 7.264710903
-23.54139328 17.0054245 8.1583395
-23.51992798 17.04708481 9.134988785
-47.9907074 36.10791779 0.461925447
-27.17887497 19.67990875 2.872337341
-23.67084885 16.95290375 3.51595521
-34.7559967 25.85234261 6.260421753
-27.09823608 19.80481911 6.078542709
-23.84584236 17.25675964 6.338992596
-23.59301186 17.10525131 7.223855972
-23.5122261 17.09839058 8.164433479
-23.46809006 17.1219368 9.133337021
-47.65827942 36.10828781 0.4569956064
-27.19286346 19.82621765 2.874288321
-23.55887794 16.97874069 3.50582242
-23.59783554 17.0659523 4.424322605
-23.54436302 17.07356071 5.337199211
-23.53275681 17.12127113 6.269438267
-23.48835945 17.14310646 7.206389427
-23.40060806 17.13029289 8.142297745
-23.42041397 17.20024681 9.133458138
-23.19581413 16.71641159 0.8090429306
-20.3969593 14.51566887 1.606787443
-27.17946434 19.95822144 2.87424612
-23.34037399 16.92365837 3.483057499
-23.33180428 16.9667263 4.386144161
-23.30134964 16.99827576 5.294654369
-23.27277184 17.03189087 6.213936806
-23.24647713 17.06224442 7.146212578
-23.18603134 17.07114029 8.082802773
-23.16482353 17.11314011 9.050601959
-47.02312088 36.11318207 0.4473085701
-27.16411018 20.08246994 2.874022245
-23.22419548 16.94416618 3.472397804
-23.26677704 17.03484535 4.381530285
-23.23754883 17.06175423 5.289606094
-23.20892525 17.09547424 6.208539486
-23.16326714 17.11581993 7.135228157
-22.89649773 16.95386314 7.997287273
-22.86594391 16.9818573 8.948924065
-46.69231033 36.08267593 0.4434371889
-20.05241203 14.42958355 1.593542933
-27.16364288 20.21946907 2.874925613
-23.0357132 16.90473747 3.453025341
-22.99873352 16.92448235 4.342587948
-22.97408867 16.96048546 5.242123127
-22.95602989 17.00250816 6.154075146
-22.90441322 17.01162148 7.068850994
-22.89520073 17.06249428 8.012531281
-22.85529137 17.08875465 8.963953018
-46.34367752 36.04767609 0.4394281209
-19.0310936 13.68541622 1.561706662
-18.57380104 13.29456043 2.231237411
-22.97831345 16.97191811 3.449434996
-22.98407364 17.0271244 4.3460536
-22.93931007 17.0467186 5.243238449
-22.93451118 17.1000843 6.15967226
-22.86614609 17.09529686 7.070950985
-22.85067177 17.14125824 8.013320923
-22.94052315 17.27697945 9.018212318
-46.05132294 36.05653381 0.4346032143
-20.39486694 14.90725422 1.600730419
-18.43210793 13.26573563 2.221211195
-43.61565399 34.23673248 5.945587158
-23.16245079 17.29117775 4.381791115
-27.05204201 20.60288239 6.130233765
-22.81492043 17.11573792 6.139769554
-22.77096367 17.1312542 7.055549622
-22.58189774 17.03060532 7.933893204
-22.58057404 17.08920097 8.891068459
-45.74713516 36.05355453 0.4300054014
-20.2323761 14.87131405 1.594397306
-18.36287117 13.29617977 2.21662426
-22.69025612 16.9612236 3.421343565
-22.68440247 17.00690651 4.307936192
-22.64225578 17.02828217 5.196950436
-22.62656403 17.07249832 6.101860523
-22.59116364 17.0949688 7.013940811
-22.55650711 17.12460327 7.941544533
-22.48349762 17.12238121 8.870992661
-45.43428421 36.04116821 0.4255926907
-18.86291885 13.81905746 1.552528143
-18.373106 13.39307022 2.218013287
-22.46365356 16.8847065 3.397272825
-22.51306725 16.97694206 4.285228729
-22.45957375 16.9884243 5.166413307
-22.45667267 17.04339027 6.068683624
-22.36301804 17.01588631 6.957199097
-22.34469795 17.05913162 7.882230759
-22.25325966 17.04045868 8.796269417
-45.11592102 36.02187729 0.4213209748
-19.49069786 14.44247913 1.569543958
-18.17399979 13.31350899 2.20366621
-22.40937996 16.95243645 3.394064426
-22.38597679 16.98327446 4.269902229
-22.35992813 17.01800537 5.153647423
-22.32889938 17.04903412 6.046485901
-22.29354095 17.07124329 6.949649334
-22.28690147 17.1247673 7.878278732
-21.98342133 16.92207718 8.704972267
-44.17344666 35.4697876 0.427423656
-18.7223053 13.88318539 1.545563698
-27.11789703 21.02158546 2.877367496
-22.12326622 16.82197762 3.362704039
-22.14011002 16.88687897 4.234583378
-22.10322762 16.9118824 5.107050419
-22.08257866 16.95140457 5.99303484
-22.02090073 16.95038033 6.878750324
-21.9930439 16.98506737 7.789011478
-21.9520359 17.00923347 8.711668968
-43.88259506 35.4777832 0.4224762022
-18.51315689 13.79553795 1.53803122
-18.19776917 13.51083469 2.206718683
-22.10391617 16.91841316 3.363736153
-22.08903313 16.96211052 4.232289791
-22.05184364 16.98127937 5.104623795
-22.04435158 17.0324707 5.994321346
-22.00465393 17.05635834 6.888483524
-21.95882607 17.07561874 7.794382095
-21.94896126 17.12158966 8.730209351
-43.61492157 35.49150085 0.4176457226
-43.55463791 35.5484314 2.264856577
-18.09413528 13.51514244 2.199586868
-22.00888634 16.94967079 3.355574608
-21.99107933 16.990942 4.221812725
-21.96467972 17.02520943 5.094935894
-21.96152496 17.07468796 5.983880997
-21.904459 17.08331299 6.871311188
-21.86626625 17.10923576 7.77780962
-21.70223618 17.01885605 8.647913933
-43.61191559 35.72101593 0.4087587595
-18.64002228 14.08917141 1.538849235
-18.22854042 13.71696091 2.210334778
-21.88686562 16.95687866 3.344120264
-21.80661201 16.94343948 4.196700096
-27.00661659 21.56679916 6.196408749
-21.86392784 17.10354233 5.969537735
-21.69487953 17.00715065 6.819033623
-21.67699242 17.05071068 7.725131989
-21.6118412 17.05315018 8.630281448
-22.25679398 17.29763031 0.7723265886
-18.47221947 14.0351305 1.532540083
-18.46161461 14.01189995 2.228577614
-17.40702057 13.130723 2.799965382
-17.91350365 13.61666393 3.542708635
-21.68924141 17.00527191 5.052301884
-21.67250824 17.04851341 5.930253506
-21.59221268 17.03011894 6.8009758
-21.58042336 17.07921982 7.707004547
-21.34663582 16.92999649 8.539779663
-43.33057785 35.97867584 0.3941760659
-18.4023819 14.0661335 1.529071093
-18.30505371 13.96640778 2.217441559
-17.27040291 13.09625435 2.785878658
-17.80165672 13.61182499 3.528803587
-21.48277283 16.93532562 5.016169071
-21.47585487 16.98710251 5.889451027
-21.39699554 16.97509003 6.754380703
-21.38646317 17.02515984 7.654047012
-21.36159897 17.05762291 8.566003799
-43.02553558 35.9552536 0.3900359571
-18.21520042 13.99703503 1.522162676
-27.10040855 21.88334465 2.882430553
-17.26434135 13.18138504 2.787909508
-17.75582314 13.66074085 3.525865555
-21.40934372 16.9886322 5.009405613
-21.40527534 17.04324341 5.882768631
-21.35538101 17.05152702 6.755558968
-21.3073864 17.06791878 7.642243385
-21.12596321 16.96354866 8.488437653
-42.7360611 35.94345856 0.3856675029
-17.95845413 13.84585285 2.192655325
-17.52666664 13.50383854 2.822798729
-17.75993156 13.75466156 3.531462908
-21.25806046 16.96562386 4.985188961
-21.20372963 16.97459984 5.84046936
-21.14361191 16.97314453 6.702786922
-21.11286545 17.0048275 7.587940216
-21.05167961 17.0095253 8.477357864
-19.4318428 15.22950935 0.8060216308
-17.88091087 13.87587833 1.509777665
-17.78275871 13.77870274 2.180052519
-17.97969818 13.99813461 2.881137848
-17.80322266 13.88477421 3.543809414
-21.13780594 16.96966934 4.967718124
-21.11861992 17.00488663 5.828698158
-21.07178497 17.02114868 6.694372177
-21.05530357 17.06606865 7.584020138
-21.0151844 17.08447075 8.481228828
-13.8702774 10.25957108 0.4188242555
-19.42285156 15.31702518 0.8024275899
-18.00135231 14.07660389 1.511744738
-27.05944633 22.2856102 2.882619381
-17.01815033 13.21457005 2.765535831
-17.18971062 13.41554832 3.44378829
-17.44426346 13.68978882 4.164483547
-21.00182533 17.01130295 5.808990479
-20.95545006 17.02214241 6.671056271
-20.92675209 17.05575562 7.553005219
-20.74337578 16.9464035 8.386793137
-13.84201908 10.29955387 0.4165556431
-18.92474747 14.96411324 0.8078653812
-17.98927689 14.15819073 1.509924889
-17.70819855 13.88800621 2.175747156
-17.06030083 13.34002781 2.773443699
-17.1891098 13.49886322 3.448294163
-17.41270065 13.75096321 4.164662361
-20.83196831 16.96774292 5.774935246
-20.79372215 16.98582268 6.633896351
-20.77449417 17.02807808 7.513980389
-20.68047714 17.00128746 8.380459785
-13.81213474 10.3381052 0.4143768251
-18.94828415 15.08939743 0.8033080101
-17.96945572 14.23307705 1.507875443
-17.7363205 14.00527859 2.178573847
-17.00079346 13.37267113 2.768831968
-17.25207901 13.65053749 3.464267731
-17.15247154 13.59960365 4.114395618
-20.73433876 16.99013138 5.760304451
-20.6524086 16.9729023 6.603892803
-20.61984444 17.00256538 7.474812984
-20.44787979 16.89591408 8.302074432
-13.78063774 10.37520885 0.412288487
-19.03526688 15.26937866 0.797659874
-17.98505592 14.34587765 1.506735682
-27.07978249 22.76671791 2.887682438
-16.88509941 13.35719776 2.757406235
-17.11911774 13.6162405 3.446339607
-17.10451317 13.64874554 4.111268997
-20.53248596 16.9196167 5.71799612
-20.48589325 16.92940331 6.564967632
-20.46841431 16.97310638 7.435842037
-20.43503761 17.0027504 8.318018913
-13.74022102 10.40405273 0.4107844532
-19.29238892 15.60960674 0.7885725498
-17.95125771 14.40864658 1.504271507
-18.54577255 14.95075798 2.241439104
-17.23402786 13.77186203 2.803453207
-18.99314308 15.46791267 3.774870396
-20.5193367 16.96122169 4.876104355
-20.48516464 16.98787498 5.716948509
-20.45823479 17.01639938 6.570703506
-20.40958977 17.03071404 7.431416035
-20.32370567 17.01021004 8.291033745
-13.76978016 10.49820042 0.4045331478
-40.79595566 35.88222885 0.3547814488
-18.75293732 15.25804996 1.525084138
-17.05509949 13.64758396 2.129039526
-17.25429153 13.88150311 2.808842897
-16.97690201 13.66129017 3.431752443
-16.95672226 13.6886673 4.092842579
-20.34102821 16.96390343 5.689574718
-20.26134491 16.9418087 6.521802902
-20.20718384 16.95035172 7.373139381
-20.12586975 16.9335041 8.226911545
-40.52986908 35.87590408 0.3503331244
-17.16308403 13.85165024 1.479317069
-16.98305511 13.66885853 2.124264479
-17.02417946 13.75404263 2.783112288
-17.01711082 13.78943443 3.443760872
-20.24873352 16.92938614 4.83403492
-20.21990776 16.96086121 5.668411255
-20.17315865 16.97009659 6.50797081
-20.15678215 17.01507187 7.371857166
-20.11797333 17.03933907 8.24417305
-40.23965454 35.84473038 0.3464240432
-17.10484886 13.88683605 1.476233482
-16.96883583 13.74491501 2.123886347
-16.79944611 13.62926102 2.757985115
-17.32139587 14.17230225 3.501741648
-16.897192 13.81209278 4.094129086
-20.11876488 16.97626495 5.652673721
-20.06681442 16.9803257 6.488232136
-20.04253006 17.01766014 7.346543312
-19.84857368 16.89006996 8.148880959
-39.99920654 35.85898972 0.3415386975
-17.16474342 14.03540421 1.47640276
-16.88222885 13.75186157 2.118008852
-16.82243347 13.74082851 2.76372838
-17.19092178 14.13946629 3.48429513
-17.01226997 14.01469517 4.127289772
-19.98679161 16.96102715 5.628448963
-19.9160347 16.94643593 6.453966141
-19.88711929 16.97907257 7.305585861
-19.8459549 17.00063324 8.168492317
-39.72854614 35.85470581 0.3368263841
-17.34158325 14.29859161 1.479753375
-16.8710041 13.83566666 2.11790514
-16.74331856 13.75420761 2.756739855
-16.88938332 13.94347 3.437207699
-16.84563255 13.9487114 4.097758293
-19.87615013 16.96567345 5.610032082
-19.8239727 16.9746933 6.439535618
-19.79667854 17.0089817 7.290048599
-19.53607559 16.8071537 8.055054665
-39.48205948 35.84753418 0.3326369524
-17.01988411 14.07883549 1.469427943
-16.46902084 13.53033543 2.087969303
-16.69133949 13.79364491 2.753149033
-16.67245674 13.82234478 3.404480696
-17.37659836 14.55856133 4.224444866
-19.62606621 16.83180809 5.55307579
-19.58536911 16.84588051 6.375538826
-19.57362366 16.89510918 7.222198486
-19.52256012 16.90617752 8.069956779
-39.20991898 35.82575607 0.3285443783
-17.11372566 14.26322174 1.470468044
-16.54042625 13.6889143 2.094123125
-18.51749992 15.68162727 2.985355616
-16.34297562 13.5832243 3.351649284
-16.80020332 14.08333969 4.10222578
-19.6178112 16.93584442 5.562833309
-19.57113075 16.94416046 6.385799408
-19.55196571 16.98639488 7.231872559
-19.52742004 17.02428818 8.093063354
-38.95831299 35.822155 0.3240540028
-17.63023567 14.86732674 1.482926607
-16.42758369 13.66711903 2.086236954
-18.02449799 15.29670429 2.926738501
-16.97365189 14.34923553 4.149121284
-13.48790169 10.90711689 3.873072386
-19.45062447 16.93618965 6.361141205
-19.39123726 16.9378109 7.188406467
-19.29530716 16.90317154 8.012696266
-38.69297028 35.80314636 0.3199100196
-18.41905212 15.75027847 1.502601266
-16.47223282 13.80100822 2.090371132
-16.62355232 13.9993763 2.753535271
-16.97372437 14.39378643 3.473026037
-16.70946312 14.17829514 4.097007275
-13.45024014 10.9396162 3.870207071
-19.29341125 16.89014244 6.324274063
-19.25000381 16.90756226 7.152261257
-19.23685837 16.95673943 8.008172989
-38.43809509 35.79260635 0.3155809939
-19.26401711 16.70118332 1.523587227
-19.34290695 16.82469368 3.09981966
-17.08176422 14.59756184 3.497582436
-17.36682892 14.93715858 4.254293442
-13.31335068 10.87125587 3.839663267
-19.24038887 16.94888687 6.321832657
-19.20635223 16.9759655 7.153593063
-19.17156601 17.00324059 8.000704765
-38.20205307 35.79914474 0.3108688295
-16.4701519 13.99172974 1.447006106
-16.27093506 13.77946854 2.076462507
-19.36013985 16.95389366 3.10569191
-16.94346046 14.5533514 3.478699207
-17.24318504 14.90988255 4.234323025
-13.37735176 11.00699902 3.865229368
-19.20346451 17.02420235 6.324807167
-19.04408264 16.92228317 7.109162331
-19.0038414 16.94361305 7.948041439
-19.35200882 16.95349312 0.7349023223
-16.46652222 14.07968616 1.44538641
-16.23579407 13.83405209 2.074517012
-19.07950401 16.78050423 3.073873997
-17.21358871 14.92557335 3.532199144
-19.01894188 16.83142662 4.648617268
-13.34757519 11.04753494 3.864650965
-18.97794724 16.90478897 6.264941216
-18.95473289 16.94275475 7.092823505
-18.92807198 16.97818756 7.935890675
-13.07498741 10.62855339 0.400642693
-13.0571003 10.64624214 0.8770706058
-13.04715061 10.67203808 1.353173256
-13.06162167 10.67853546 1.832199216
-13.03799629 10.69051266 2.310706377
-13.03885174 10.72442913 2.795791149
-13.01887894 10.74066067 3.28239274
-13.29992962 11.0696106 3.859078407
-18.90325356 16.9399662 6.255273342
-18.85608864 16.95302391 7.072854519
-18.8351078 16.99442673 7.916116238
-13.02705288 10.64744473 0.3996335566
-13.00772667 10.66368771 0.8753945231
-13.00329304 10.69525528 1.350872517
-13.02331924 10.70764256 1.829834342
-12.9955225 10.71533871 2.307602406
-12.96950626 10.75853252 3.27687645
-13.25903893 11.09856796 3.855421066
-18.87556839 17.02416611 6.261401653
-18.87063408 17.08182907 7.097008705
-18.85918427 17.13383293 7.948501587
-16.34051514 14.22769451 1.437417746
-12.98909092 10.74091625 1.8277843
-12.9695549 10.75722885 2.306606293
-12.95783329 10.77843571 2.789471149
-12.96102238 10.8190546 3.280787706
-13.22076988 11.13020802 3.852525473
-18.67198753 16.92302704 6.208417416
-18.64193726 16.95379829 7.026199818
-18.60096931 16.97396088 7.854916573
-17.42738533 15.40816593 0.7623614073
-16.47508621 14.46171188 1.439369917
-16.23835754 14.25298405 2.726252794
-17.79040909 15.98776913 4.402922153
-13.18779087 11.16741562 3.851155519
-18.55460739 16.91701126 6.185072422
-18.5303688 16.95390892 7.001946926
-18.50842667 16.98865318 7.8351717
-17.71754837 15.81406212 0.7509644628
-17.78029633 15.93052387 1.471747875
-17.05887032 15.16454506 2.141634464
-16.58089066 14.70838165 2.773239851
-16.33261871 14.49730396 3.403807878
-17.71350098 16.01761246 4.394598007
-13.15198708 11.20165253 3.849013329
-18.38309288 16.84643555 6.142540932
-18.365242 16.88991737 6.955597401
-18.34449005 16.92571831 7.783253193
-18.80109024 17.05740166 0.7198582292
-17.97347069 16.2406311 1.474974632
-16.72500801 14.90605259 2.116773605
-16.74976349 14.9849453 2.798177242
-16.24039078 14.49459743 3.392909527
-18.4063015 16.86063004 4.564250946
-13.1013546 11.21995258 3.842663288
-18.34485626 16.91227722 6.14433527
-18.30967522 16.93728828 6.951395035
-18.2860527 16.97584152 7.778743744
-18.80495834 17.17465401 0.7149701715
-18.7621212 17.18997002 1.493487835
-16.41656685 14.67543697 2.093879223
-16.49797249 14.8144331 2.769215345
-16.24132919 14.58652687 3.398512602
-18.30227661 16.86101723 4.549654484
-12.9801054 11.16159439 3.816084385
-18.22964096 16.90038109 6.120753765
-18.20024681 16.93156624 6.926836491
-18.17069626 16.9636097 7.748507023
-18.79318047 17.27605057 0.7104284167
-16.48910332 14.86113739 1.433235526
-16.30724525 14.65478516 2.086290121
-16.41825867 14.82637787 2.762304306
-16.76493073 15.24935055 3.498989105
-18.62932777 17.32876778 4.635770321
-12.99873829 11.25441837 3.829583406
-18.2409153 17.0259552 6.140349865
-18.05852318 16.88955307 6.889360905
-18.03762245 16.93091965 7.71010828
-18.78767776 17.38489151 0.7056815624
-16.24193764 14.68678284 1.425342321
-18.73516083 17.37731171 2.274255037
-16.17768288 14.65838909 2.734481812
-15.97251129 14.48724937 3.361400843
-18.08677864 16.85143661 4.518623352
-12.98427582 11.30808258 3.833251715
-18.01179695 16.88772774 6.07768631
-17.99630928 16.93415451 6.883447647
-17.96151161 16.9546051 7.696428776
-17.24127388 15.81607628 0.7413526773
-16.19246483 14.72969627 1.42243588
-17.33758163 15.96573067 2.167401314
-16.17271996 14.74984646 2.737176657
-18.01803207 16.82712936 3.739011288
-17.94626427 16.80376816 4.494867325
-17.83225822 16.79620171 6.030972481
-17.80380058 16.82787895 6.82448101
-17.76273346 16.8465004 7.627718925
-17.19594955 15.87118435 0.7380674481
-16.31256485 14.95865917 1.423811316
-17.29577446 16.02588081 2.165095329
-16.08285904 14.74853325 2.72891593
-16.55150604 15.31423855 3.478248596
-17.8034687 16.75786018 4.470976353
-17.8010788 16.81698036 5.246638775
-17.76253891 16.83104134 6.022730827
-17.74570847 16.87586212 6.820135593
-17.73129654 16.92455673 7.635487556
-17.15182495 15.93297386 0.7345067859
-16.29301643 15.03591156 1.421627283
-26.87648964 26.71073151 2.906345606
-16.00117302 14.75563431 2.721705437
-16.6499939 15.53071117 3.50274229
-17.77716064 16.84064674 4.474531651
-17.74950027 16.87192726 5.244469643
-17.70162964 16.88121986 6.018355846
-17.6693058 16.90879822 6.8094244
-17.64888382 16.94519615 7.619913101
-16.32940674 15.18087673 1.420744181
-16.52771759 15.39073658 2.107610703
-16.70944977 15.64913559 2.81736207
-16.45354462 15.41399097 3.473060846
-17.67415047 16.84327316 4.4604702
-17.6623764 16.89247131 5.232626438
-17.60464668 16.88480377 6.000695705
-17.52549171 16.85904312 6.770513535
-20.96843529 20.85791016 9.178791046
-16.29154396 15.23899651 1.418072462
-26.85780716 27.0640564 2.908192873
-16.69903946 15.74157333 2.819643736
-17.51917458 16.78066444 4.433527946
-17.50287819 16.82456589 5.19893837
-17.44615746 16.81752968 5.961553097
-17.45080757 16.88708878 6.759467602
-17.42111969 16.91850281 7.560650349
-16.86499405 15.92972374 0.7286778688
-16.16326141 15.19523525 1.413157344
-26.85660362 27.24728966 2.909735441
-15.86644077 14.90363026 2.714612722
-16.39541054 15.55403709 3.474990368
-17.46378899 16.83007431 4.430229187
-17.44993401 16.8770256 5.196389675
-17.39066696 16.86698341 5.958248615
-17.36597824 16.90312195 6.744301319
-17.33029366 16.92761612 7.541025639
-16.18336868 15.31892395 1.411908865
-16.04956245 15.15642643 2.073265314
-15.84517193 14.97842121 2.715313673
-16.19667435 15.43041134 3.444686174
-17.30446053 16.76006699 4.402098656
-17.28874207 16.80467606 5.161999226
-17.2139473 16.77610016 5.912453175
-17.16399574 16.78250313 6.681260586
-17.13998604 16.82003975 7.474860191
-16.38145256 15.58561134 0.7334241867
-16.17635345 15.40757847 1.410062194
-15.92604542 15.11086655 2.064533472
-16.33772659 15.63856792 2.783236742
-16.30860138 15.65722942 3.471457958
-17.2028141 16.74949837 4.387192249
-17.18223763 16.78848839 5.142960548
-17.16010284 16.82082939 5.908878803
-17.13903236 16.86101341 6.689452171
-17.11953354 16.90418243 7.486845493
-16.31448936 15.6174984 0.7306008935
-16.04315376 15.35657024 1.405042768
-15.92228985 15.20706177 2.065144539
-16.17159462 15.55092049 2.765104532
-16.68609047 16.20538902 3.548371077
-17.16555595 16.81878471 4.388239861
-17.13960266 16.85179138 5.14344883
-17.09423828 16.86278725 5.902732372
-17.05311203 16.87953186 6.674664497
-17.02053452 16.90163422 7.463184357
-16.22518539 15.61812878 0.7286533713
-16.05926514 15.4775219 1.403652668
-15.88681793 15.27229118 2.063345671
-16.37364388 15.89010048 2.795405626
-16.23259354 15.78401184 3.470699549
-17.02908516 16.7776165 4.365902901
-17.00009155 16.8012085 5.11519146
-16.93914413 16.793396 5.864170551
-16.85174751 16.754776 6.611225605
-16.82701492 16.7856884 7.394800663
-16.07345772 15.54027176 0.7287916541
-15.76789474 15.24014568 1.3948493
-16.09767723 15.6153574 2.080636263
-16.2709198 15.87607288 2.785641432
-16.10098076 15.73493385 3.452733755
-16.88074493 16.70980453 4.339597225
-16.89401436 16.78887558 5.096787453
-16.85391045 16.79986763 5.849447727
-16.84638023 16.85625648 6.627623558
-16.81697845 16.88767242 7.412996292
-16.02624512 15.58849716 0.7256396413
-32.3103981 34.81565094 1.788261771
-16.05150414 15.665452 2.077988863
-16.26760674 15.97861004 2.789010763
-16.087677 15.81950092 3.456525326
-16.86375046 16.80235863 4.345584393
-16.84869766 16.84828758 5.096515656
-16.79348946 16.84124756 5.844373226
-16.75495338 16.86062431 6.609434128
-16.73931313 16.90866661 7.399240494
-16.0034008 15.66556263 0.7217351198
-32.08114624 34.78453064 1.778601289
-19.1397934 19.42917442 2.319816828
-16.06624031 15.84640789 2.766162872
-16.23200417 16.09814262 3.490300894
-16.76398087 16.79636192 4.331495762
-18.62592888 19.10092926 5.64379406
-16.80879402 16.97400665 5.866457462
-22.68593979 24.16820335 9.103462219
-18.93908501 19.70293236 8.473093033
-15.93770313 15.69214249 0.7191096544
-31.84475327 34.74302292 1.768795371
-19.0841198 19.49452209 2.316679955
-15.94258118 15.80476952 2.753563404
-16.1307373 16.08487701 3.478069305
-16.60012436 16.71225548 4.301707268
-16.57730675 16.74857712 5.04167366
-16.55835724 16.78474236 5.793262482
-16.53699493 16.82463455 6.558215618
-16.5054245 16.85316658 7.334053516
-16.98485565 17.11515427 1.41615963
-17.01704216 17.14299011 2.15635848
-15.89439583 15.85296535 2.750986338
-16.10559273 16.16295052 3.480179548
-16.58013344 16.80117226 4.307054043
-16.5382309 16.8145771 5.043289661
-16.4955883 16.82200813 5.78730917
-16.47417641 16.86203384 6.551848412
-16.43899536 16.88621902 7.325541019
-15.95041466 15.91841221 0.7093313932
-31.43883705 34.73494339 1.750819564
-15.55312729 15.48711586 2.042909384
-16.51595116 16.71499443 2.837845087
-16.11783028 16.28709984 3.489421129
-16.4646759 16.77381706 4.289005756
-16.44927597 16.81954384 5.029842377
-16.40079689 16.81963158 5.769796848
-16.38212013 16.86307907 6.533186913
-16.34731674 16.88766098 7.304863453
-31.24468231 34.73945236 1.742059946
-16.86551476 17.19089317 2.146650314
-16.5301342 16.84547234 2.843856096
-16.42775917 16.77802277 3.555295229
-16.37073135 16.77193832 4.276201725
-18.5906601 19.58557892 5.695572853
-16.42476082 16.96416664 5.795372963
-16.24669838 16.80935287 6.496112347
-16.22952461 16.85572815 7.271462917
-16.64895821 16.98781395 0.6772759557
-31.03273964 34.70874023 1.733119249
-16.79984093 17.22673798 2.142589331
-16.32658386 16.70316696 2.820509195
-16.31245232 16.74933052 3.540598869
-16.28315735 16.77729225 4.2649436
-16.25608063 16.80293655 4.997505188
-16.21905518 16.82261086 5.737470627
-16.18439484 16.84036255 6.488899708
-16.15768623 16.87491989 7.259077072
-16.55780602 16.9846096 0.6753461361
-30.85777283 34.72208786 1.72504425
-18.74979782 19.74778366 2.296642065
-16.23168564 16.69311333 2.811689615
-16.22761345 16.75185394 3.531312943
-16.18859673 16.76763535 4.251405239
-16.16668892 16.79971123 4.983128071
-16.11784744 16.80438232 5.716608524
-16.09804916 16.84078979 6.471460819
-16.06455231 16.86672211 7.236284733
-16.46054268 16.97319603 0.6736337543
-30.67712975 34.73939133 1.716635704
-18.69608498 19.80929184 2.2936306
-16.13673973 16.68793297 2.803056479
-16.12556648 16.73225212 3.518715143
-16.08932304 16.75132942 4.236655235
-16.06128693 16.78133965 4.964473248
-15.9879303 16.7488842 5.685126781
-15.96371555 16.78524017 6.434454441
-15.92286777 16.80146408 7.190802097
-16.36039925 16.96891022 0.6715210676
-30.49669647 34.75584793 1.708242536
-18.67620468 19.92014313 2.29335022
-16.039505 16.67916107 2.794100761
-16.01088333 16.70720863 3.50438714
-15.98876572 16.7382946 4.222064018
-15.97072887 16.7809639 4.950332642
-15.93111801 16.79694748 5.682136059
-15.90795612 16.83488464 6.432034969
-15.86980724 16.84887505 7.188678741
-16.29062843 16.99633217 0.6686645746
-18.66108322 20.04470062 2.293522596
-15.94989395 16.67928696 2.786162615
-15.95452499 16.74962234 3.500889063
-15.90275288 16.74872589 4.211604118
-15.89241123 16.79564285 4.939945221
-15.85058594 16.80871391 5.669564724
-15.81102562 16.82552147 6.41089201
-15.79203701 16.86424828 7.174422264
-30.07468987 34.70759964 1.690131068
-18.65567398 20.16880989 2.29434371
-15.87518406 16.6978054 2.780237198
-15.86137676 16.7448597 3.490297079
-15.82599258 16.75906754 4.202393532
-15.80211449 16.79442406 4.925822258
-15.82411003 16.88434792 5.676178932
-15.80776405 16.93160248 6.429191113
-18.47628593 20.49258995 8.53053093
-29.83367538 34.64247513 1.68044579
-18.64991951 20.30046844 2.295218945
-15.84454632 16.7726326 2.780310154
-15.77360249 16.74061394 3.480351925
-15.71514511 16.73054695 4.185095787
-15.67127991 16.73979568 4.899006367
-15.64864826 16.77165222 5.628252506
-15.6229372 16.80623817 6.369832516
-15.59033394 16.83290863 7.122855186
-18.64587784 20.43547821 2.296245813
-15.68442154 16.68021584 2.762742758
-15.67476273 16.72708511 3.468606234
-15.63349819 16.73910332 4.175131321
-15.60413742 16.7672348 4.892009735
-15.56853962 16.78216362 5.615710258
-15.53716183 16.80931854 6.353315353
-15.50716209 16.83940697 7.105741978
-18.62889481 20.55486488 2.296266079
-15.59178448 16.6738739 2.754348278
-15.58460236 16.72410583 3.458522797
-15.54117203 16.73311615 4.162435055
-15.50611401 16.75367165 4.875313282
-15.41919708 16.70042038 5.577138424
-15.38762856 16.7269268 6.308814049
-15.35298347 16.75041962 7.052921772
-14.96562672 15.85637856 0.6893185377
-18.63188553 20.70135498 2.29788208
-15.42450237 16.56873512 2.735700846
-15.40668297 16.61041069 3.431608438
-15.37280846 16.62570953 4.1302948
-15.3646431 16.68149757 4.844843388
-15.34148884 16.71829987 5.566227913
-15.31583595 16.75277519 6.299290657
-15.31601906 16.81739616 7.0588727
-14.91342545 15.89616776 0.6862378716
-18.62814903 20.84757042 2.299053669
-15.41910744 16.67572021 2.739249706
-15.39487934 16.70940399 3.436820269
-15.37093449 16.74402428 4.141168118
-15.33312893 16.75497818 4.849043369
-15.29914951 16.7775631 5.567820549
-15.25598717 16.78865242 6.293996811
-15.2412405 16.83342552 7.045817852
-14.88902664 15.96729469 0.6823764443
-18.61491966 20.96798325 2.29934907
-15.32221889 16.66167641 2.730230808
-15.30764866 16.70825195 3.427241564
-15.27715015 16.72829437 4.127454758
-15.243927 16.75106049 4.834992886
-15.21529865 16.77498627 5.552830696
-15.21254921 16.84091949 6.294958591
-18.4438839 21.32959747 8.699416161
-14.8880434 16.0755825 0.6773600578
-18.60830879 21.10556984 2.300256729
-15.36286354 16.82571602 2.739989758
-26.62833595 32.08010101 5.672737122
-22.10948563 26.09454918 5.901144028
-18.52102852 21.31600571 5.894701958
-15.61884403 17.44298744 5.724681854
-15.32342529 17.11084366 6.365806103
-18.41341591 21.43151474 8.714396477
-14.76962566 16.02174187 0.6769508123
-28.5320282 34.62876129 1.621825695
-18.60685158 21.24391937 2.301518679
-15.17102242 16.68297768 2.717822313
-15.11638355 16.67545319 3.404306889
-15.08637142 16.69593239 4.099607944
-15.06880474 16.7398777 4.807089329
-15.02921295 16.74863815 5.516562462
-15.00876331 16.79050827 6.245942593
-14.97508907 16.8153019 6.983857632
-14.79267693 16.16889572 0.6707020402
-18.59868622 21.38937187 2.302411318
-15.05896378 16.65198708 2.706874371
-15.05433178 16.70666885 3.39966464
-14.99944878 16.69887924 4.088640213
-14.98083305 16.74148941 4.794024467
-14.95064926 16.76314735 5.505236626
-14.90771103 16.77387047 6.223248482
-14.88564587 16.81476212 6.964350224
-14.68613625 16.13554764 0.6696120501
-18.60269165 21.54529572 2.304219246
-14.96763802 16.64254379 2.69856596
-14.96187401 16.69584274 3.38896203
-14.92120075 16.70739174 4.079354286
-14.89117146 16.73426247 4.779648781
-14.85898972 16.75306129 5.487931252
-14.8254261 16.77672768 6.207828522
-14.79358768 16.80393791 6.942148209
-14.58938789 16.11457253 0.6681780219
-18.59170914 21.6821022 2.304851055
-14.86249828 16.61326981 2.688311338
-14.85454082 16.66360855 3.375249147
-14.80616474 16.66413689 4.060419559
-14.7697258 16.68181419 4.754914284
-14.74492264 16.71072006 5.461865902
-14.71643066 16.74130058 6.180263042
-14.69291687 16.78012657 6.915371418
-18.57995415 21.81908035 2.305438995
-14.80768967 16.6530838 2.685085058
-14.78064156 16.68289185 3.368598938
-14.76266384 16.72012711 4.06019783
-14.73516464 16.7505703 4.758337498
-14.68030262 16.74308777 5.45582962
-14.65400982 16.77694321 6.174827099
-14.61671829 16.79034042 6.901224613
-18.57073212 21.96861267 2.306325436
-14.71341038 16.63750839 2.676322937
-14.69686222 16.68204689 3.359560966
-14.65226173 16.6875515 4.042942047
-14.64371586 16.73890114 4.743254185
-14.59597206 16.74124718 5.44119215
-14.57266808 16.7734623 6.158585072
-14.53512096 16.79234123 6.884218693
-18.57379532 22.12123108 2.308059692
-14.58412457 16.56581306 2.662382364
-14.59538174 16.64962006 3.346524954
-14.52049065 16.61162186 4.018815517
-14.49670506 16.64103127 4.709135056
-14.43655205 16.624897 5.396087646
-14.41765213 16.66302681 6.108488083
-14.4009428 16.7115345 6.838182926
-29.42799568 37.67856216 1.606697559
-18.57256317 22.26920509 2.309468746
-14.5180254 16.58833885 2.657549858
-14.50221157 16.62808228 3.335129023
-14.47974968 16.6647892 4.018759727
-14.45079041 16.69288826 4.708861828
-14.43052483 16.73442078 5.412109852
-14.39780045 16.75298882 6.121422768
-14.37290955 16.79008675 6.849250793
-18.55842972 22.41612625 2.310022116
-14.46854019 16.64031982 2.655303478
-14.44914436 16.6752224 3.332667589
-14.41978073 16.70220566 4.014767647
-14.37849331 16.71253967 4.700670242
-14.34610462 16.73654938 5.398215294
-14.31143856 16.75222015 6.104888916
-14.2781744 16.77703094 6.826389313
-27.11584091 34.92505646 1.551772475
-18.54114532 22.55994987 2.31034255
-14.39161587 16.65279579 2.649174929
-14.36095524 16.67146301 3.323046684
-14.32726097 16.69209862 4.002077579
-14.30620384 16.73187256 4.692480087
-15.79076958 18.9816227 5.991945744
-14.34887218 16.93375206 6.145871639
-14.09696674 16.63472366 6.757248878
-26.93585014 34.91831207 1.54364109
-18.53361511 22.71117592 2.311386347
-14.57919025 17.04435349 2.680545568
-26.29911613 34.25625229 5.783515453
-18.78666496 23.36454391 5.21370554
-17.95559311 22.23866653 5.926018715
-15.7332058 19.03339195 5.990426064
-14.21315384 16.85354805 6.105286598
-14.08687592 16.73958778 6.778020859
-26.75168419 34.9041214 1.535447598
-18.52746773 22.86591148 2.312562704
-14.20639992 16.61854172 2.631955147
-14.18390083 16.64900208 3.302782059
-14.15944958 16.68309593 3.980052948
-14.13645458 16.72010803 4.666131973
-14.09431934 16.72346115 5.354020119
-14.05451298 16.73714256 6.053659916
-14.02639103 16.76950645 6.77192688
-26.57014656 34.89236832 1.527320623
-18.53276825 23.03904724 2.314685345
-14.1292448 16.62302399 2.625532627
-14.11122417 16.66020203 3.295884609
-14.0768919 16.67964363 3.96935606
-14.04638577 16.70544624 4.651138306
-14.01864243 16.73022461 5.342504978
-13.97583485 16.73927689 6.039345741
-13.91945648 16.72874451 6.740724564
-26.50329781 35.03664017 1.521551371
-18.5214138 23.18929672 2.315485001
-14.04937267 16.6170311 2.618478298
-14.02645874 16.65291214 3.286469698
-13.99120331 16.67086411 3.957773924
-13.96798706 16.70159721 4.639257431
-13.91188526 16.68939018 5.318370342
-13.88515377 16.71653748 6.018157005
-13.78422356 16.63742638 6.69260025
-26.4902401 35.26228714 1.516731024
-18.51088142 23.3337822 2.316284418
-13.93538761 16.55924988 2.606486559
-13.91825676 16.60364532 3.271732092
-13.8822937 16.62022591 3.939212084
-13.86056137 16.65304756 4.617482662
-13.82432365 16.67065811 5.300947189
-13.81271076 16.72093201 6.005533695
-13.77491474 16.73836327 6.712914467
-26.48761749 35.51889038 1.511803985
-18.51282501 23.49841309 2.318115473
-13.89506626 16.61743546 2.605354786
-13.86295605 16.63347626 3.267996311
-13.84432507 16.67654228 3.940030575
-13.82391548 16.71773529 4.620492935
-13.76572704 16.69571304 5.295278549
-13.73865414 16.72847557 5.993257046
-13.7093544 16.75904846 6.703983307
-26.56931686 35.90613556 1.50831008
-18.49997902 23.65092278 2.318857193
-13.80633068 16.60219193 2.597215414
-13.78525925 16.6349926 3.259986639
-13.75264454 16.65668869 3.926695347
-13.728158 16.69159317 4.603349209
-13.6873951 16.6961174 5.282495022
-13.65107918 16.71450996 5.974458218
-13.49515247 16.54680061 6.613073826
-26.55664635 36.15377426 1.503069639
-18.49718857 23.82033157 2.3204391
-13.72218513 16.59320068 2.589725018
-13.7109251 16.64115906 3.252668619
-13.65478992 16.62641144 3.911595106
-13.61782551 16.64181519 4.581104279
-13.54920197 16.60243034 5.244978428
-13.50964546 16.61520767 5.929578304
-13.48477745 16.65224838 6.634346485
-26.54906082 36.41181564 1.497859716
-18.48470116 23.97659302 2.321254969
-13.60142708 16.52688599 2.576866865
-13.56941891 16.54852295 3.231539965
-13.5647459 16.6072998 3.89859271
-13.54603291 16.65113258 4.572043896
-13.51579952 16.67785835 5.251588821
-13.49246883 16.71655273 5.945767879
-13.46358395 16.7415905 6.649898052
-26.53371811 36.67424393 1.492198348
-18.46941757 24.13902855 2.321959019
-13.57217979 16.607687 2.57762146
-13.54693127 16.63418007 3.235163212
-13.5242157 16.67130661 3.899968147
-13.49363422 16.69680977 4.570494175
-13.44312 16.68539047 5.24100256
-13.41884422 16.7226963 5.933522224
-13.43201733 16.82138062 6.661281586
-26.5252018 36.93639374 1.486849308
-18.46368217 24.30913925 2.323373318
-13.49491692 16.60765648 2.571107149
-13.47185612 16.63762474 3.227640867
-13.43335342 16.64981079 3.886685848
-13.41870213 16.70057297 4.560341835
-13.36740589 16.68764114 5.229122162
-13.3412075 16.72193718 5.919277668
-17.44383621 23.42827225 8.94690609
-26.52145195 37.19489288 1.481781721
-18.45908165 24.48286819 2.324905872
-13.41093254 16.59036446 2.563346386
-13.57351685 16.9216671 3.257964611
-18.37012672 24.66114807 5.28999424
-17.13114166 22.77580833 5.876492023
-15.03404999 19.49897575 5.949829578
-13.25861549 16.71258736 5.902540207
-13.18520451 16.66512489 6.576612473
-26.50242233 37.44593048 1.476137042
-18.46291351 24.6626873 2.327058554
-13.32656002 16.57779121 2.555753708
-13.34409332 16.67891121 3.217367887
-13.26457882 16.6188736 3.862990856
-13.24603271 16.66354942 4.531116486
-13.21086407 16.6760807 5.202085495
-13.17896271 16.70111275 5.885975361
-13.14724922 16.72769165 6.583045483
-26.49363136 37.70174789 1.470869064
-18.45519447 24.83524132 2.328387022
-13.25987053 16.58680916 2.550525427
-13.23532867 16.62057877 3.202113152
-13.20873737 16.65166283 3.859492064
-13.17840385 16.67122269 4.52260828
-13.1334877 16.67396355 5.189366341
-13.10479164 16.70423698 5.873260498
-13.05217648 16.6899929 6.555602551
-26.50222778 38.00270081 1.465543747
-18.43802071 24.98503685 2.328863621
-13.1831646 16.58538055 2.544047832
-13.15762329 16.61757278 3.193947077
-13.12972927 16.64035797 3.848782063
-13.10297394 16.67192841 4.512127876
-13.05899429 16.66979027 5.17681694
-13.03147316 16.70201111 5.859714031
-12.88563251 16.53841019 6.488356113
-26.45093346 38.2389183 1.458649516
-18.42827797 25.17685318 2.330278158
-13.10112572 16.58698273 2.537259817
-13.08559322 16.62947845 3.187432289
-13.03652859 16.62362289 3.835837603
-13.00183582 16.64200211 4.494072914
-12.94019032 16.61009979 5.148266315
-12.91225719 16.64138031 5.82672739
-12.87374878 16.65620613 6.512603283
-26.44874573 38.52876663 1.45301342
-18.42477036 25.3620224 2.332033396
-13.01847076 16.57461166 2.529867411
-12.9721365 16.56626129 3.17141223
-12.95315075 16.60983467 3.82440567
-12.93483639 16.65543365 4.486516476
-12.90343857 16.67389107 5.15282774
-12.86728668 16.69166756 5.828512669
-12.85687828 16.75425911 6.531470299
-26.43900108 38.79451752 1.447475672
-18.41394615 25.53720284 2.333212614
-12.95110035 16.58068848 2.524508476
-12.92772961 16.61662292 3.17046833
-12.89331055 16.63471985 3.819740295
-12.86859894 16.66353989 4.478397846
-12.82062626 16.66028404 5.137559414
-12.79261303 16.69174957 5.815330982
-13.23681164 17.52443314 6.780681133
-26.41697502 39.0577507 1.441403031
-18.40743256 25.71170998 2.334670067
-12.87901592 16.58471489 2.518685341
-12.84751892 16.6070919 3.161665916
-12.8220377 16.63389778 3.811126947
-12.78068352 16.64083862 4.463244438
-12.74274445 16.64800835 5.123325825
-12.73252869 16.70992088 5.80829668
-12.57751751 16.52427864 6.424554825
-26.42615128 39.37626648 1.435721755
-18.39557266 25.88905144 2.335817337
-12.82126236 16.61244011 2.515030861
-12.77830791 16.6092453 3.154825449
-12.75114441 16.63953018 3.803239822
-12.68509769 16.60412598 4.445214748
-12.622015 16.56781197 5.091313839
-12.62694931 16.65575981 5.77919817
-12.57768822 16.6516037 6.453582764
-26.40794373 39.65226746 1.42956388
-18.38978004 26.07865143 2.337496519
-12.75938797 16.63307571 2.510756731
-12.66425037 16.54071045 3.138445139
-12.63946724 16.57477951 3.78336215
-12.62936974 16.63499069 4.441660881
-12.59964848 16.65610695 5.10230875
-12.56818867 16.68166542 5.774006844
-12.53328609 16.70250893 6.45659399
-26.39415169 39.9389534 1.423398137
-18.38486671 26.2719593 2.339279413
-14.92445946 20.46784973 2.84703207
-12.62769127 16.60388184 3.139282227
-12.5877924 16.61219597 3.781053305
-12.56176758 16.64519882 4.433771133
-12.5185194 16.64273834 5.087515831
-12.49113369 16.67537117 5.759367943
-12.4744482 16.72826195 6.451128006
-26.37462234 40.21909714 1.41707921
-18.37376022 26.45690727 2.34057641
-14.85122013 20.49925804 2.842287779
-12.55506325 16.60500145 3.132080793
-12.51627636 16.61511993 3.772898674
-12.49030304 16.64829063 4.424441338
-12.45014381 16.65106964 5.078312874
-12.4380722 16.71088982 5.757158279
-12.29515171 16.53971481 6.373473644
-26.38731194 40.5423584 1.411434531
-18.36354637 26.64554405 2.341978073
-14.79026508 20.54397202 2.839117289
-12.49832916 16.6334095 3.128445625
-12.44876766 16.6246109 3.765916586
-16.22073174 23.35598373 5.827001095
-14.24834919 19.97091293 5.90322876
-12.43130398 16.82903862 5.779266357
-12.27798939 16.63172531 6.391312599
-26.35636139 40.80937195 1.404812694
-18.35472679 26.82835197 2.343411922
-14.73064613 20.59912872 2.836501598
-12.47877598 16.72730637 3.133245707
-12.34998989 16.57194519 3.748905659
-12.33015728 16.61595345 4.398402214
-12.30009174 16.63631058 5.052798748
-12.27214146 16.66806221 5.720137596
-12.23154545 16.67836189 6.393190861
-26.3495121 41.12186813 1.398436904
-18.3472271 27.02614975 2.345101357
