# .PCD v0.7 - Point Cloud Data file format
VERSION 0.7
FIELDS x y z
SIZE 4 4 4
TYPE F F F
COUNT 1 1 1
WIDTH 1303
HEIGHT 1
VIEWPOINT 0 0 0 1 0 0 0
POINTS 1303
DATA ascii
15.35169315 3.234515429 3.565078497
15.31974888 3.236655712 4.134289742
15.32422352 3.24886322 4.719171047
12.9230938 2.443867207 0.3028112948
14.73662758 2.95884347 0.7653577328
15.50320244 3.169926405 1.323855877
15.47821903 3.176520824 1.883206606
15.49466896 3.191233873 2.448106527
15.43236732 3.185240746 3.007164478
15.41903877 3.195205688 3.576251984
15.38100147 3.19590807 4.146140575
15.3719368 3.204554081 4.729355335
12.91731071 2.394297838 0.3047571778
14.76550198 2.91140461 0.7668103576
15.54821682 3.123849869 1.326479673
15.51926804 3.129567385 1.886668801
15.54524708 3.146748066 2.453575134
15.49995422 3.145482063 3.016423702
15.45389462 3.146994352 3.581582069
15.43268871 3.152296782 4.155938625
15.40638542 3.15650034 4.73618269
12.92821598 2.351446867 0.3059881628
14.77677917 2.859378099 0.7682921886
15.60983562 3.084678411 1.329640508
15.58724022 3.089306831 1.892057538
15.58221817 3.098489285 2.457609415
15.55716705 3.105540991 3.024240255
15.50004673 3.101538181 3.588989019
15.50509071 3.113778114 4.170293808
15.46067142 3.116304159 4.748234749
12.91626072 2.300536156 0.3081508577
14.85900021 2.827908278 0.7696162462
15.66041946 3.039490938 1.332487583
15.64931583 3.047148705 1.897049665
15.62606812 3.054702044 2.462400436
15.59192753 3.056688786 3.028835297
15.5511179 3.059980869 3.597362757
15.50658512 3.059592485 4.169288158
15.52493191 3.075510025 4.762782574
12.97594643 2.267295361 0.3076547384
13.16534138 2.353979588 0.7730016708
15.70117474 2.991592884 1.335007548
15.68737316 3.001561642 1.90032804
15.68591404 3.011791229 2.468934059
15.63230228 3.00908494 3.034266472
15.61230087 3.01781106 3.607550621
15.5692749 3.018021822 4.181598186
15.58721066 3.033833265 4.776863098
12.94422626 2.211700678 0.3105376959
15.73966122 2.932436705 0.771744132
15.75538063 2.946771145 1.338011622
15.72663212 2.950291872 1.903772593
15.741786 2.9675529 2.4750669
15.67637348 2.962202072 3.040259361
15.67595196 2.972999096 3.618176222
15.62302113 2.970995665 4.191931248
15.62301254 2.985208273 4.784211159
12.9161644 2.157287598 0.3132721484
15.84306908 2.896190643 0.773329258
15.81529045 2.903028488 1.341231465
15.77476501 2.903865814 1.907835722
15.79819489 2.920227766 2.481291056
15.73185921 2.91785574 3.047921896
15.71777344 2.925393581 3.624936342
15.67407894 2.925882578 4.201783657
15.6548872 2.935470819 4.790602684
12.91123867 2.108561754 0.3151468039
15.90617752 2.855619192 0.7748072743
15.86925602 2.857525349 1.344259739
15.84217644 2.861778498 1.913288593
15.82995033 2.872520685 2.484879017
15.80263233 2.87686944 3.057809591
15.74731636 2.877520084 3.629552364
15.7376833 2.886416912 4.214467525
15.71113491 2.891464472 4.803270817
13.03223133 2.091241837 0.3123383224
15.96594238 2.81098032 0.776381731
15.91271114 2.812203169 1.346877217
15.89718533 2.819295168 1.917847395
15.88737583 2.827791214 2.491253614
15.85339165 2.833641768 3.06486392
15.79843426 2.831728935 3.638058901
15.78659821 2.840195894 4.223928928
15.76096535 2.848505735 4.814424038
12.97636127 2.030754566 0.3160674274
16.01520157 2.766532183 0.7778940201
15.96252728 2.76518774 1.349790812
15.9410553 2.771020412 1.92166841
15.93241692 2.78280282 2.496313095
15.89115906 2.78421545 3.070069075
15.84879112 2.788393021 3.646496773
15.83094501 2.795544147 4.23249197
15.8150816 2.803408623 4.826633453
12.93338299 1.975988269 0.3192258477
16.05717087 2.717229843 0.7795022726
16.01937294 2.722432852 1.352909207
16.00361061 2.729693413 1.926803112
16.00704956 2.741394758 2.504583359
15.93587494 2.739116907 3.076311588
15.91693497 2.745956898 3.658141851
15.89103985 2.751383781 4.244463444
15.8608942 2.758977652 4.836843014
12.96877766 1.936396122 0.3196235597
16.10031891 2.670920134 0.781037569
16.08063316 2.677407265 1.356259108
16.0511055 2.681713581 1.930922747
16.05768013 2.697092295 2.510289669
15.99460793 2.694020987 3.084587097
15.95169163 2.698498964 3.663831472
15.948493 2.709207296 4.255951881
15.90340614 2.710656643 4.846177578
13.07684708 1.909857392 0.3174966276
16.14846992 2.61959219 0.7827448845
16.15215111 2.631311893 1.360050678
16.09261894 2.632155418 1.934636593
16.08998108 2.642593622 2.51408577
16.05188751 2.645327568 3.092679501
16.00290298 2.648690939 3.672464371
16.00513649 2.660678864 4.267199993
15.96909809 2.66439271 4.861400604
13.59312057 1.971256971 0.30068627
16.22128296 2.576228142 0.7843762636
16.17994881 2.578329086 1.362249136
16.16188049 2.585437775 1.940389276
16.13705063 2.594091892 2.519477606
16.11423111 2.600337267 3.101536751
16.05973053 2.599813461 3.682149649
16.04634666 2.608438492 4.275137901
16.03027916 2.619643688 4.875589848
13.62268543 1.92786622 0.3013745844
16.24761391 2.519673109 0.7861107588
16.22908592 2.529736519 1.365220189
16.22066498 2.539011002 1.945379019
16.1865139 2.542891264 2.525171041
16.16096306 2.551636696 3.108183384
16.11775398 2.553793669 3.692113161
16.08106041 2.557514906 4.281756878
16.08753777 2.573697567 4.888825893
16.31370163 2.477167606 0.7876861691
16.27611923 2.480443954 1.368132234
16.25978661 2.48815155 1.948986411
16.25606346 2.501522541 2.533009768
16.20560646 2.502243757 3.114562035
16.17313576 2.509818554 3.701659918
16.13800621 2.514049292 4.293292046
16.13518143 2.525371313 4.899656296
16.35478783 2.426219225 0.7893563509
16.33867455 2.434056282 1.371615291
16.30989647 2.442305565 1.953357816
16.30661201 2.452871084 2.538854361
16.25979805 2.454591036 3.12234354
16.23090935 2.463082552 3.711648941
16.19349098 2.467034817 4.304505348
16.17128372 2.474382401 4.90759325
16.32903481 2.361690044 0.7910224199
16.40110016 2.387280703 1.375111938
16.3682785 2.394881725 1.95838356
16.36676216 2.40588522 2.545757055
16.32161903 2.408168316 3.13125205
16.27889442 2.414025784 3.719912529
16.27950478 2.425935268 4.322389603
16.22623062 2.427081585 4.920380592
15.83594322 2.205717325 0.7925386429
16.44378853 2.336240053 1.377918839
16.42456627 2.346703291 1.963282228
16.40532112 2.354253054 2.550367832
16.3949604 2.363691092 3.141847372
16.35184288 2.369690418 3.732708931
16.30788422 2.372737885 4.327801704
16.29816246 2.382880926 4.937539101
15.7838459 2.138350487 0.7941375375
16.49417114 2.286459208 1.381018043
16.48267365 2.298560381 1.968333721
16.46714783 2.306957006 2.557505608
16.42543221 2.310364485 3.146319151
16.39182281 2.318431616 3.739605188
16.34568977 2.321258783 4.335303783
16.34903908 2.334081411 4.949383736
15.76094532 2.076948166 0.7957424521
16.55225754 2.237872124 1.384411573
16.52888489 2.247802496 1.972555637
16.53274536 2.2600317 2.565076828
16.46739769 2.259104252 3.152474165
16.44517326 2.269558907 3.748948097
16.41790009 2.276247025 4.350316525
16.39405441 2.283847809 4.959785938
13.99485111 1.65018332 0.3005019128
16.62789154 2.192193508 1.388457775
16.5808239 2.19787693 1.977209926
16.58648682 2.210470915 2.571402073
16.53255653 2.211996317 3.161993027
16.50418663 2.221435308 3.759348631
16.4784584 2.228587151 4.362843513
16.44654274 2.234792948 4.972138405
14.03083229 1.608694077 0.3009180129
15.82069874 1.974068165 0.7990176082
16.67928123 2.144627094 1.391580343
16.65616608 2.151928902 1.983567357
16.62638664 2.158061028 2.576265812
16.59706306 2.167362452 3.17144084
16.53595543 2.167913675 3.764881611
16.53695869 2.180176735 4.374966621
16.50980568 2.190438032 4.987328053
14.06908989 1.564891338 0.3013466299
15.84195709 1.92372191 0.8005782366
16.72515488 2.092796564 1.394585729
16.70781898 2.101256847 1.988248348
16.69496727 2.113608599 2.584213257
16.66196632 2.119425058 3.18098855
16.60385132 2.123791933 3.776965141
16.56402206 2.128658295 4.380340576
16.56583214 2.141397238 5.000676155
14.08357334 1.516792297 0.3025983274
16.77677536 2.041702747 1.397817135
16.76078033 2.053528547 1.992995858
16.74827194 2.063048601 2.590574503
16.69944 2.06622839 3.186629295
16.66631889 2.075320005 3.788100958
16.62800407 2.080668211 4.3937397
16.62935066 2.093378544 5.015978813
14.10380745 1.469610453 0.3036513925
14.53852558 1.586690187 0.8024995327
16.83218002 1.990970254 1.401203871
16.82393456 2.004258156 1.998549342
16.80534554 2.012833595 2.597370386
16.75234795 2.015516281 3.194521904
16.72282982 2.025422573 3.798204422
16.67644119 2.029551506 4.403811455
16.66980171 2.040913105 5.025466919
14.09429741 1.417454839 0.3057210445
14.46032906 1.521413326 0.803907752
16.89729118 1.941537619 1.404963732
16.86924171 1.951587558 2.002841711
16.87599373 1.964578629 2.605658293
16.80900574 1.965144396 3.202987432
16.76803017 1.970258355 3.806310177
16.75169945 1.982786536 4.419745445
16.71390915 1.988862276 5.035936356
14.08696556 1.363254309 0.3077958226
14.51647568 1.476184368 0.8055416346
16.96668816 1.889385223 1.408970714
16.93258476 1.898610115 2.008510351
16.91363907 1.907382369 2.610455036
16.87771225 1.913422346 3.213237762
16.82858467 1.917396665 3.817224979
16.81380844 1.930322051 4.432857037
16.77745628 1.936852813 5.051365376
14.2508316 1.338599324 0.3039670885
14.48558998 1.416674495 0.8070720434
17.00980186 1.835595846 1.411964536
17.0056076 1.846806169 2.014904499
16.96090317 1.851533175 2.616320372
16.93797874 1.862918496 3.2222929
16.87490463 1.864846945 3.82561779
16.85985184 1.877840042 4.442548752
16.84611893 1.888295412 5.068180561
14.23254681 1.287383199 0.306245774
14.49319172 1.368656397 0.8085035682
17.05622673 1.785134196 1.415024996
17.06375694 1.798275352 2.020142078
17.02866745 1.804735303 2.624350786
16.99763298 1.814987659 3.231273651
16.94199371 1.818379164 3.837784529
16.909132 1.828634739 4.453000546
16.89695168 1.839446902 5.080545425
14.19468784 1.230862856 0.3092621565
14.48086739 1.317576528 0.8099074364
17.12864113 1.735384107 1.419131517
17.10402679 1.746632814 2.024110317
17.08058548 1.755089045 2.630698919
17.03804016 1.760655642 3.237543344
17.00506401 1.770885229 3.84926486
16.95871735 1.776174307 4.463551998
16.94425774 1.786735773 5.09203577
14.26340294 1.190313458 0.3086855114
14.50829983 1.270001888 0.8114504814
17.19696236 1.684550047 1.423108816
17.15247536 1.692958474 2.028747797
17.14852905 1.704517484 2.638846636
17.10176277 1.709669232 3.247200727
17.0431385 1.716161013 3.856292009
17.04099846 1.728480577 4.481236935
17.02015495 1.738179564 5.110841274
14.33596802 1.149863482 0.3079924881
15.96439457 1.431089401 0.8154968619
17.24535942 1.630367398 1.426369667
17.21259689 1.640743971 2.034254074
17.21239662 1.652920485 2.646584988
17.15749931 1.657093763 3.255746365
17.10829926 1.665277481 3.868237734
17.090271 1.675279021 4.491815567
17.07097435 1.685362816 5.12333107
14.37080669 1.103689551 0.3085695207
14.51913452 1.1681633 0.8144763708
17.2995224 1.576737404 1.429861903
17.28835869 1.590402007 2.040920019
17.26429939 1.599206448 2.653062105
17.2267952 1.606157899 3.266278505
17.16551781 1.612837434 3.878795385
17.13744736 1.621480584 4.501986504
17.13698578 1.634479165 5.139732361
14.3797493 1.053788543 0.3100105226
14.55796051 1.121908545 0.8160587549
17.35154533 1.522475481 1.4332937
17.34619522 1.537062168 2.046313047
17.31209373 1.544595957 2.659126043
17.29201317 1.554228425 3.276261806
17.24011803 1.562528253 3.892525434
17.1999321 1.569624901 4.515523911
17.18748665 1.580947042 5.152248383
14.44796848 1.011724353 0.3094873428
14.67987919 1.086677432 0.8178220987
17.42517662 1.470854878 1.437550306
17.39793968 1.48254478 2.051289082
17.37350845 1.4915905 2.666692495
17.32569885 1.497512102 3.281743526
17.3028717 1.510097861 3.904165506
17.25064278 1.51571846 4.526558399
17.23781776 1.527100921 5.164776802
14.41759491 0.9514055252 0.3123996258
17.5249424 1.403651237 0.825684011
17.48558998 1.410813689 1.441488862
17.45624352 1.422403216 2.056891918
17.44343948 1.433166742 2.675309896
17.40904427 1.441146493 3.294480085
17.34869003 1.448850393 3.912838697
17.3310318 1.459426999 4.544086456
17.27722549 1.465330839 5.17457056
14.54700089 0.9164527059 0.3098787665
17.57056618 1.34732008 0.8276128173
17.5688076 1.359515309 1.44615078
17.517519 1.368458033 2.062614202
17.48479462 1.376736641 2.680772305
17.46395111 1.386674881 3.303094864
17.40328598 1.394612789 3.92310071
17.38138962 1.404761314 4.555148602
17.36179543 1.415483356 5.195908546
14.6740427 0.8829319477 0.3073742688
17.61997795 1.291201115 0.8295620084
17.60588264 1.305032611 1.449024916
17.58456612 1.314870477 2.068783283
17.52991295 1.320546508 2.686672688
17.52616692 1.335902095 3.312762499
17.45771408 1.340022564 3.933375597
17.43702888 1.353558779 4.567393303
17.41892433 1.364596844 5.210338116
14.6521368 0.830986619 0.309751749
17.66487122 1.237357378 0.8314204812
17.65667725 1.252014637 1.452431321
17.64910316 1.263667703 2.074731112
17.6001358 1.270304918 2.69527173
17.57448387 1.283023357 3.320462465
17.53114128 1.290579796 3.947091818
17.48475075 1.301025629 4.577967644
17.48937035 1.31507194 5.228200436
14.55884933 0.7684434652 0.3145267963
17.63014793 1.17389369 0.8330842257
17.72553825 1.197721362 1.45661664
17.69962311 1.210414648 2.07968092
17.66824341 1.219385624 2.703672647
17.62692642 1.22725451 3.328832626
17.59465599 1.2394768 3.959063053
17.55789566 1.248239517 4.594115734
17.55040359 1.260864854 5.24372673
14.7454319 0.7377309799 0.3102140427
17.11865234 1.053139329 0.8335555196
17.80217361 1.143877625 1.461118937
17.75826263 1.154666424 2.085315466
17.75235558 1.166781545 2.713897228
17.68902206 1.172315478 3.338633537
17.65250206 1.184218287 3.97008419
17.62505531 1.19429338 4.609017372
17.58430862 1.203022361 5.252422333
14.6855278 0.6791940928 0.3138921261
17.2028904 1.00199163 0.8355833292
17.85878563 1.087312222 1.46488595
17.82069016 1.098988175 2.091253996
17.80667496 1.110267043 2.720922947
17.79029274 1.121426821 3.354125023
17.70626259 1.128124714 3.980414391
17.6959362 1.140336275 4.624777794
17.66810799 1.150796413 5.273845196
14.85205173 0.6447142363 0.3102739751
17.16368484 0.9370613098 0.8372741342
17.91521835 1.030393839 1.468666077
17.89087486 1.043753266 2.097788572
17.86081123 1.053415179 2.72796154
17.85205841 1.065519214 3.363960028
17.76766968 1.072567582 3.992168188
17.73750877 1.082648873 4.634234905
17.72091484 1.094528675 5.287457466
14.87133312 0.5942687392 0.3114059567
17.16800117 0.8769789934 0.839089036
17.96153069 0.9720515013 1.472081661
17.95295525 0.9872179627 2.103758097
17.91872025 0.9966118336 2.73544383
17.89789963 1.007532954 3.371536016
17.8386879 1.017642379 4.005702972
17.79054832 1.02596736 4.646230698
17.78318214 1.038968921 5.303530216
14.89840317 0.544480443 0.3122896552
18.03946877 0.9166256189 1.476724029
18.00096512 0.9288772941 2.108722448
17.99820709 0.9416652918 2.74530673
17.9474926 0.9496484399 3.379692554
17.89583015 0.9608188272 4.01678133
17.86284828 0.9709694386 4.662457943
17.84526825 0.98301512 5.319617748
14.90938091 0.4930386841 0.3136865199
15.81235313 0.6250659227 0.8383510113
18.12519264 0.8614439964 1.481689811
18.06466675 0.8717665672 2.114866257
18.06367683 0.8848084807 2.753681183
18.00871277 0.8926267028 3.389569044
17.98020744 0.9063854814 4.032822609
17.93108749 0.9151045084 4.677858829
17.89753532 0.9256494641 5.333271503
14.88633537 0.4384833574 0.3161593378
15.8335104 0.571380198 0.840088129
18.19085312 0.8038204908 1.485911727
18.14208603 0.8155580759 2.122047663
18.12104797 0.8267617822 2.761208773
18.07763672 0.8359581828 3.40059948
18.01935768 0.8470038176 4.040748596
18.00887871 0.8597376943 4.69538641
17.96697998 0.8696622252 5.351348877
14.93677998 0.390489608 0.3163034916
15.84452438 0.5166659355 0.8417975307
18.22846413 0.7432538271 1.489076972
18.20145226 0.7571924329 2.127931118
18.16833115 0.7674350739 2.767671585
18.16411591 0.7804644704 3.414211988
18.08182907 0.7895789742 4.052931786
18.07481575 0.802739501 4.710398197
18.03238487 0.8128362298 5.368461609
15.01097584 0.344144851 0.3157084882
15.69793034 0.4483590722 0.8429555893
18.29175758 0.6846908927 1.493250489
18.26686668 0.6957812309 2.134366035
18.23918533 0.7098997235 2.776737928
18.20705032 0.7205316424 3.421569347
18.15614319 0.729629159 4.067351818
18.09800911 0.7382730246 4.71622467
18.11112404 0.7568128705 5.389025211
15.13306713 0.2984526753 0.3137142658
18.40958786 0.6137038469 0.8545644283
18.36707115 0.6234894395 1.498000264
18.32783318 0.6367650032 2.140426636
18.32200241 0.6496981978 2.787216902
18.27962494 0.6596599221 3.433317661
18.24372864 0.6735246778 4.084173203
18.18498039 0.6824016571 4.735915661
18.17062569 0.6954078078 5.404796124
15.12326241 0.2445702255 0.315771997
15.66729736 0.3329175115 0.8462505341
18.44591713 0.5652988553 1.502824664
18.39681244 0.5747850537 2.14718771
18.38851929 0.5908394456 2.795886517
18.33596611 0.6001894474 3.442700386
18.2921505 0.6103941202 4.094022274
18.24085236 0.6201628447 4.748956203
18.21421814 0.635445714 5.416557789
15.1613102 0.1915927827 0.3164230287
18.53960609 0.4909999371 0.8590703011
18.5168457 0.5027330518 1.507457495
18.46136475 0.5152243972 2.153573751
18.45111656 0.5280040503 2.804238319
18.41800117 0.5391490459 3.455912352
18.35385132 0.5512004495 4.10626936
18.32355118 0.5629171729 4.767838478
18.30228806 0.5756196976 5.439725876
15.1890173 0.140312776 0.317311734
18.61216927 0.4311775863 0.8613293767
18.57338142 0.4419074059 1.511464715
18.53566933 0.4559684098 2.160712481
18.51922035 0.4683951139 2.813157558
18.47986603 0.4792648256 3.466184855
18.41536331 0.4915945828 4.118532181
18.38463593 0.5034567118 4.782082558
18.35707474 0.5158291459 5.454463005
15.21238613 0.09125472605 0.3182489872
18.6865387 0.3709932566 0.86361444
18.62949562 0.3839434385 1.515386105
18.60381317 0.3957860172 2.167426348
18.58911133 0.4084857702 2.822309732
18.53145027 0.4214901924 3.47494173
18.48649025 0.4323023856 4.132585526
18.43945885 0.4463689327 4.794971943
18.43272018 0.4604478776 5.474522591
15.25754452 0.0434059985 0.3185180724
18.74253654 0.3124230802 0.8657414317
18.70137787 0.3266879022 1.519945145
18.67155266 0.3384076357 2.174056292
18.65463638 0.3510718048 2.830945015
18.59074593 0.3639346361 3.484856606
18.55329132 0.3754728734 4.145846367
18.50385284 0.3896219134 4.809993267
18.48692131 0.403069973 5.489190578
15.28674412 -0.008319897577 0.3193690777
18.80234528 0.2537324131 0.8678990602
18.76530647 0.2651829422 1.524309278
18.7231884 0.2795802057 2.179518223
18.71998024 0.2932462692 2.839595079
18.67771149 0.3045394421 3.498900175
18.62777328 0.3187387884 4.160544872
18.59556007 0.3310419917 4.831066608
18.54500198 0.3423820734 5.504954815
15.36367416 -0.05761968344 0.3187667131
18.8661499 0.1916178763 0.8701896667
18.85098076 0.2045352161 1.529553056
18.80270004 0.2188315541 2.18716836
18.77739334 0.2312408984 2.847491503
18.72497177 0.2421293557 3.50722599
18.68262291 0.25704211 4.171803474
18.66757965 0.2706041932 4.847919464
18.61061478 0.2818138003 5.522702217
15.46041107 -0.1064103991 0.3175756037
18.81592178 0.122854583 0.87198627
18.90452957 0.1415504515 1.533557296
18.86608124 0.1566305906 2.193650961
18.85245895 0.1698735654 2.857362986
18.81944656 0.1821358055 3.522455931
18.75297546 0.195905596 4.185923576
18.73159027 0.2092153281 4.863091946
18.69150925 0.2217154652 5.544405937
15.52704144 -0.1573099941 0.3173146248
18.51976395 0.04194192961 0.8726456761
18.96784592 0.07871225476 1.537970662
18.95315742 0.09525839984 2.201933384
18.92930984 0.1080931872 2.867471695
18.88210487 0.1198037341 3.533110142
18.82509422 0.134391591 4.200417995
18.77783012 0.146421656 4.874457359
18.77607346 0.1612859666 5.567114353
15.46768475 -0.2142590731 0.3208664954
18.40921593 -0.03129149973 0.8742163181
19.04492569 0.01612754911 1.54295361
19.00632095 0.02832468227 2.207808733
19.00809669 0.04258622974 2.877920151
18.95245743 0.05742944777 3.544930696
18.90502167 0.0695110634 4.216457844
18.8591404 0.08186712861 4.893586159
18.82559586 0.09843749553 5.580971718
15.53595734 -0.2655398846 0.320564121
18.3440609 -0.09529818594 0.8757865429
19.12179756 -0.04698281735 1.547955513
19.07106018 -0.03512040526 2.214489698
19.07047844 -0.01758051664 2.886433601
19.01469421 -0.005787093658 3.555617332
18.96674538 0.009807956405 4.229102612
18.93604279 0.02314869501 4.911679745
18.8903923 0.03601562977 5.598786831
15.5860796 -0.3179625869 0.3208169341
18.31877708 -0.1604250818 0.8776407838
19.20245361 -0.1104630902 1.553135991
19.14541435 -0.09526047111 2.221829891
19.13478851 -0.08138903975 2.895284653
19.10440254 -0.06822727621 3.570352316
19.02460861 -0.05708365515 4.241254807
18.99531746 -0.04019215703 4.926067352
18.96659279 -0.02630161494 5.619577885
15.61813736 -0.3740703762 0.3217043281
18.35533333 -0.2262840569 0.8799030781
19.26903915 -0.1783825308 1.557882309
19.22779083 -0.1622762531 2.229994535
19.20893288 -0.1486002952 2.905351162
19.1623764 -0.1358810663 3.580601454
19.0999279 -0.1236755475 4.256637573
19.07791901 -0.1062650979 4.945680141
19.04076004 -0.09254276007 5.639997005
15.62592888 -0.4283939898 0.3232282102
18.30170822 -0.2953734994 0.8817133904
19.33527374 -0.2433992028 1.562540889
19.30793953 -0.229945153 2.238030434
19.27886772 -0.2164757997 2.91499877
19.23384476 -0.20010598 3.592780828
19.18276787 -0.1871682256 4.273364067
19.13479805 -0.1705773473 4.959674358
19.12814713 -0.1554532647 5.663788795
15.59348965 -0.4811235666 0.3258540928
19.40318489 -0.3054250181 1.567190766
19.37768364 -0.2917565107 2.245126724
19.37220573 -0.2773438394 2.927087069
19.28522301 -0.2621148825 3.601986647
19.24563408 -0.2485438287 4.286430836
19.21089172 -0.2312564105 4.977838993
19.17455292 -0.2170746177 5.6771245
15.61090279 -0.5351660252 0.3270859122
17.04376984 -0.4501391351 0.8787590265
19.49495697 -0.3706443906 1.572929025
19.45320892 -0.3538452983 2.2526896
19.43355942 -0.3397518396 2.935683489
19.36615372 -0.3269247115 3.615643501
19.31223106 -0.3102173507 4.300229073
19.28882217 -0.2957080901 4.996552467
19.24601936 -0.2815363705 5.697000504
15.73805809 -0.5871331096 0.3250931799
17.05322838 -0.5094110966 0.880664885
19.56652641 -0.4369718432 1.577883005
19.50468445 -0.4204221368 2.258572817
19.47888374 -0.406360507 2.942641973
19.43894768 -0.3925175071 3.62816453
19.38263702 -0.3755917847 4.314864159
19.35676765 -0.3609870672 5.01315403
19.31532478 -0.3465356231 5.716400146
15.7351141 -0.6421135664 0.3269335628
16.97450066 -0.5704697371 0.8820855618
19.63587189 -0.5038141608 1.582773566
19.59182167 -0.4865997434 2.267180443
19.5557785 -0.4725623727 2.953133821
19.53130531 -0.4581614137 3.643596888
19.46270943 -0.4445962906 4.3314147
19.41276741 -0.4270197451 5.027213097
19.40378189 -0.4115304947 5.740762234
15.86594772 -0.6981159449 0.3249569833
17.06757927 -0.6311842203 0.8845604062
19.71103859 -0.574498117 1.588034272
19.66880989 -0.5569750071 2.275163174
19.63249397 -0.5427427292 2.963752985
19.58786964 -0.5285307169 3.653947353
19.55630875 -0.5139070749 4.350495338
19.48225784 -0.4965307117 5.044381142
19.49011803 -0.4805589318 5.764758587
15.94660378 -0.7555173039 0.3244638145
18.18234062 -0.6801050305 0.8929820061
19.7739563 -0.6458641291 1.592826009
19.73757172 -0.6280190349 2.282562494
19.72088051 -0.6132863164 2.975715637
19.66990089 -0.5989124179 3.668080807
19.62994003 -0.5808086991 4.365906239
19.56126213 -0.5663775802 5.063702583
19.55295181 -0.5506407619 5.782837868
15.96106243 -0.8110937476 0.3258123696
19.91689873 -0.7284289598 0.9052186608
19.86456108 -0.7139638066 1.598668575
19.80205536 -0.6961618662 2.289569139
19.80103493 -0.6811103225 2.986709595
19.7556057 -0.6664130688 3.682707548
19.69547081 -0.6483112574 4.379900455
19.66147804 -0.6330961585 5.087637901
19.61551285 -0.6177567244 5.80082655
16.01330376 -0.863876164 0.3259828091
19.98136711 -0.7975801826 0.9077939987
19.9489193 -0.7792499065 1.604178548
19.8762722 -0.7646821737 2.297350168
19.87100983 -0.7495666742 2.996618748
19.82325363 -0.7312062979 3.694635391
19.74305725 -0.7164344788 4.390680313
19.71456337 -0.6975573897 5.101230145
19.70301056 -0.6816014051 5.825163841
15.96141148 -0.9169216156 0.3291524649
20.05558968 -0.8636540771 0.9103366137
20.00907898 -0.8451711535 1.608724594
19.96819687 -0.8301672339 2.306405067
19.95267296 -0.814991951 3.007763624
19.90651512 -0.7963522077 3.708902597
19.82188606 -0.7812591791 4.407112598
19.79282951 -0.7621795535 5.12039566
19.7709198 -0.7461851239 5.844565392
15.96131229 -0.972628355 0.3309138417
20.10359383 -0.9301818609 0.9127354026
20.08699799 -0.9149904847 1.614136219
20.04793167 -0.8962729573 2.314570665
20.03808975 -0.8809437156 3.019370556
19.96975899 -0.8655653596 3.720393419
19.90836334 -0.8465736508 4.425001144
19.8513279 -0.8308458328 5.135409832
19.85797691 -0.8145820498 5.869051456
15.96301842 -1.028342247 0.3326201439
20.03936005 -1.00000453 0.9145488143
20.17466164 -0.9853944182 1.619979978
20.12142754 -0.969892323 2.322520971
20.10736275 -0.9509269595 3.029335976
20.04859161 -0.9352545142 3.734228134
19.98277283 -0.9194201231 4.440973282
19.94668007 -0.9033952355 5.158684254
19.91378975 -0.8836038709 5.885622978
15.98052216 -1.084251404 0.3338750303
19.45488548 -1.068405867 0.9131065607
20.25808525 -1.056389093 1.625680804
20.19867134 -1.040557623 2.330684423
20.18828392 -1.025000453 3.040762663
20.14696312 -1.005585432 3.750992537
20.05104446 -0.9892941117 4.455775261
20.0320282 -0.9731112123 5.179731369
19.99066734 -0.9530787468 5.907668114
10.27475262 -1.05504477 0.4970009923
19.42621803 -1.132542253 0.9149677157
20.34524727 -1.128010869 1.63156867
20.27964783 -1.111814022 2.339173079
20.25112724 -1.092418194 3.049987793
20.22134018 -1.076407671 3.764286995
20.12501526 -1.056178808 4.471563816
20.12499237 -1.039985418 5.202402592
20.09442329 -1.023234367 5.936682701
10.25220013 -1.090494275 0.4987597764
19.35128975 -1.199176669 0.9166263938
20.41617203 -1.200000048 1.63681376
20.36841011 -1.180187821 2.348180532
20.32362938 -1.163920879 3.060452938
20.2816143 -1.147583008 3.775560617
20.22027969 -1.130831361 4.491557598
20.17664337 -1.110570192 5.21620512
20.17273712 -1.093894124 5.959266186
10.23948288 -1.1277982 0.5002915859
10.24791145 -1.096922159 0.8571266532
20.43685913 -1.255937219 2.355906487
20.41765976 -1.239855886 3.073497295
20.36134338 -1.22302556 3.789879799
20.31722832 -1.206213593 4.511937141
20.24750137 -1.185300946 5.234422207
20.24297523 -1.168512225 5.979995728
10.22867012 -1.163273215 0.5017091632
10.245121 -1.134409785 0.8583077788
10.23862839 -1.124662876 1.215865612
10.23357201 -1.116698503 1.574169874
10.25570297 -1.109236956 1.937083483
20.38053894 -1.278148055 4.526096821
20.3552742 -1.257677078 5.26070261
20.31107903 -1.240092754 6.000134468
10.27174377 -1.198449731 0.5015663505
10.23629093 -1.16815567 0.8593340516
10.23579216 -1.158526778 1.216862917
10.22076035 -1.150296688 1.574329615
10.24689007 -1.142998576 1.937274098
10.22649479 -1.132717729 2.297954321
10.22872829 -1.124634743 2.665143013
20.40234184 -1.325970531 5.273582935
20.36740685 -1.308376193 6.017194271
16.02754021 -1.41775465 0.3429399133
10.23934174 -1.202192426 0.860444963
10.23484039 -1.192436099 1.217945099
10.23175812 -1.184468031 1.576331735
10.22604752 -1.1763798 1.936125398
10.22551632 -1.166550756 2.299034357
10.21593857 -1.158165812 2.664056063
10.23044395 -1.148440957 3.038327456
10.24467182 -1.140279412 3.419392109
16.04776764 -1.471664906 0.3440310359
19.63903618 -1.542920113 0.929410696
20.84103394 -1.562511206 1.66620183
10.25061512 -1.218966603 1.578953147
10.23688126 -1.210588932 1.938547373
10.22838116 -1.200500727 2.300701141
10.21876907 -1.19206655 2.665858746
10.21371555 -1.181831479 3.035970211
10.20869446 -1.173209429 3.411515713
16.06549644 -1.53405416 0.3454531729
19.47864532 -1.60911417 0.9305528402
20.90413857 -1.644793153 1.671545863
20.89118195 -1.624545336 2.403065681
20.84253883 -1.606628776 3.13370204
10.25070381 -1.240470529 2.305468559
10.21545506 -1.229353905 2.666692734
10.2142458 -1.220990658 3.037651777
10.21500587 -1.212502718 3.414757729
16.07921982 -1.590803981 0.3468121886
18.23505974 -1.627678275 0.9234819412
20.99117279 -1.721183896 1.677690744
20.93816948 -1.699252129 2.40925622
20.92509842 -1.682425618 3.145652533
20.86237526 -1.663616419 3.879540682
20.82516861 -1.641946197 4.621160984
10.23624706 -1.25734508 3.043953896
10.23680115 -1.248818755 3.421874523
16.10871887 -1.648389816 0.3477402031
18.25038528 -1.692068338 0.9256579876
21.08990479 -1.798709989 1.684367657
21.02672768 -1.776045084 2.418706656
21.01333427 -1.759060025 3.158296824
20.94820595 -1.739825249 3.895067453
20.88493538 -1.716892481 4.635073185
20.83826256 -1.698015571 5.383956909
20.81113625 -1.679584622 6.146149635
16.14200974 -1.706388474 0.3485686779
18.25150108 -1.755910754 0.9277326465
21.16040802 -1.875638723 1.689878345
21.11301041 -1.853365779 2.428024769
21.09334183 -1.835957766 3.170066595
21.03573227 -1.816738009 3.910910606
20.95228577 -1.792598963 4.650452137
20.93242264 -1.774600029 5.407822609
20.89866066 -1.755682707 6.171908855
16.16311073 -1.763989687 0.3497316241
21.30643845 -1.973345399 0.9536057711
21.24658966 -1.953860998 1.696090579
21.19303131 -1.931018591 2.436900854
21.17505455 -1.913518786 3.182082415
21.1387825 -1.895014167 3.929125547
21.06061745 -1.870683551 4.673461914
20.99312401 -1.850352883 5.424386024
20.98203468 -1.832239151 6.196694374
16.16604042 -1.820734501 0.3513868749
21.40639877 -2.053234339 0.9568184614
21.3284893 -2.032494545 1.702154636
21.29865074 -2.010578871 2.447815657
21.26242828 -1.991976976 3.19479394
21.1960907 -1.971717477 3.940607309
21.15686798 -1.948961139 4.694322109
21.08281136 -1.927954078 5.447433949
21.0651207 -1.909387827 6.22150135
16.18074608 -1.878232241 0.3527234793
21.45414734 -2.130879879 0.9596412778
21.43403816 -2.113055229 1.709269643
21.39998627 -2.090667486 2.45844698
21.35546494 -2.071372747 3.208202839
21.28077507 -2.05033493 3.956223249
21.24889374 -2.027714014 4.714482307
21.17025375 -2.006100655 5.4700737
21.13824463 -1.986611605 6.243834019
16.19125748 -1.935581207 0.3541725874
21.52956009 -2.210571289 0.9627056122
21.53529549 -2.194136381 1.716240048
21.46297073 -2.172983408 2.466267347
21.46208763 -2.15225029 3.223212957
21.38293839 -2.130557537 3.974509716
21.30897141 -2.109046221 4.728974819
21.27276421 -2.089429379 5.49630928
21.23428345 -2.065649986 6.27218008
16.22132111 -1.997188449 0.3551864326
21.09151459 -2.26150012 0.9616784453
21.63001442 -2.279319763 1.723099589
21.55573082 -2.253908157 2.476323843
21.54038811 -2.2359128 3.235215902
21.46085358 -2.213830233 3.989409924
21.42002106 -2.190184593 4.752814293
21.37324142 -2.169698954 5.522020817
21.33170509 -2.149183989 6.301170826
16.26331902 -2.057052374 0.3558009267
21.0467186 -2.332360268 0.9637244344
21.70272446 -2.359963655 1.728911996
21.66980934 -2.340710878 2.488244295
21.62060165 -2.316540241 3.247345209
21.55646706 -2.295057058 4.006863117
21.49320793 -2.273490429 4.769894123
21.44976044 -2.252937555 5.542693615
21.43099022 -2.229850531 6.33056736
16.28515816 -2.115736008 0.3569548726
21.04929543 -2.410007238 0.9662886262
21.78908539 -2.442117691 1.735351205
21.74204254 -2.421661854 2.496789217
21.71609688 -2.40260911 3.261425257
21.65572166 -2.377256155 4.024931908
21.59380913 -2.355434895 4.791967392
21.53624344 -2.329909325 5.565307617
21.52609634 -2.310961723 6.358990192
16.31098747 -2.172043562 0.3579188287
21.07407951 -2.48200345 0.9688078761
21.89336205 -2.52238512 1.742471218
21.82221413 -2.499914885 2.505856991
21.81380844 -2.481941223 3.275511026
21.73718834 -2.455107927 4.040246964
21.6865406 -2.433767319 4.812488079
21.64192772 -2.408835173 5.59226799
21.61731911 -2.388725758 6.386314392
16.34835434 -2.232358217 0.3586696684
20.93113327 -2.541055679 0.9698768258
21.99106026 -2.606752396 1.749480963
21.9180088 -2.579923153 2.51619935
21.9013195 -2.561196566 3.288490295
21.82201576 -2.53760004 4.056296825
21.7593708 -2.511290073 4.829389095
21.72169876 -2.490398884 5.613752365
21.6847744 -2.469221592 6.40777874
16.36955833 -2.291604519 0.3598485589
20.84952354 -2.607858896 0.9715813398
22.08644104 -2.691660404 1.756429076
22.01716614 -2.664738655 2.527004242
21.98426628 -2.644566059 3.301163197
21.93018913 -2.622559786 4.075917244
21.86689568 -2.595846415 4.852994919
21.832304 -2.574935198 5.642184734
21.7963295 -2.553560972 6.440778255
16.39652252 -2.351534843 0.3608792722
20.83744812 -2.680073977 0.9738947749
22.16954994 -2.776233435 1.762876749
22.1120224 -2.749944448 2.537521601
22.07085037 -2.728851557 3.314311743
22.02620316 -2.707334995 4.093791008
21.96820641 -2.680685997 4.875532627
21.91338539 -2.657912493 5.664149284
21.90755463 -2.638707399 6.473807812
16.40933228 -2.410396576 0.3622803986
20.82512093 -2.752216339 0.9762086868
22.24835777 -2.861057758 1.769171357
22.2144928 -2.836525202 2.548693895
22.1769104 -2.815481424 3.329753637
22.12188721 -2.792789936 4.111690044
22.07114792 -2.766429186 4.898463726
21.99414635 -2.741476536 5.686135292
22.00686073 -2.723691225 6.503859043
16.42391777 -2.469547749 0.363635689
22.46543884 -2.976969481 0.9936864376
22.26877594 -2.901607513 3.34363246
22.21526718 -2.878770113 4.129319191
22.17962646 -2.853417873 4.922516346
22.11542892 -2.829194069 5.717248917
22.0904026 -2.808047056 6.52992487
16.45818901 -2.53078723 0.3644856513
22.56554413 -3.065637112 0.9972447753
22.23488808 -2.9363482 4.936732292
22.21691322 -2.916007996 5.744056225
22.18325806 -2.893883944 6.558521748
16.48427582 -2.591477633 0.3655503094
22.63345909 -3.151841402 1.000529647
16.51013947 -2.652361631 0.3666235209
19.41057968 -2.899886847 0.9724918604
16.51987839 -2.71171236 0.3681097031
19.3815937 -2.965251923 0.9745001793
16.54331017 -2.772724628 0.3692493439
19.37823105 -3.033290386 0.976757884
13.70171165 -2.336770773 3.855095625
16.58042145 -2.835527897 0.370046854
19.32296562 -3.095466137 0.978507936
23.24937439 -3.522513866 1.834495664
23.44854736 -3.483609438 4.338622093
23.03809929 -3.415141582 5.107751369
13.69240475 -2.384018898 3.855793238
16.59942627 -2.896481752 0.3713044822
22.03249359 -3.480906248 1.007894158
23.28165054 -3.608417511 1.839045286
23.26930618 -3.584082127 2.658956289
23.24768257 -3.56266737 3.481511593
23.2503643 -3.543829918 4.312708855
13.61503029 -2.423638105 3.841262341
23.31227112 -3.487127781 6.882020473
16.64166451 -2.963432312 0.3720704019
19.40759277 -3.249192476 0.9841918349
23.20401192 -3.685542822 1.838797331
23.22694206 -3.66949892 2.659343004
23.26853943 -3.655486107 3.488111019
23.28333282 -3.633899212 4.322069645
23.22506714 -3.607620955 5.152197838
13.36467934 -2.445159674 3.788047314
16.66453171 -3.022381544 0.3731512427
22.05510712 -3.643585205 1.013512969
23.27188301 -3.771935463 1.84484601
23.22338104 -3.747126818 2.662359238
23.20772552 -3.726242542 3.484692335
13.80837631 -2.568540335 2.886115551
23.23698807 -3.686984777 5.158771515
13.33010197 -2.485881329 3.782972097
23.25772095 -3.645158768 6.878306866
16.68681908 -3.084416151 0.3743361235
19.36974335 -3.374984264 0.9882096052
23.38053703 -3.868146181 1.852944136
23.33032799 -3.838693857 2.674336195
23.31427193 -3.817582846 3.500765324
13.83364677 -2.620518208 2.892481565
23.21156311 -3.761901855 5.158371449
13.33772755 -2.533914089 3.787554741
23.23388863 -3.724401474 6.877454281
16.70689201 -3.146357775 0.3755779862
19.3530407 -3.441500664 0.9903601408
23.51257324 -3.968262196 1.862158656
23.4146328 -3.932281733 2.68471384
23.41006851 -3.912483931 3.515852451
12.4561758 -2.493493319 2.685190439
23.28287697 -3.853066921 5.176484585
13.26771545 -2.572268724 3.774701357
23.16753387 -3.798241854 6.865515709
16.73267365 -3.209292412 0.3766820729
21.86312675 -3.848486185 1.019289732
23.61250877 -4.065079689 1.86995542
23.54006767 -4.032000542 2.698483944
23.52320862 -4.010420799 3.533034801
23.3635788 -3.946033955 5.196457386
13.30019188 -2.623441458 3.784955263
23.26795959 -3.893115997 6.897420883
16.77406311 -3.274659157 0.377407521
21.86655617 -3.926656246 1.021965623
23.72986603 -4.16508007 1.87859869
23.66055489 -4.136225224 2.712103367
23.61232185 -4.105977535 3.547486544
11.95833397 -2.514677763 2.613841295
23.45892334 -4.045781136 5.219534397
13.28571033 -2.670992374 3.784820318
23.35456276 -3.986963034 6.925823689
16.799366 -3.338062286 0.3785317838
23.75412941 -4.276464939 1.045215487
23.83296013 -4.263996124 1.886635542
23.77921486 -4.236942768 2.725458384
23.72996902 -4.210459232 3.565556765
11.9759388 -2.559565544 2.618817806
23.60311699 -4.1488657 5.251711369
13.28686237 -2.71827364 3.78810215
23.34681702 -4.068705082 6.929529667
16.83431816 -3.403140545 0.3794255257
21.87851524 -4.084018707 1.027396798
23.9494915 -4.365660191 1.8953408
23.8935051 -4.337970734 2.738523006
23.85232162 -4.308064938 3.583843946
12.01686954 -2.607937098 2.627397537
23.74164391 -4.248025417 5.282683372
13.28625393 -2.763002872 3.790873051
23.29086685 -4.1437397 6.920619488
16.86902237 -3.468483686 0.3803303838
20.64877892 -3.978764296 1.016431808
24.07152939 -4.469069004 1.904353261
23.99617195 -4.433898926 2.750512123
23.95989609 -4.408702374 3.600686789
11.98129082 -2.645497084 2.624289989
23.85127068 -4.352509975 5.308803082
13.32378292 -2.815596581 3.8024652
23.26532745 -4.222824574 6.919781685
16.92672729 -3.540744066 0.380775243
23.34773827 -4.468383312 1.049334049
24.18656158 -4.576676369 1.913263202
24.0952034 -4.538647175 2.76264596
24.06443787 -4.514018059 3.617467642
11.96092033 -2.687263489 2.623648405
23.94488907 -4.455534935 5.332003593
13.29702759 -2.861429453 3.79971385
12.97219372 -2.802037954 4.210253716
16.92140961 -3.600430489 0.3826514184
20.80938339 -4.158687592 1.023553133
24.30968475 -4.68217659 1.922434211
24.22530174 -4.64904213 2.777398586
24.18423271 -4.622573376 3.636129618
11.96614552 -2.73069191 2.626839876
13.78388786 -2.996710539 3.406615734
13.26818562 -2.906790018 3.79652071
12.93831539 -2.843130827 4.204683304
16.94943047 -3.665581465 0.3837303817
23.28668213 -4.625497341 1.05435884
24.4185524 -4.786384106 1.930992007
24.33196831 -4.752467632 2.790102243
24.29706764 -4.722353458 3.65361762
12.00051403 -2.778773308 2.634545326
13.7610569 -3.039873838 3.405182362
13.26694012 -2.951530933 3.799298763
12.75704479 -2.861386776 4.160173893
16.96931458 -3.729637861 0.3850062788
23.26365089 -4.705098152 1.056959391
24.53093529 -4.892014027 1.939764619
24.45070648 -4.854332924 2.803666592
24.43037796 -4.830620289 3.673825502
11.97806931 -2.818059683 2.633535624
13.81728554 -3.097943306 3.418983459
24.20187759 -4.727184772 6.287567139
12.76313877 -2.907853127 4.16519928
16.99487305 -3.794873238 0.3861506581
23.20484352 -4.77863884 1.059143424
24.65272331 -5.000137329 1.949033618
24.5715313 -4.966228485 2.817873478
24.55145836 -4.937952518 3.692678452
11.9828167 -2.861674786 2.636738539
13.81078434 -3.148745775 3.421043873
24.31805992 -4.836775303 6.320330143
12.74613857 -2.950701952 4.164155006
17.03739166 -3.866382837 0.3869875968
24.82269859 -5.142444611 1.081303477
24.80482483 -5.118834496 1.959970355
24.69456291 -5.075102806 2.832134247
24.65567017 -5.047839642 3.709851503
12.02019596 -2.912980318 2.645138264
13.60480976 -3.163933277 3.38490057
13.46091461 -3.128188372 3.853560209
12.73052025 -2.995979786 4.16369009
17.091959 -3.937352657 0.3874620199
24.92986679 -5.250305653 1.085667968
24.88037872 -5.221011639 1.967164278
24.821064 -5.18555069 2.846754789
24.76407623 -5.154891014 3.727375031
12.05967522 -2.962825537 2.653780699
13.68955803 -3.227073908 3.40426755
13.40077972 -3.166240692 3.843286753
12.52433109 -3.006893873 4.112496853
17.1251297 -4.00183773 0.3883570731
24.90269852 -5.335143566 1.088445663
25.00547409 -5.328132153 1.976573586
24.96082306 -5.299364567 2.862552404
12.61015034 -3.112905741 2.2869699
12.02336693 -2.997623682 2.650594234
13.31702137 -3.211573601 3.336196423
13.40441895 -3.212519407 3.84740901
12.53982162 -3.052186728 4.119968414
17.15216637 -4.065479755 0.3893994987
24.67926025 -5.379792213 1.088675499
25.11834145 -5.433978558 1.985452294
25.0910778 -5.408056259 2.877423763
25.04875946 -5.379306316 3.770518541
12.01810741 -3.03773427 2.652234316
13.30902672 -3.255605221 3.337677956
13.31949997 -3.243302107 3.831333399
12.69998455 -3.122941732 4.165975094
17.19216156 -4.13491869 0.3902344108
24.67408371 -5.463373661 1.091549516
12.42488861 -3.165360212 2.269500494
12.22047234 -3.117664337 2.686285496
13.84585381 -3.400335789 3.443871498
13.38197327 -3.302378654 3.849151373
12.57370472 -3.146030188 4.136017799
17.22541428 -4.206551075 0.3913195133
24.64931297 -5.552226543 1.094496965
26.24737549 -5.831718445 2.047282934
12.63115883 -3.250739098 2.296697378
12.24121284 -3.167735815 2.692329645
13.17338181 -3.32880187 3.318229437
12.39780045 -3.172696114 3.6274786
12.4755621 -3.175630331 4.113717556
17.25248337 -4.277335167 0.3925522864
21.72367668 -5.082745075 1.060946822
26.22899246 -5.927799225 2.050526381
12.41933823 -3.258430481 2.273967266
11.98201466 -3.165147305 2.654789209
11.79131603 -3.116718054 3.055637836
12.40249634 -3.220484495 3.632086754
12.5979948 -3.245586157 4.150283813
17.27594376 -4.344540119 0.3937825263
21.7521019 -5.166967392 1.0640558
26.30919838 -6.038345814 2.05835104
12.4206295 -3.303561449 2.276597977
11.52928638 -3.121291399 2.58682394
11.77168941 -3.155525923 3.05479455
12.40743256 -3.266185999 3.636626005
12.806036 -3.330479622 4.209663391
17.31482124 -4.415147781 0.3946669996
24.52381325 -5.799304485 1.10239315
26.10483932 -6.093040943 2.052435637
12.32041645 -3.328781605 2.267063618
11.49605656 -3.156480551 2.584241152
11.7770071 -3.199126959 3.0587852
12.36432362 -3.302648306 3.630161762
12.67365837 -3.351152658 4.178144455
17.37299538 -4.490111828 0.3951221406
24.44187164 -5.871675014 1.104451895
26.14712906 -6.196314812 2.05846858
26.14573097 -6.169104576 2.992823362
12.78299236 -3.466224909 2.325205564
11.3832407 -3.175596714 2.569213629
11.76096153 -3.238574743 3.058685303
12.3191967 -3.338468075 3.623249769
12.75196743 -3.412396431 4.203021049
17.42758369 -4.561653137 0.3955794871
21.76297379 -5.406105518 1.072502494
26.10386848 -6.277665138 2.060165644
26.11133385 -6.257003307 2.994593859
12.75433922 -3.506773472 2.324371338
11.33477592 -3.20497632 2.564114809
11.73707962 -3.276387453 3.057094812
12.37004566 -3.391104698 3.63829422
12.62183571 -3.430207968 4.171904564
17.47797394 -4.632760525 0.3961402476
21.74006653 -5.476556778 1.074847341
26.20700645 -6.389481068 2.069028616
12.93246078 -3.598915339 1.882897496
12.83493137 -3.567547798 2.33660078
11.37722683 -3.252866507 2.573288441
11.71928501 -3.313206434 3.056549788
12.29453659 -3.418294191 3.624249697
12.58081532 -3.465331316 4.164672375
17.49420357 -4.70009613 0.3975610435
21.72475815 -5.548557758 1.077295184
26.33409691 -6.512051105 2.079322577
12.82389545 -3.620637178 1.875913739
12.9074831 -3.627249479 2.347911358
11.3339386 -3.285149574 2.56916213
11.73363018 -3.358822584 3.062411547
12.36940098 -3.478559017 3.645116091
12.49945545 -3.494151354 4.146820068
17.55441284 -4.780559063 0.3980971277
21.72905159 -5.632781029 1.080292344
26.46745682 -6.641866684 2.090193748
12.8195715 -3.668807507 1.878008008
12.87004852 -3.668601513 2.346226215
11.20315361 -3.300509214 2.551401138
11.78193951 -3.413987875 3.075064659
12.42442799 -3.537499189 3.661663055
11.45815754 -3.321967602 3.870855808
17.60129738 -4.855381012 0.3988497853
25.88007927 -6.635906219 1.139720321
26.62854958 -6.774131775 2.102295637
12.73524952 -3.699457169 1.873300195
12.84994602 -3.713537216 2.346653461
11.26212311 -3.354225874 2.563389778
11.75749111 -3.45164609 3.073475599
12.3133049 -3.561048985 3.639802694
11.49847031 -3.372364759 3.885459423
12.88939857 -3.844328403 0.5042309165
23.10604477 -6.101688862 1.104823947
26.7656517 -6.90233326 2.113283157
12.79531765 -3.759468317 1.880797625
12.82294559 -3.752176762 2.345984221
11.29769039 -3.403261185 2.571738005
11.69692898 -3.479102373 3.064717054
12.35937786 -3.613863945 3.654006481
11.46110058 -3.406147003 3.879179955
12.84402466 -3.881159782 0.5065352917
23.12086868 -6.189839363 1.108035803
26.88853836 -7.028468132 2.123632431
12.8556366 -3.817686319 1.88823545
12.82824898 -3.800337553 2.349397182
11.24627686 -3.433033466 2.566371918
11.50931072 -3.479869604 3.031347752
12.17438412 -3.61777401 3.614803076
11.48782253 -3.453965187 3.89022994
12.80828094 -3.920003653 0.5086200237
12.84843254 -3.887691736 0.9673455358
12.85303402 -3.864262104 1.890434146
12.67077732 -3.811238766 2.332983732
11.16396332 -3.455439091 2.556112766
11.54405975 -3.529950857 3.041320324
12.19495773 -3.667021751 3.623329401
11.6595993 -3.5347929 3.940567017
12.82298851 -3.970721483 0.5096027255
12.83402538 -3.931574821 0.968824923
12.8127985 -3.915524483 1.42833674
12.95505047 -3.935397148 1.901646733
12.71260262 -3.867537498 2.340875626
11.01617432 -3.462090731 2.535451174
11.6302824 -3.59224987 3.061407566
12.19632816 -3.712067842 3.627438307
17.77274895 -5.220888138 0.4040994346
12.79807854 -3.970253706 0.9699986577
12.78853607 -3.956934929 1.429185867
12.80218697 -3.949096441 1.891072273
12.8450079 -3.945696115 2.35989809
11.12817287 -3.529044628 2.556025028
11.54167652 -3.616297483 3.047512293
12.32234955 -3.788634062 3.660846949
11.87188721 -3.669842005 4.006145
17.79255867 -5.291497707 0.4054784775
22.96792603 -6.497468948 1.118120074
12.78743744 -4.003858089 1.431204677
12.75067616 -3.983867645 1.889089584
11.11105537 -3.565940619 2.55613184
11.60641003 -3.674260139 3.063504934
11.72041607 -3.688602209 3.524029016
11.65670776 -3.662535667 3.951887131
17.83420753 -5.364538193 0.4063037932
22.94340134 -6.5721035 1.120650411
27.99422264 -7.790875912 2.200915098
12.73834133 -4.025591373 1.890372753
12.68614197 -4.001655579 2.346143723
11.1269474 -3.608755589 2.561374903
11.44608688 -3.676073551 3.035206318
11.66532898 -3.716348648 3.514723301
11.95925808 -3.776040792 4.038036823
17.86120987 -5.437567234 0.407538414
22.88759232 -6.638857841 1.122725844
27.91753197 -7.875378132 2.201622725
12.71039772 -4.063424587 1.890313864
12.15134144 -3.913676739 2.283063173
27.93509293 -7.800778389 5.248042583
11.51239586 -3.734677792 3.05158329
11.68355274 -3.763877392 3.522771835
11.99012566 -3.827703953 4.050715446
17.88905334 -5.514467239 0.4088509679
22.8838253 -6.727090836 1.125870705
28.00587463 -8.006524086 2.210949183
12.63484001 -4.093806744 1.886370897
12.06879902 -3.940171719 2.275808334
12.38168716 -4.007893562 2.768005848
11.49596119 -3.775304079 3.051906586
11.99628448 -3.887070894 3.600112915
11.45159912 -3.740741968 3.908505201
17.92125893 -5.589510441 0.4099857509
22.80614662 -6.796346664 1.127922654
28.18775749 -8.157402039 2.22487092
12.64996243 -4.146952629 1.890321374
12.11513615 -3.999051571 2.284462452
12.28245735 -4.028562069 2.755378485
11.42468739 -3.799845457 3.041267872
11.9055357 -3.910806656 3.582980394
12.19128323 -3.969250917 4.114552021
17.97634888 -5.670985699 0.4106465578
22.80772591 -6.877468109 1.130852342
28.3611908 -8.307616234 2.238447905
12.73487377 -4.216119766 1.900269389
11.9835453 -4.007741928 2.270857334
12.13539982 -4.036230564 2.735053778
11.41097927 -3.83662796 3.041821003
11.9764328 -3.970961332 3.603437901
12.0246582 -3.97193408 4.073528767
18.0175705 -5.749274254 0.4116075933
26.78742599 -8.020071983 1.1943506
28.53004646 -8.458115578 2.251876354
12.73912239 -4.262330532 1.903076887
12.0800209 -4.077748299 2.285638094
12.15476418 -4.086482048 2.741431952
11.31299114 -3.853523016 3.025896072
12.02573776 -4.028311253 3.619098902
12.09212017 -4.034093857 4.096485138
18.03145409 -5.820541382 0.413144052
26.69094276 -8.094208717 1.196489573
28.66153908 -8.600039482 2.263465405
12.84402561 -4.34036541 1.914998174
11.98811722 -4.098330021 2.277082443
12.19684219 -4.143002987 2.751508474
11.30754089 -3.896357059 3.028456688
11.43882275 -3.92048192 3.485016108
12.07140636 -4.073670387 4.095379353
18.07782936 -5.901015759 0.4140112698
26.60842896 -8.176614761 1.199011564
28.83479118 -8.754505157 2.277283669
12.72412872 -4.355865479 1.907073736
12.07774639 -4.169643402 2.291250229
12.20241928 -4.190082073 2.755750418
11.33092499 -3.944871187 3.036598682
11.97041035 -4.105436325 3.614507675
12.07671452 -4.120116711 4.101448536
18.12771034 -5.982962132 0.4148155153
