# .PCD v0.7 - Point Cloud Data file format
VERSION 0.7
FIELDS x y z
SIZE 4 4 4
TYPE F F F
COUNT 1 1 1
WIDTH 1303
HEIGHT 1
VIEWPOINT 0 0 0 1 0 0 0
POINTS 1303
DATA ascii
-25.9509182 23.13502693 0.603626132
-61.67458725 58.72568512 2.671215057
-57.5773201 54.60533142 5.227948189
-8.333664894 5.752043247 2.196114063
-7.84734726 5.189672947 0.3608211279
-25.91575813 23.25540352 0.5980141163
-61.70450211 59.16039276 2.665330887
-33.02026749 30.53118515 4.824919224
-29.05483055 26.63664627 5.609093189
-8.316740036 5.769073009 2.195097923
-30.3266983 28.12011147 8.585246086
-7.804191589 5.176665783 0.364733696
-25.86027908 23.35596657 0.5928184986
-61.64195633 59.50514984 2.656899452
-32.94208908 30.66010857 4.821902275
-29.86803818 27.64224243 5.763407707
-29.72289467 27.59431076 7.077367783
-30.35670471 28.342556 8.614505768
-7.773810387 5.176050186 0.3664872944
-25.79312134 23.44503403 0.5878578424
-29.5123024 27.46684837 5.711287975
-29.51669884 27.57077599 7.045938015
-30.22133255 28.39662743 8.597634315
-7.751878262 5.183731079 0.3667975664
-25.77465248 23.58384895 0.5817375183
-30.89908409 28.98515129 4.576593876
-28.77761269 26.89793968 5.591650963
-33.3094902 31.79056358 9.48781395
-7.710431099 5.171515942 0.3704889119
-25.71080971 23.6769886 0.5766302347
-30.83989716 29.12121201 4.57565546
-28.68277931 26.98246956 5.585479736
-33.51877213 32.10818481 7.997103214
-7.688564301 5.178928852 0.3708040416
-25.64380646 23.76708794 0.5715690255
-55.26741409 54.7113533 7.693647385
-28.6192627 27.09960556 5.584934711
-33.49723053 32.30536652 8.010698318
-29.76760483 28.50538826 8.533620834
-7.654242039 5.173429012 0.373298049
-25.62356758 23.90599823 0.5653496385
-56.18059921 56.04518127 7.822905064
-28.62777901 27.29281044 5.597345829
-28.67373466 27.44106293 6.915203571
-28.80309486 27.67931557 8.28143692
-7.628914833 5.178454876 0.3740567267
-25.58065033 24.03009033 0.5592888594
-56.0594902 56.09838486 5.136965275
-55.60425568 55.82504272 7.762300014
-28.52154922 27.37540817 5.589847565
-28.63127136 27.58297348 6.921271324
-28.84941101 27.91762543 8.315613747
-7.613967896 5.192677498 0.373162806
-25.53153419 24.14017677 0.5536748767
-31.77560425 30.81410789 3.273636103
-31.73226357 30.86983299 4.717005253
-27.99722099 27.00304031 5.50661993
-28.68733215 27.84043694 6.951152325
-28.82210922 28.07902908 8.329080582
-7.587403297 5.193200588 0.3744979501
-25.50244331 24.26384735 0.5478636026
-31.43774223 30.67759514 1.820995927
-31.14189339 30.33867645 3.226583004
-31.66580391 31.00948906 4.71564579
-28.0063076 27.19657707 5.519236088
-28.40853882 27.72067833 6.901669502
-28.90065384 28.35586548 8.373042107
-7.556039333 5.189968586 0.3765209317
-25.46321678 24.38555336 0.5419143438
-31.31335449 30.75297737 1.81426084
-31.16855049 30.57401848 3.230406523
-31.69498825 31.25268936 4.726635456
-28.10256958 27.47650528 5.547180653
-28.32839012 27.82297897 6.899208069
-28.83944702 28.48323059 8.377240181
-7.526106358 5.188018322 0.3783051074
-25.43701363 24.52192688 0.5355821252
-31.23902893 30.88216209 1.808801651
-31.51748657 31.27385712 4.711081982
-28.09046364 27.65064049 5.556250572
-28.30252838 27.98477554 6.909536839
-29.57950401 29.4895153 8.612380028
-7.497589588 5.187365532 0.3798495829
-25.41419601 24.66280746 0.5291054845
-31.36258888 31.20364952 3.24898386
-30.50983429 30.38762856 4.588304043
-28.15775108 27.91298866 5.579858303
-28.27318764 28.14379883 6.919195175
-28.48069 28.4786644 8.317749023
-7.465079784 5.18219614 0.3821301162
-25.40686607 24.82151413 0.5221607685
-31.25010681 31.29361725 3.242153406
-30.40024757 30.47489166 4.581296921
-28.11151314 28.05258369 5.582977295
-28.7077446 28.81760788 7.038279057
-28.37007713 28.55090332 8.307824135
-7.440716743 5.185621738 0.3829492331
-25.38239479 24.97094727 0.5152414441
-60.49433517 64.00292969 8.491235733
-28.04999924 28.17595482 5.58339119
-29.07196617 29.42127419 7.141524792
-28.19518471 28.55094528 8.279260635
-7.414290428 5.188138962 0.38397035
-25.37855148 25.14426994 0.5076963902
-31.31229019 31.9213295 4.714737415
-27.71332169 28.00152397 5.534077168
-29.03318214 29.58968353 7.150859833
-27.87511063 28.39575005 8.209399223
-7.395895958 5.199346542 0.383523345
-25.35105133 25.29256248 0.5007177591
-59.73363876 63.84540176 5.452811241
-27.33346939 27.77447319 5.476637363
-28.98697472 29.75079536 7.158590794
-27.70308876 28.40513992 8.18252182
-7.374815941 5.207525253 0.3835657537
-25.3360424 25.45591736 0.493324846
-59.37046432 63.90221405 5.428803921
-27.68498993 28.37355042 5.553633213
-28.83833504 29.79608917 7.142048359
-28.40587807 29.41490173 8.412432671
-7.357877731 5.217238426 0.3832063377
-25.3343792 25.60959816 0.4866125286
-27.3717823 28.20021629 5.50719595
-28.39363098 29.58314705 8.42984581
-7.325106144 5.20907402 0.3857980669
-25.32762718 25.76729965 0.4795995653
-31.78115654 33.33430481 4.806909561
-27.49744415 28.52874565 5.541815281
-28.60393143 29.91616249 7.120404243
-28.28580666 29.65189362 8.420406342
-7.281928539 5.18883276 0.3903665245
-25.31744385 25.92221451 0.4726163149
-31.58451843 33.33698273 4.789212227
-27.36569214 28.5622673 5.528908253
-28.43954849 29.9208107 7.098269939
-28.65295601 30.28557777 8.552936554
-7.248642921 5.180944443 0.3929284811
-12.9734354 11.79937077 0.3207598031
-25.29422951 26.07205391 0.4655557871
-31.48823547 33.4550209 4.784705639
-27.13873291 28.49384308 5.498892307
-28.2870388 29.94859695 7.079874992
-28.63698387 30.47627449 8.572554588
-7.228480816 5.187855244 0.3930274546
-12.92695141 11.82624626 0.3189252913
-25.29449654 26.25918007 0.457343787
-31.37595558 33.55460358 4.778125763
-27.02962112 28.56179047 5.490770817
-28.10526085 29.94099236 7.05437994
-28.73271942 30.80080986 8.625736237
-7.211457729 5.199823856 0.3923403323
-12.84532356 11.81197166 0.3200151324
-25.2897892 26.44208336 0.4491859078
-31.2975502 33.7057991 4.776470661
-26.9154892 28.6334362 5.482353687
-27.97983551 30.0093708 7.043430328
-28.61693573 30.88695335 8.61734581
-7.187939167 5.204189777 0.3928893805
-12.81239891 11.85040951 0.3173177838
-25.27300644 26.60318565 0.4417035878
-33.99528503 37.1456604 5.142457008
-26.79988098 28.70309258 5.473688126
-27.76686859 29.97254372 7.011190414
-28.50484657 30.96671104 8.608874321
-7.146646023 5.184508801 0.3972473145
-12.78252602 11.8886652 0.314617008
-25.26888275 26.77140236 0.4341641665
-34.27386093 37.72425842 5.188293457
-27.07234764 29.21889687 5.5368433
-27.38047028 29.70392609 6.934597492
-29.12577438 31.92298698 8.82002449
-7.122180939 5.184305191 0.3983892798
-11.89584827 10.90944767 0.3846222162
-25.25293541 26.93598747 0.4265039861
-34.18102646 37.8750267 5.185414791
-26.95320892 29.26699829 5.526499271
-27.31017303 29.8144207 6.935093403
-29.01760864 32.01361465 8.813607216
-7.101365089 5.191307545 0.3984513581
-11.83104134 10.90619564 0.3848590255
-25.21749306 27.08761787 0.4189633131
-34.03670502 37.97711945 5.176197052
-26.80522156 29.29981041 5.511990547
-27.1642704 29.8535862 6.918972969
-28.88385582 32.08398819 8.800832748
-7.090707302 5.210413456 0.396522969
-11.79229069 10.93041325 0.3831181526
-25.17184258 27.21858788 0.4120921493
-26.58708382 29.24569321 5.484153271
-28.28085518 31.44833946 7.214349747
-31.15323448 35.11627579 9.518343925
-7.07514143 5.220619678 0.3959246576
-11.75775814 10.95613861 0.3812572658
-25.09723854 27.30554962 0.4065148532
-26.50065994 29.33204842 5.480014324
-27.14803314 30.25093842 6.953019619
-31.05220604 35.22452164 9.51538372
-7.051986217 5.221571445 0.3968215883
-11.74207878 11.00495434 0.3777333796
-25.0424614 27.41713142 0.4002640247
-33.49267197 38.09132767 5.131825447
-27.63287735 30.93523407 5.70864296
-29.16978073 32.97812653 7.473366737
-30.44769478 34.71360397 9.359688759
-7.02936554 5.224563599 0.397426486
-11.72816563 11.05985928 0.3737588227
-24.94990349 27.49191475 0.3947840333
-27.64081764 31.16132355 5.724026203
-30.08820343 34.36540985 7.723397732
-30.31273651 34.78735733 9.347458839
-7.015511513 5.238242626 0.3962824643
-27.32935143 30.9861927 5.678217411
-29.64834785 34.04948807 7.635719776
-30.18002319 34.86366653 9.335970879
-7.003332615 5.255573273 0.3945899606
-29.09727669 33.34258652 4.566790104
-27.19952774 31.04915047 5.667913437
-29.55864143 34.1867485 7.636483669
-6.989835262 5.271321297 0.3931437731
-31.13860703 36.18265533 4.852624416
-28.17755508 32.53178406 5.871853828
-29.36399269 34.1895752 7.610959053
-29.96578026 35.09398651 9.330566406
-6.960539818 5.264064789 0.3952991664
-31.5464592 36.82422638 1.718430758
-31.28059196 36.47487259 3.291687727
-31.05350685 36.31556702 4.85004282
-27.97543716 32.48860168 5.846785069
-29.95890236 35.19013214 7.782544136
-29.7950592 35.10817719 9.30593586
-6.938695908 5.266016006 0.3959517777
-31.33533669 36.81123734 1.709146857
-31.14309311 36.54180527 3.283172369
-30.49622917 35.85057831 4.783560276
-27.96283531 32.68996429 5.85850668
-29.63764763 35.15122223 9.286941528
-6.912448883 5.263770103 0.3973162472
-31.17830849 36.86693954 1.701056838
-31.19180298 36.8631134 3.289510012
-31.69874191 37.67227936 4.957538128
-27.77117348 32.67021179 5.836193562
-30.09963417 36.01113892 9.462674141
-6.893558979 5.270798683 0.397172451
-24.50907326 28.29548073 0.3479396403
-31.10029793 37.00427246 3.284789562
-27.74805641 32.75027466 4.425706387
-27.59795952 32.67324066 5.817433357
-29.00478172 34.66916275 7.608428001
-29.89690781 35.99847031 9.430102348
-6.876319885 5.281472206 0.3964787126
-24.45468712 28.43248749 0.3403459787
-30.93797874 37.21596527 4.873579025
-28.62346077 34.27927017 6.034854889
-6.85061121 5.281047821 0.3975521922
-24.37547302 28.53754997 0.3335970044
-31.13018417 37.75066376 4.91058445
-25.46313858 30.4288826 6.746901035
-25.37770844 30.43968773 8.059232712
-25.24522972 30.38784027 9.368371964
-6.834546089 5.29313612 0.3966047466
-24.29577065 28.64239502 0.3268216848
-25.60567284 30.50200272 1.564166427
-25.57973289 30.45051765 2.854301453
-25.49806786 30.46440315 4.142362595
-25.41931152 30.4717865 5.435128689
-25.38319206 30.54838562 6.747796535
-29.42889404 36.18040085 9.381278992
-6.828331947 5.315111637 0.393972367
-24.24207878 28.75225639 0.3204288483
-25.54369545 30.60720825 2.85345149
-28.10258484 34.32340622 5.981151581
-29.33754158 36.30251312 9.382562637
-6.818858147 5.334488392 0.3917955756
-23.93328667 28.53803635 0.3227492273
-27.94148636 34.34895706 5.965417862
-29.18874931 36.35894394 9.367126465
-6.805738926 5.349075317 0.3903754056
-23.8545742 28.63311005 0.3163847029
-27.64171982 34.1824379 5.921971798
-28.38813782 35.50846481 9.141114235
-6.792558193 5.363624096 0.3889519274
-23.83549309 28.81038284 0.3076578379
-32.10025406 40.46602249 5.098455906
-27.63359261 34.41723251 5.936770916
-28.47302437 35.8844986 9.20068264
-6.769938946 5.365331173 0.3895623088
-27.44854927 34.40672684 5.916184902
-29.85107613 37.9278183 8.027243614
-28.47082329 36.12883759 9.230872154
-6.759794235 5.382418633 0.3876709938
-27.97424698 35.24848175 4.540462494
-27.39836311 34.58489609 5.922762871
-28.67408562 36.52412796 7.74185276
-29.20756721 37.43894577 9.504664421
-6.748786449 5.400047302 0.3857292831
-31.52636337 40.52590561 5.051072598
-27.65402222 35.18603516 5.990558147
-28.83600044 37.02086639 7.81032896
-28.36668777 36.50824738 9.262953758
-6.724199772 5.400472164 0.3865484893
-31.14990425 40.28475952 5.009261608
-27.44538116 35.15633392 5.966290951
-28.70327377 37.10051727 7.801121712
-28.25374794 36.6124382 9.259346008
-6.700438023 5.400228024 0.3874165416
-28.12223244 36.23394394 4.591352463
-27.28967667 35.18829346 5.951879025
-27.6806488 35.90533447 7.555698395
-27.86631012 36.31788635 9.164999008
-6.674068451 5.394465446 0.3891022801
-27.76198006 35.97755814 4.550405502
-27.05178642 35.1001358 5.920636654
-27.56469917 35.98639297 7.548886299
-28.66954231 37.76133728 9.465760231
-6.66748333 5.418354988 0.3861277699
-30.53141975 40.27485657 4.955698013
-27.42964172 35.89712524 6.0148592
-28.48810196 37.7723465 9.440544128
-6.653182507 5.433027267 0.3846412301
-30.03256798 39.85364151 4.896486759
-27.38624954 36.11042023 6.024812222
-27.39328384 36.27799606 7.555673122
-28.39261436 37.92398071 9.445858955
-6.636561871 5.444389343 0.3836658597
-35.1388092 47.51258087 3.656674623
-29.38982964 39.21125412 4.816331863
-26.54956627 35.14702988 5.870757103
-28.28326988 38.05578232 9.446723938
-6.618453026 5.451880932 0.3832503259
-34.98959732 47.64294815 3.64821887
-29.86696243 40.21260452 4.896431923
-26.42903137 35.22642517 5.863521099
-27.13680458 36.44543076 7.539921761
-6.604790211 5.465862751 0.3818023205
-35.11970901 48.19139099 3.662414074
-33.81278992 46.43879318 5.47809267
-26.84725571 36.11850357 5.968677044
-27.58912086 37.40202713 7.690304279
-27.96993446 38.14871216 9.413175583
-6.588847637 5.47651577 0.3808677495
-35.65512466 49.35728073 3.709583521
-29.30778694 39.9660759 4.8390975
-26.77794838 36.28194046 5.972678661
-27.32532501 37.27858353 7.645336628
-6.581698895 5.500294209 0.3778622448
-35.52124786 49.52295685 3.702534914
-33.00285721 45.90039444 5.38795948
-26.55354309 36.20907593 5.944220543
-27.13058472 37.25819778 7.619171619
-6.5634408 5.507563591 0.3774392903
-35.40847397 49.72173691 3.697224855
-29.09910965 40.24506378 4.832465172
-27.17212105 37.60254669 7.65837431
-6.539708614 5.506484985 0.3783124983
-35.27077866 49.88344193 3.689909697
-32.71670914 46.15015411 5.373665333
-26.957798 37.55117035 7.626852036
-6.518192768 5.508615494 0.3786693513
-34.77116013 49.4836235 3.653066874
-32.67720413 46.43720245 5.381790161
-26.87773132 37.70910645 7.632706642
-6.50858593 5.528942585 0.3761677444
-32.40325546 46.1509552 3.463386059
-31.86154747 45.50638962 5.275787354
-6.503173351 5.555922508 0.3726190329
-34.48958588 49.79253769 3.637942314
-31.62830925 45.48268127 5.255213737
-6.484779835 5.562879086 0.3721898198
-34.77646637 50.62802887 3.665489912
-31.16070366 45.08270645 5.199859619
-6.468500137 5.573111534 0.3712382317
-35.3794899 51.98142242 3.719143867
-30.98135757 45.13899231 5.187096119
-6.455357075 5.588319778 0.3695007861
-35.19498825 52.08253098 3.708211422
-30.88670349 45.33204651 5.186979294
-6.458968163 5.63038826 0.3635722697
-34.74657822 51.75396347 3.675536633
-30.69116783 45.36167526 5.171851158
-32.01915741 47.73534012 7.313149929
-6.461274624 5.670851707 0.3578911722
-32.62001801 48.66581345 3.504247189
-30.32716179 45.11261749 5.131397724
-31.82706833 47.78802872 7.297317982
-6.453411102 5.858179092 2.373546362
-6.408277035 5.806787014 2.568831682
-6.455016613 5.697881222 0.3542949557
-6.438989162 5.694486618 0.5543403029
-6.412921906 5.672557831 0.7536060214
-32.37687683 48.64095688 3.488191605
-30.13080406 45.13658905 5.116037846
-31.70137787 47.95074844 7.296079636
-6.407316685 5.819928169 2.360049248
-6.383326054 5.803821087 2.56384635
-6.372041702 5.809591293 2.77696085
-6.417589188 5.674170017 0.358572185
-6.419149876 5.699492455 0.5539442897
-29.61764145 44.62903976 5.052720547
-31.43268967 47.87401199 7.263419628
-6.381280422 5.815110683 2.355175972
-6.373069763 5.825838089 2.566335917
-6.342420101 5.798326015 2.768614531
-6.397004128 5.679576874 0.3583404422
-6.391084194 5.690783501 0.5550993681
-6.36948967 5.677707672 0.7527312636
-31.62026787 48.13119125 3.433617592
-29.48343086 44.75144196 5.046602726
-31.23848724 47.93950653 7.248463631
-6.361330032 5.822500706 2.353266954
-6.336621284 5.804758072 2.555827856
-6.321526051 5.801875591 2.76535964
-6.376231194 5.682703972 0.3584212661
-6.364325047 5.685847282 0.5558233261
-6.354859829 5.69104147 0.7515095472
-29.55923462 45.24934006 5.073280334
-31.49796104 48.76103973 7.333182335
-6.331490517 5.810688496 2.346682072
-6.299287319 5.779611111 2.544386387
-6.262700558 5.740854263 2.740038157
-6.355471134 5.685744762 0.3585030735
-6.334407806 5.673444748 0.5573788285
-6.328997612 5.685429573 0.751660645
-6.205147743 5.520177841 1.138070226
-6.197304249 5.527369499 1.512777686
-6.200409412 5.553444862 1.703852773
-6.176353455 5.53471756 1.890333891
-6.150479317 5.53420496 2.273141146
-6.127074718 5.516850471 2.462875366
-6.122013092 5.532028198 2.665142536
-6.326645374 5.675051212 0.3606990576
-6.314715862 5.678043365 0.5569927096
-6.302199364 5.677974224 0.7519417405
-6.139834881 5.531719685 2.07716465
-6.126617432 5.530049801 2.268768787
-6.110987186 5.526243687 2.461937904
-6.094603062 5.521364212 2.657435656
-6.30194521 5.671054363 0.3618437946
-6.297034264 5.686000347 0.5562164187
-6.277494907 5.673841476 0.7519766092
-6.190668106 5.547142506 0.9491465092
-6.182863235 5.556264877 1.136325479
-6.174343586 5.539775372 1.32354641
-6.166980267 5.549678326 1.511201143
-6.14821291 5.537868977 1.697512627
-6.139117718 5.544965267 1.886991739
-6.125626564 5.544507027 2.076944828
-6.100902081 5.522377968 2.263543129
-6.092028618 5.530508041 2.459510088
-6.073835373 5.522298813 2.653680325
-6.279301167 5.670369625 0.3624628186
-6.272343159 5.681838512 0.5568084717
-6.256844044 5.676509857 0.7515110373
-6.163500786 5.537392616 0.9488239884
-6.158680916 5.551702976 1.135274291
-6.155184269 5.543906689 1.322354674
-6.138930798 5.538225651 1.508425355
-6.126164436 5.536809444 1.695238709
-6.103495121 5.51981163 1.880226135
-6.112324238 5.55896759 2.07708168
-6.093360901 5.546994209 2.266459227
-6.087179184 5.560106277 2.4645226
-6.077214241 5.566821098 2.664569855
-6.263639927 5.68159914 0.361228168
-6.24374485 5.670660973 0.5581883192
-6.240175724 5.686021328 0.7505407333
-6.157216549 5.563988686 0.9473134279
-6.154289246 5.581825733 1.134483457
-6.135043621 5.546223164 1.321080804
-6.122756004 5.547474384 1.507483602
-6.131413937 5.584174633 1.699174285
-6.098009586 5.548008919 1.882487178
-6.111384392 5.595745087 2.081888914
-6.09041214 5.580162048 2.271506548
-6.077484131 5.581241608 2.467047215
-6.075706005 5.603011608 2.672629118
-6.240046501 5.679020882 0.362115413
-6.222162724 5.671444893 0.5582008362
-6.21164465 5.674647331 0.7510907054
-6.156681061 5.601038933 0.9454509616
-6.151679993 5.615459442 1.133707523
-6.142350674 5.597220898 1.322114229
-6.127003193 5.59320879 1.509730697
-6.123788357 5.609060764 1.700215578
-6.113467216 5.614299297 1.891128302
-6.104517937 5.622236252 2.084528208
-6.093844414 5.625356197 2.279535532
-6.086245537 5.636379719 2.479471684
-6.075809956 5.642623901 2.681801081
-6.217483997 5.678059578 0.3627400696
-6.201587677 5.673869133 0.5580186248
-6.189104557 5.673566341 0.7508845329
-6.157874107 5.641628742 0.9434605241
-6.145946026 5.643891811 1.132883787
-6.140572548 5.632621288 1.322391033
-6.1299963 5.63728714 1.511809945
-6.116982937 5.635691166 1.701470017
-6.118005753 5.661681652 1.896553874
-6.103165627 5.659095287 2.089312077
-6.082981586 5.644893646 2.281140566
-6.191064358 5.670094013 0.3644321859
-6.188822746 5.690092564 0.5562615991
-6.168552876 5.675871849 0.7504259348
-6.151044369 5.668305397 0.941919148
-6.131806374 5.655825615 1.322084188
-6.127903938 5.672709465 1.513117313
-6.066446304 5.654096603 2.280178785
-6.064207554 5.675316334 2.483485699
-6.094276428 5.757586956 2.711901903
-6.17054081 5.672380924 0.3645304441
-6.160486221 5.678461552 0.5576579571
-6.14801693 5.67809248 0.7499685884
-6.129581451 5.668732166 0.9412434101
-6.139752865 5.711327553 1.131276727
-6.120818138 5.699422359 1.513658166
-6.099115372 5.681995869 1.703071952
-6.082891941 5.676642418 1.89404285
-6.083940029 5.703502178 2.092753172
-6.060944557 5.683914185 2.284333467
-6.150995255 5.676317215 0.3643629551
-6.136111736 5.673661709 0.5582703352
-6.129420757 5.683725834 0.7492560744
-6.117233753 5.709964275 1.130235195
-6.107196808 5.689938068 1.320882201
-6.121112347 5.762887001 1.711119056
-6.024116516 5.655068874 2.273989677
-6.131455421 5.680175304 0.3641960919
-6.113714695 5.672241688 0.5584908128
-6.106994629 5.682278156 0.7490577698
-6.104157448 5.772111416 1.71013391
-6.020288467 5.68827486 2.278987885
-6.105270863 5.671777725 0.3659031689
-6.095159054 5.677718639 0.5579202771
-6.080815315 5.673709393 0.7493781447
-6.081584454 5.770738125 1.707832098
-6.082007885 5.668485641 0.3668118417
-6.078484535 5.686628819 0.5569521785
-6.060385227 5.675570965 0.7489281893
-6.064601898 5.779824257 1.706845999
-6.019215584 5.768670559 2.292351007
-6.057861805 5.663343906 0.3679923117
-6.048650742 5.670906544 0.5587702394
-6.039973259 5.677348614 0.7484796047
-6.065042973 5.822347164 1.710009694
-6.002249241 5.777652264 2.291366339
-6.045892239 5.68083334 0.3656841218
-6.028273582 5.672620773 0.558602035
-6.02144146 5.682572365 0.7477724552
-6.055181503 5.845505714 1.710758805
-6.027353764 5.686029911 0.3652541935
-6.001437664 5.66191864 0.5598342419
-5.999205112 5.680650711 0.7475867271
-6.019810677 5.819110394 1.705403209
-5.999615192 5.673598289 0.3675181568
-5.987576485 5.675796986 0.558269918
-5.969665527 5.664457321 0.7484497428
-6.01878643 5.809307575 1.316565633
-5.974815845 5.66849184 0.3686620295
-5.966423512 5.677684784 0.5580576658
-5.948560715 5.666290283 0.7479622364
-6.014255524 5.820202827 0.9299777746
-6.011676788 5.839913845 1.316460013
-5.952731133 5.66637373 0.3693182468
-5.944309711 5.675518036 0.5582970381
-5.930117607 5.671170235 0.7472614646
-5.965662479 5.791572094 1.312975168
-5.932491779 5.667690277 0.3694363236
-5.921340466 5.671481609 0.5587405562
-5.911670685 5.675979137 0.7465606928
-5.998628616 5.900290012 1.316317797
-5.917639256 5.679532528 0.3679308891
-5.89753437 5.665565968 0.5593894124
-5.887858868 5.67001009 0.7466531396
-5.890296936 5.66653204 0.3702193201
-5.878238678 5.668445587 0.5590325594
-5.862343788 5.660357952 0.7470151186
-5.828691006 5.69301033 1.677804112
-5.866603374 5.660497189 0.3714289069
-5.861598015 5.676599979 0.5580694675
-5.842210293 5.661331177 0.7465854287
-5.846483707 5.661465168 0.3715551496
-5.841425419 5.677548885 0.557915926
-5.826471329 5.671190262 0.7454910278
-5.827215672 5.661952496 0.3717309237
-5.815150738 5.663701057 0.5594366193
-5.807218552 5.673810482 0.7449290752
-5.810595512 5.669892788 0.3707698882
-5.793345928 5.660880089 0.5596960187
-5.785389423 5.670955181 0.7447699904
-5.787970543 5.667449474 0.3713972569
-5.775874615 5.66694355 0.5589393377
-5.760184288 5.660795212 0.745151341
-5.761118412 5.653783321 0.3737159073
-5.756705284 5.671532154 0.5583383441
-5.743573666 5.668574333 0.7441915274
-5.741147518 5.654325008 0.373852253
-5.735833168 5.670256138 0.5583990812
-5.720190048 5.661828041 0.7443110943
-5.726231098 5.665555954 0.3723457456
-5.712481976 5.663478851 0.5590770245
-5.701064587 5.664032936 0.7437580228
-5.707101345 5.667750359 0.3722087741
-5.690867901 5.66021204 0.5593488216
-5.68527317 5.673419952 0.7426626086
-5.684679508 5.662667274 0.3731719553
-5.674256325 5.667713165 0.5583901405
-5.657078266 5.655497074 0.7436079383
-5.663968563 5.658920288 0.3739116192
-5.655993462 5.669347763 0.5580961704
-5.637215137 5.655637264 0.7431968451
-5.639222622 5.648231506 0.3757086098
-5.632845879 5.662202835 0.558786869
-5.618205547 5.655330658 0.7428352833
-5.624265194 5.659134388 0.3742013574
-5.609773636 5.65495491 0.5594822764
-5.600003242 5.658963203 0.7421531677
-5.607655048 5.666367531 0.3732438385
-5.589179039 5.653068542 0.5595610738
-5.576178074 5.651916504 0.7422493696
-5.585421562 5.663013458 0.3738968074
-5.571004868 5.65656805 0.5590201616
-5.554843903 5.648066521 0.7421220541
-5.560917377 5.651938915 0.3757089972
-5.555938721 5.669483662 0.5573926568
-5.534348011 5.645960331 0.7418596745
-5.543598652 5.654963493 0.3753561974
-5.534659386 5.663359642 0.557939291
-5.518569469 5.654788971 0.7407673001
-5.523900509 5.654625893 0.3755114377
-5.506412983 5.642838478 0.5601102114
-5.502810955 5.661379814 0.7398599982
-5.508137703 5.661167145 0.3746041059
-5.486078262 5.638349056 0.5604586601
-5.477760315 5.648001671 0.7404381037
-5.486112118 5.657369614 0.3752706647
-5.474051952 5.658334732 0.5579947233
-5.458846092 5.651444912 0.7397170067
-5.461115837 5.646154404 0.3770558834
-5.452914238 5.65404129 0.5582975149
-5.438498974 5.648937225 0.7394646406
-5.441552162 5.645487309 0.3772200346
-5.42875433 5.644463062 0.559186101
-5.421931267 5.655594349 0.73851192
-5.423992634 5.721224785 1.277998209
-5.423504353 5.648414135 0.3768270016
-5.407001495 5.638135433 0.5597071052
-5.402376175 5.654783726 0.7381219864
-5.408407211 5.658624172 0.3753147721
-5.388996124 5.640952587 0.559178412
-5.382114887 5.652040005 0.7378753424
-5.312015533 5.720891476 2.376418114
-5.38532114 5.646378517 0.3772108853
-5.374011993 5.648931026 0.5580644011
-5.35898304 5.641785145 0.7381982803
-5.267627716 5.650681973 2.355308771
-5.364409924 5.641722202 0.3779432476
-5.355994225 5.651622295 0.5575355887
-5.340997219 5.644444942 0.7375323176
-5.23632288 5.616975784 2.343789339
-5.344162941 5.640983582 0.3780695796
-5.337980747 5.654246807 0.5570072532
-5.323015213 5.647036552 0.7368668318
-5.212429047 5.605307102 2.337998152
-5.327618122 5.647241592 0.3771197796
-5.314169884 5.64411211 0.5579176545
-5.307163239 5.655155659 0.735773325
-6.523275852 9.068191528 1.998885036
-5.152567387 5.457512856 2.119909286
-5.171046734 5.542066574 2.318830013
-5.117630482 5.427112579 2.466941357
-5.309641838 5.649741173 0.376732558
-5.294097424 5.641000748 0.5580307841
-5.284254551 5.644548893 0.7361102104
-5.193812847 5.434702873 0.9216470718
-5.191817284 5.460280895 1.090319514
-5.207086086 5.500844002 1.261848807
-5.162804604 5.412297726 1.426576614
-5.164310932 5.445260525 1.598632097
-5.149168015 5.435499191 1.767740965
-5.105379105 5.409077168 2.281475306
-5.28887558 5.644762039 0.377474308
-5.277555466 5.647119522 0.5570816994
-5.261442184 5.633841038 0.7364528775
-5.11954546 5.435263157 1.937260151
-5.10246706 5.417665958 2.106577396
-5.090961456 5.418537617 2.281532049
-5.078457832 5.417014599 2.458575726
-5.268166065 5.639696598 0.3782196343
-5.25961113 5.649450302 0.5565584898
-5.246305943 5.643624783 0.7352177501
-5.152549744 5.420049667 0.9208727479
-5.146337986 5.434360027 1.088588476
-5.139443874 5.446430683 1.426387548
-5.122537613 5.428850651 1.593750238
-5.108235836 5.421010971 1.762099028
-5.102428913 5.437327385 1.935669303
-5.079599857 5.403101921 2.101157427
-5.07585907 5.426118851 2.281107664
-5.060211182 5.415478706 2.455489635
-5.248884201 5.638260365 0.37840271
-5.239617825 5.646112919 0.5566770434
-5.224979401 5.636490822 0.7352792621
-5.131346703 5.410710812 0.9205669165
-5.135256767 5.453244209 1.087646008
-5.125784874 5.426352024 1.255909324
-5.11823082 5.437144279 1.424403548
-5.106750488 5.434574127 1.592844963
-5.088533878 5.415503025 1.759557605
-5.085317612 5.439325809 1.934079051
-5.065193176 5.412473202 2.101078272
-5.057563305 5.424468517 2.278290987
-5.048838139 5.433897972 2.458406687
-5.230990887 5.64046669 0.3780213296
-5.216958046 5.635216713 0.557654798
-5.209808826 5.646155834 0.7340427637
-5.118978977 5.425743103 0.9192894101
-5.108664036 5.428253174 1.254875779
-5.09179163 5.412709713 1.421352625
-5.088969707 5.434608459 1.591328502
-5.050562382 5.455837727 2.284077168
-5.050900936 5.49240303 2.473311901
-5.214448452 5.64632988 0.3770733476
-5.199093819 5.637322426 0.5571370125
-5.190573692 5.644498825 0.7336742282
-5.112232685 5.486888885 1.08580029
-5.094600201 5.468884468 1.424104691
-5.092705727 5.496614933 1.596514821
-5.077661991 5.486679077 1.766464353
-5.065921307 5.483879566 1.938450098
-5.059501171 5.499675274 2.116066217
-5.051413536 5.511145115 2.29605937
-5.046679974 5.530620575 2.482248306
-5.196048737 5.644390106 0.3773077726
-5.186052322 5.650317192 0.555378139
-5.167392254 5.631477356 0.7341805696
-5.123839378 5.538433075 0.9134275913
-5.112651825 5.539705276 1.084728479
-5.106736183 5.522219181 1.255912781
-5.097551346 5.529182911 1.427057147
-5.087645531 5.534233093 1.599042773
-5.077794552 5.537020206 1.772119761
-5.075801849 5.566025734 1.951505303
-5.062327862 5.558828354 2.127060652
-5.049645424 5.557021618 2.305681944
-5.042014122 5.570973873 2.491669416
-5.175533772 5.638932705 0.3780656159
-5.166844368 5.648554325 0.5552897453
-5.150887012 5.637188911 0.7332352996
-5.121390343 5.583688259 0.9108997583
-5.116622448 5.603928089 1.083597422
-5.106863022 5.575081825 1.256572366
-5.097522736 5.582002163 1.429455161
-5.086988449 5.582899094 1.602817655
-5.075532436 5.583939552 1.777167678
-5.073895931 5.614651203 1.958402514
-5.057799816 5.599752903 2.133898497
-5.052233219 5.619827747 2.319532156
-5.035295963 5.605864525 2.499443293
-5.156863689 5.641147137 0.3776407838
-5.147016525 5.644836426 0.5554190278
-5.134361744 5.642842293 0.7322891355
-5.116527557 5.625479698 0.9084613919
-5.116303921 5.656871796 1.082483888
-5.109214306 5.635573387 1.257464051
-5.098421574 5.638660431 1.432098627
-5.085641861 5.635949135 1.606884956
-5.064834118 5.60645628 1.778673172
-5.071053028 5.661450863 1.96494174
-5.033669949 5.657254219 2.512098551
-5.139026642 5.643010616 0.3772640228
-5.125118256 5.637555122 0.5559359789
-5.115243912 5.64088583 0.7319284678
-5.049573421 5.652074814 1.961274981
-5.047113895 5.681964397 2.14748168
-5.024110794 5.684853077 2.517670631
-5.122023106 5.64453125 0.3769351244
-5.107499599 5.637160778 0.5556864738
-5.097432137 5.642633915 0.7312760353
-5.106559753 5.702618122 0.9039126039
-5.076805115 5.649034977 1.080661416
-5.081210136 5.661913872 1.256070256
-5.070358753 5.664978981 1.431260586
-5.058792114 5.665996075 1.607006073
-5.049759388 5.672171116 1.784635901
-5.064448357 5.755167484 1.977968216
-5.101664066 5.638763428 0.3777029812
-5.089075089 5.636973381 0.5553911328
-5.076672554 5.632690907 0.7315554619
-5.072715759 5.692502975 1.079551935
-5.065229893 5.669324875 1.255182028
-5.053747654 5.670487404 1.430310249
-5.030151367 5.631464481 1.601885676
-5.083247185 5.638544083 0.3776158988
-5.073174 5.644264221 0.5542287827
-5.057668209 5.630507469 0.7312020659
-5.056003094 5.697951317 1.078596115
-5.064635754 5.72422123 1.255827904
-5.017293453 5.648239136 1.602145195
-5.030592442 5.76629591 1.976031661
-5.062987804 5.632615566 0.3783899844
-5.054764271 5.643944263 0.5539348125
-5.042401791 5.63962841 0.7299625278
-5.006734371 5.672572136 1.603199601
-5.047702312 5.641656876 0.3768720627
-5.031475067 5.628422737 0.5553851128
-5.025867939 5.644903183 0.7290174961
-5.029942036 5.64311409 0.376501292
-5.010130882 5.618477821 0.5561882257
-5.0048666 5.638973713 0.7289174795
-5.008959293 5.637217522 0.3772348762
1.133470535 5.534413338 1.394573331
1.02466774 5.430726528 0.4912925661
1.162655711 5.559765339 0.9354625344
1.055969834 5.430253506 0.4883939624
1.096948862 5.456201553 0.7109643221
1.165652871 5.502118587 1.392912149
1.085907221 5.428217411 0.4856829643
1.189638853 5.515697956 0.7036530972
1.195027351 5.527086735 0.9337922931
1.181659937 5.485886574 1.392086625
1.110198617 5.420451164 0.4837304652
1.159222126 5.455410957 0.7067222595
1.21112752 5.510663033 0.932962358
1.211931944 5.483530998 1.392152429
1.139410734 5.41893959 0.4810577631
1.182237029 5.446022034 0.7053020597
1.2263695 5.495008945 0.9321770668
1.236496091 5.475466728 1.391862512
1.356012106 5.562488556 1.871055722
1.188055038 5.434458256 0.4758660793
1.222220421 5.45903492 0.9320699573
1.21353507 5.43614912 1.160796642
1.245848536 5.454278946 1.390730739
1.242902756 5.436921597 1.61988008
1.271555781 5.449700832 1.854307532
1.264730453 5.430118561 2.085530519
1.267080545 5.417628765 2.319993019
1.300274253 5.434162617 2.56643796
1.19026494 5.403355598 0.4769213498
1.208054066 5.407598495 0.704161644
1.219195008 5.410033226 1.1598562
1.252897382 5.414971828 1.618437648
1.279265642 5.396359921 2.318050146
1.290394187 5.393645763 2.557826996
1.197296023 5.378617287 0.4772614837
1.208606601 5.375130653 0.7046512961
1.2170223 5.389275074 0.9317433238
1.229862928 5.38724041 1.158936858
1.241970658 5.386043072 1.386868358
1.259225965 5.388079643 1.616488218
1.270617485 5.384491444 1.847425818
1.260869026 5.36253643 2.076473713
1.297763109 5.382597923 2.317976475
1.296782136 5.367067814 2.553952694
1.221558571 5.370310783 0.4753128588
1.243054032 5.376428127 0.7022684813
1.22973597 5.370028496 0.9310443401
1.246928096 5.37211132 1.158152461
1.259028792 5.370912552 1.386154175
1.26173377 5.35929966 1.614271641
1.294923306 5.37611866 1.847984195
1.276378751 5.34610796 2.07567668
1.29604125 5.350035191 2.3128016
1.318034649 5.355909348 2.554886818
1.316892982 5.428706646 0.4639804959
1.262782454 5.369903564 0.9296196103
1.271929741 5.365946293 1.15751636
1.297953725 5.37616396 1.386752605
1.288919449 5.353639603 1.614730835
1.321362972 5.37116766 1.849035978
1.312166452 5.348421574 2.079020262
1.325965881 5.34685564 2.315650463
1.352872491 5.358697414 2.56018877
1.363878131 5.442510605 0.4589934647
1.407423139 5.451126099 0.4545346797
1.462474585 5.489327908 0.6853867769
1.445899725 5.456315041 0.4506877363
1.479748368 5.465346336 1.157031059
1.473509312 5.449672699 0.4483356178
1.49483633 5.44884491 1.156257868
1.553615332 5.488043308 1.39505744
1.512126565 5.454481125 0.4444823861
1.564058185 5.479712009 1.156038642
1.553104877 5.459527969 0.4403915405
1.579988122 5.46204567 1.15522337
1.679934382 5.539019585 1.398965955
1.727569699 5.510246277 2.639216661
1.589729786 5.460358143 0.4368758798
1.595855594 5.444324017 1.154411793
1.636342168 5.467880726 1.394713879
1.618988037 5.454371929 0.4343241453
1.641608 5.453063965 1.153917909
1.712136269 5.502916813 1.397319555
1.64229846 5.4429636 0.4325464666
1.657443643 5.435127735 1.153109074
1.728142858 5.484780788 1.396502018
1.686540365 5.449825287 0.4280561805
1.676230431 5.419766426 1.152334332
1.74408555 5.466589928 1.395688176
1.720388293 5.447279453 0.424919337
1.694972754 5.4043293 1.151562452
1.765529633 5.455895424 0.4202666283
1.751499534 5.424571991 1.151257515
1.804748893 5.459068298 0.4163866639
1.784683824 5.422774792 1.150670648
1.830420732 5.450399399 0.4142560661
1.89023006 5.487449169 0.6559227705
1.817177653 5.418584347 1.150027514
1.957309961 5.525232315 1.400998354
1.864477634 5.447105408 0.4111106694
1.933634639 5.491737843 0.6528525352
1.989044547 5.545855999 0.8998774886
1.851234078 5.415513039 1.149397254
1.973392487 5.506242752 1.400180101
2.010170698 5.523133278 1.653586149
2.024859428 5.521344185 1.907843947
1.901622891 5.446191311 0.4075732529
1.945756435 5.471074104 0.6523323655
2.005205154 5.526659012 0.8990557194
1.889146328 5.417050362 1.148847103
1.971007943 5.471821308 1.398362279
2.026242495 5.504007816 1.652769089
1.934979677 5.443473816 0.4044645131
1.952460885 5.444312096 0.652279973
2.020496607 5.508368969 0.8982787132
1.930988312 5.419999123 1.148281217
2.023812056 5.483408451 1.39955616
1.972234011 5.442165375 0.4009226859
1.959566474 5.425271988 0.900280118
1.966749668 5.417614937 1.147657752
1.989607811 5.424480915 1.396125674
2.006545067 5.4247756 1.646144509
2.041296959 5.43956995 1.901001692
2.002352715 5.395549774 2.146550655
2.026269197 5.401256084 2.405203342
2.056573391 5.411935329 2.67051506
2.009544134 5.44065237 0.3973785937
1.96551013 5.390814781 0.652195096
1.987098336 5.402350426 1.146900296
2.008367062 5.394317627 1.643973231
2.035486698 5.402825832 1.897092938
2.0164361 5.375302792 2.145467281
2.049553871 5.388408661 2.406210423
2.058554649 5.381812572 2.665864468
2.04691124 5.438932419 0.3938321471
1.961028457 5.355249882 0.6530486941
1.977049828 5.37564373 0.89919734
1.973296404 5.359206676 1.145859599
2.008596897 5.376139641 1.393871427
2.011594057 5.365154743 1.64196229
2.02794075 5.364926815 1.892972469
2.036607742 5.359977245 2.14555192
2.046736956 5.354511261 2.401102304
2.072593212 5.361495972 2.664647579
2.090512753 5.442026615 0.389498204
1.954815269 5.318515301 0.6540388465
1.9755404 5.342633247 0.8990353346
1.974809408 5.328792572 1.144958973
1.999276757 5.336893559 1.391762733
2.013129473 5.334775448 1.639806747
2.021747589 5.328378201 1.88908422
2.022742987 5.317374229 2.139242411
2.032983303 5.312099934 2.393486261
2.057500362 5.318036556 2.655303001
2.12800622 5.439871788 0.3859465122
1.96320045 5.295342922 0.6538076401
1.972311854 5.308432579 0.8989393115
1.976970315 5.300628185 1.144117594
1.995986819 5.302765369 1.389994264
2.011404276 5.301949024 1.637355208
2.02082181 5.297832966 1.886130333
2.025694609 5.288455963 2.136140823
2.035968304 5.283271313 2.389835596
2.050610542 5.282948494 2.648576498
2.163208961 5.437258244 0.3826295137
2.003444195 5.296120167 0.6509985328
1.991564035 5.294000149 0.8980299234
2.015724659 5.300230026 1.143528461
2.030060768 5.298568249 1.390204787
2.040002346 5.294930458 1.637985349
2.048577309 5.288582802 1.887126684
2.013768196 5.249494076 2.130472183
2.038060904 5.25542593 2.386230469
2.050454378 5.251823425 2.643531084
2.193016052 5.428504944 0.3800587654
2.069678783 5.300107956 1.390780091
2.069377899 5.286806107 1.638576627
2.08963871 5.291209221 1.890150547
2.016415834 5.220689774 2.127387285
2.038479328 5.226403713 2.382273197
2.052479982 5.224103928 2.639386415
2.231413364 5.428004265 0.3763448894
2.025990725 5.198945999 2.125797272
2.038765192 5.197423935 2.378323317
2.066745758 5.205980778 2.638665915
2.271436453 5.428526878 0.3724311292
2.357183218 5.464693069 1.402673364
2.069932938 5.20380497 2.130586147
2.081747293 5.199956417 2.384024143
2.097193241 5.198753834 2.642181158
2.313884974 5.42903471 0.3682771921
2.366934299 5.456860065 0.6232871413
2.417306423 5.478551388 1.404147387
2.35605669 5.365535736 2.708428621
2.359556675 5.431735039 0.3637244999
2.349005938 5.418145657 0.8838143945
2.436392546 5.460395336 1.403507233
2.401160479 5.367821217 2.715751648
2.391111612 5.42326355 0.3609501421
2.442712307 5.432465553 1.402223945
2.443226337 5.367501259 2.722218275
2.424260855 5.415832043 0.3579775989
2.492411613 5.373818398 2.730852127
2.466164827 5.416474819 0.3538535237
2.538047075 5.439082146 1.403857708
2.508925915 5.415834427 0.3496869206
2.60441947 5.474192142 0.6064615846
2.556540489 5.41851902 0.3449210227
2.58985281 5.410266399 0.341942817
2.64402771 5.417156219 0.3363737166
2.68306756 5.414250374 0.3326340318
2.734223604 5.418216228 0.3274553716
2.779020786 5.417229176 0.3230717778
2.818241596 5.413622379 0.3193249404
2.855047941 5.406386375 0.3159377575
2.910620928 5.413815975 0.3101834953
2.95489645 5.412943363 0.3058285713
2.998388052 5.409552574 0.301632762
3.118558407 5.479795456 0.5703610778
3.066314697 5.452702999 0.8541154265
3.140272617 5.46227932 0.5690824986
3.243528843 5.540803909 0.8472799063
3.202031374 5.487722397 1.416170716
3.26576066 5.4799757 2.5736022
3.250409126 5.457874298 2.864459276
3.166033268 5.445751667 0.5675039291
3.156528473 5.448479176 0.8503556848
3.208057165 5.457659245 1.414912701
3.280867577 5.457821846 2.572851658
3.150442123 5.401134968 0.5692253709
3.215359926 5.454377174 0.8479558229
3.229525328 5.451033115 1.131121635
3.236360073 5.444423199 1.414784789
3.178128242 5.395176888 0.8491634727
3.168959379 5.376283646 1.1299932
3.212297678 5.394296169 1.412148118
3.233258724 5.395521164 1.696187019
3.254182339 5.39662981 1.98294735
3.231234789 5.370174408 2.265725613
3.256633043 5.374070168 2.559234858
3.263366699 5.365458012 2.853235722
3.174251795 5.351202011 0.5682452321
3.212034464 5.373039722 1.129384398
3.237507582 5.353573799 1.978104711
3.230227709 5.336022377 2.262102604
3.274820328 5.341220379 2.851660728
3.179747105 5.321203709 0.5682739019
3.185207367 5.334122181 0.848534584
3.205896616 5.335282326 1.128522396
3.215090036 5.32881403 1.409298539
3.216981411 5.319188118 1.69058013
3.251312256 5.329146862 1.977123141
3.248175621 5.31609726 2.261948586
3.258820057 5.310315132 2.551719666
3.286956072 5.315790653 2.850053072
3.16176486 5.275878906 0.570166707
3.178917885 5.296458244 0.8485889435
3.186202526 5.288842678 1.127614737
3.216337442 5.297855377 1.407961845
3.217302799 5.286051273 1.688503861
3.241700649 5.289486408 1.973125339
3.238607168 5.276601791 2.256914854
3.259258986 5.277384281 2.547777414
3.285855532 5.281846523 2.845072031
3.192027807 5.262341022 0.5682194233
3.205918312 5.280757904 0.8473922014
3.2014575 5.265518665 1.126860857
3.229943991 5.273391247 1.407130241
3.227517843 5.259473801 1.687312484
3.250265837 5.261817455 1.971509695
3.247147322 5.249026775 2.25502491
3.257892847 5.243440628 2.543489695
3.294479132 5.254288673 2.842632294
3.241277218 5.270359993 0.8458814025
3.27201438 5.267300129 1.407600522
3.282927275 5.26200819 1.690067768
3.292194366 5.255607128 1.974208832
3.293931961 5.245978355 2.259688139
3.321098328 5.250841141 2.552998066
3.329383135 5.24351263 2.846950531
3.586697578 5.449315548 0.5378186107
3.552351475 5.437143803 0.8339707851
3.601729155 5.425722599 0.537078321
3.673439264 5.455830097 1.422810912
3.612406969 5.397634506 0.5367047787
3.583029985 5.389010429 0.8324598074
3.672361612 5.420208454 1.421274424
3.634171963 5.386593342 0.8303492069
3.625721931 5.370483875 1.124438643
3.675423622 5.389075279 1.420011878
3.680777311 5.379837513 1.716189146
3.691740036 5.375780106 2.014700413
3.706305742 5.372153282 2.316405058
3.720995426 5.370215893 2.622098446
3.735410452 5.366245747 2.932126522
3.633581161 5.344955921 0.5359182358
3.643880367 5.348986149 1.123724699
3.692973375 5.343753815 2.012258768
3.700829506 5.336032867 2.31227541
3.73513031 5.333409786 2.927613735
3.624506712 5.306511879 0.5370752215
3.63314724 5.320199966 0.8300552368
3.655168533 5.323209286 1.122992873
3.660749197 5.314312935 1.416604996
3.691576958 5.320925236 1.713147879
3.702548504 5.316963196 2.010896206
3.69857049 5.302061558 2.308721542
3.720144987 5.304411411 2.614310741
3.738051176 5.30265522 2.923950434
3.625460148 5.274442673 0.5374360681
3.639233351 5.291272163 0.8296618462
3.640794992 5.281716347 1.122186899
3.671911716 5.288551807 1.415740609
3.67551589 5.27850008 1.7098279
3.708629847 5.288090706 2.009111166
3.691087008 5.265072823 2.304325581
3.726248264 5.275662422 2.611837387
3.740846395 5.271930695 2.920293808
3.625141382 5.236598492 0.5379619002
3.634781837 5.252568722 0.8296529651
3.635328293 5.240799904 1.121300459
3.674250841 5.254046917 1.414357901
3.672709465 5.240975857 1.70745635
3.704954386 5.248287201 2.005722761
3.698514938 5.233868599 2.302130699
3.712563515 5.230010509 2.604681492
3.735715866 5.231472969 2.914010048
3.602639675 5.18893671 0.5401867628
3.637941122 5.220377922 0.829366684
3.636714697 5.207643032 1.120523334
3.666159391 5.213398457 1.412535667
3.679235697 5.210935116 1.705997467
3.694461584 5.208002567 2.001776695
3.705809355 5.202667236 2.29994297
3.713114023 5.194829941 2.600742817
3.738975048 5.19959259 2.910332441
3.626284361 5.177713394 0.8296367526
3.65340066 5.183774471 1.119796634
3.660552979 5.176160336 1.410909534
3.674387932 5.17250967 1.703499436
3.700871706 5.17799902 1.999977708
3.702006102 5.166660309 2.29610157
3.711065292 5.15994215 2.596497297
3.72693634 5.15880537 2.902880192
3.667889357 5.170414925 0.8279041648
3.700954437 5.178231239 1.119157195
3.71839571 5.176707268 1.412042975
3.727982283 5.172190189 1.706123829
3.729429483 5.161128998 2.000961065
3.717783928 5.144015312 2.295697927
3.76587224 5.160220146 2.604251146
3.770406246 5.150720596 2.909301043
4.097464085 5.379649162 0.5026062131
4.316064835 5.400526047 0.4868199825
4.909591675 5.441470623 0.4440772533
4.908041954 5.427955151 1.445840478
4.942966938 5.421424866 0.4419485331
4.944149494 5.434345722 0.7772644162
4.958240986 5.418992996 1.446567416
4.958683014 5.391843796 0.4411951005
4.959907055 5.404823303 0.7765084505
4.992378235 5.397434235 1.446497917
4.954875946 5.351982594 0.4419591427
4.956895828 5.363505363 0.7764650583
4.983678818 5.367307186 1.110290766
5.018613338 5.373452187 1.446181297
5.032506943 5.368484497 1.783590198
5.112683296 5.399979591 2.131440878
5.110485554 5.386400223 2.474551916
5.105475426 5.373196602 2.820121527
5.125034332 5.370769024 3.174936295
4.967810631 5.322918415 0.4413937926
4.984240532 5.331789017 1.10956955
5.022460461 5.327461243 1.780905128
5.049827576 5.331360817 2.121449232
5.039072514 5.313568592 2.460114717
5.098015308 5.321105003 3.164210081
4.957614422 5.281885624 0.4426242411
4.98095274 5.304524899 0.7752642632
4.982885838 5.295394421 1.108854055
5.010750771 5.297806263 1.443270802
5.017557621 5.289293766 1.778653383
5.0502882 5.295941353 2.119064808
5.051858902 5.284620285 2.459140062
5.061986446 5.277607918 2.804023981
5.10560894 5.289439201 3.161844969
4.951546669 5.241314411 0.4435524046
4.974170685 5.265376091 0.7753873467
4.97680521 5.25483799 1.108105302
5.011791229 5.260893345 1.441970706
5.023151875 5.256653309 1.777257323
5.054910183 5.260895729 2.117073536
5.050424576 5.248452663 2.455931664
5.05884552 5.240645409 2.799847841
5.085916519 5.242166996 3.152773142
4.971537113 5.226660252 0.7753469348
5.013705254 5.226411819 1.440786123
5.022258282 5.21893692 1.775267839
5.060414314 5.228248119 2.115336418
5.060203552 5.216214657 2.454374075
5.077416897 5.21288681 2.799828768
5.091475487 5.209711552 3.150006533
6.412310123 5.921121597 0.7199780941
9.788602829 7.613082409 1.110476017
14.51064396 9.973775864 1.81815052
14.10446167 9.679624557 4.581608772
6.044795036 5.679067612 0.3601348102
10.31084728 7.816597939 1.109719753
14.63691902 9.958423615 1.820418835
14.97040272 10.09982967 2.555337667
23.53742027 14.33591557 4.291212082
19.79301834 12.44332409 4.768717289
14.43833733 9.765060425 4.639667034
14.43725395 9.743569374 5.362273216
6.392032146 5.809729576 0.3337363601
6.497179985 5.876699448 0.7164053321
12.726367 8.955705643 1.11006391
14.79017162 9.955601692 1.823747516
23.76067352 14.32923794 4.309800148
19.83817101 12.37030983 4.76803112
14.59487247 9.768678665 4.663357258
14.6190424 9.75569725 5.396660805
6.717019558 5.926568508 0.3090923429
6.570034027 5.869174004 0.7134537101
10.32462883 7.703388214 1.107432723
14.93845558 9.953273773 1.827002287
23.9627533 14.31070614 4.325859547
19.88863754 12.29482079 4.767824173
14.7283659 9.75617218 4.682093143
14.76944447 9.751328468 5.423537731
5.773267746 5.422043324 0.3826264143
5.755966663 5.427345753 0.7445614338
11.08165169 8.012919426 1.106650352
15.08490849 9.945077896 1.830034614
24.21695137 14.31605339 4.347996235
19.93706703 12.21825981 4.767351627
14.80520344 9.715501785 4.689689636
14.76485252 9.671504974 5.413759708
5.65425396 5.324439526 0.392300874
5.976731777 5.494394302 0.7359422445
10.53016472 7.683474064 1.105268121
15.25852776 9.94899559 1.834118366
24.44640541 14.30776501 4.367185116
19.93523788 12.11755085 4.759085178
15.05260658 9.755861282 4.73068428
15.05666161 9.733067513 5.47394228
5.948531628 5.425971508 0.3700295687
5.92603302 5.429236412 0.7377518415
10.56093502 7.637992859 1.104160309
15.40354824 9.938022614 1.837067842
24.69410515 14.30657864 4.388459206
19.94371605 12.02209091 4.752513885
15.15808487 9.727226257 4.743841171
15.08019447 9.665856361 5.470836639
5.91121006 5.3697052 0.3733624518
6.035606861 5.440974236 0.7334038615
10.72226524 7.657491684 1.103145123
15.57580853 9.938986778 1.841065407
15.97782993 10.10438919 2.610156059
24.93259048 14.30537701 4.408993721
16.71139717 10.40310383 4.242187977
15.35298729 9.743869781 4.774797916
15.36776257 9.726118088 5.530225277
6.11008358 5.425080299 0.3584630191
6.157234669 5.45966053 0.7285986543
10.5455389 7.516609669 1.102068543
15.73406696 9.936260223 1.844637871
16.1093502 10.08753014 2.616555452
25.14254761 14.28926849 4.426170349
16.72475815 10.3283453 4.237932682
15.58392143 9.775938034 4.812691212
15.37374973 9.653717041 5.523454189
6.054516315 5.360186577 0.3632001281
5.900741577 5.300485134 0.7383395433
12.1457119 8.207223892 1.101162195
15.89613438 9.934274673 1.848343849
25.42128181 14.30370331 4.451286793
16.74144173 10.25526237 4.234250069
15.64509678 9.724111557 4.817152977
15.63896275 9.700697899 5.577406406
6.115283012 5.34765625 0.3589864671
5.886255741 5.255806923 0.7387759089
12.21282864 8.171974182 1.099974394
16.06541824 9.930418968 1.852178454
25.64852905 14.28648949 4.470009327
16.75425529 10.18052197 4.230025768
15.64907646 9.649899483 4.81093359
15.68191719 9.640489578 5.578889847
6.208724499 5.349717617 0.3522584438
5.890490055 5.217986584 0.7384882569
11.03095341 7.563601017 1.098886967
16.23696899 9.930600166 1.856218934
25.93393135 14.29423046 4.495408058
16.79184532 10.11293983 4.229357243
