# .PCD v0.7 - Point Cloud Data file format
VERSION 0.7
FIELDS x y z
SIZE 4 4 4
TYPE F F F
COUNT 1 1 1
WIDTH 1337
HEIGHT 1
VIEWPOINT 0 0 0 1 0 0 0
POINTS 1337
DATA ascii
-5.301030636 13.72982407 1.826975107
-5.275134087 13.74416637 2.281839132
-5.330096722 14.37209415 2.818445206
-5.252264023 14.02899933 3.245149374
-5.157156944 13.52667236 3.620580673
-5.49370718 16.37719917 4.757627964
-5.382470608 15.7981348 5.176213264
-7.684213161 30.95923424 0.677125752
-5.257127285 13.74209881 1.824787378
-5.221072197 13.6814146 2.272973776
-5.143929005 13.32631397 2.681828737
-5.244680405 14.32912731 3.290472746
-5.111934662 13.52312946 3.616159916
-7.566788197 30.88041306 0.6725439429
-5.212633133 13.75026512 1.822374225
-5.159185886 13.5552454 2.258350372
-5.100379944 13.33030796 2.679136992
-5.257309437 14.80566978 3.364387989
-5.125375748 14.25216293 4.24714613
-5.058299065 13.96471119 4.66601181
-7.465147495 30.91612816 0.6663360596
-5.240762234 14.08071518 1.374411821
-5.169133663 13.76619816 1.820403457
-5.102987766 13.46633434 2.247205496
-5.063972473 13.3912487 2.683684587
-5.12942934 14.16543865 3.256522417
-5.080704689 14.27383137 4.248166561
-5.222549915 15.78294468 5.157498837
-7.365859985 30.97133446 0.6598281264
-5.201190472 14.13633728 1.372843862
-5.133542061 13.84538269 1.821963906
-5.056746006 13.45230007 2.242937088
-5.03003931 13.47572613 2.691201448
-5.372776031 16.59870529 3.647853136
-5.040119171 14.33211327 4.257823467
-5.150269032 14.12268829 1.369708896
-5.092313766 13.88285065 1.821182847
-5.028425217 13.60449409 2.253638029
-5.325355053 16.66840172 3.654941559
-5.119716167 15.80384445 5.153744698
-5.101421356 14.08644295 1.366399765
-5.057846069 13.95957088 1.822711587
-5.067378521 14.84401608 3.355818272
-5.055045605 15.6639452 5.111318588
-5.058694839 14.09966564 1.364099145
-6.930645466 30.53741455 2.733618021
-5.01260519 14.79290104 3.343887329
-5.039816856 16.02542686 5.204867363
-6.515956402 27.26092911 0.6941035986
-6.418583393 27.26375771 0.6887959838
-5.124266624 15.89201832 1.919491887
-6.319006443 27.20210838 0.6847540736
-5.09450388 16.1122551 1.928230166
-6.223190308 27.17190742 0.6802310944
-5.240097046 17.69301796 1.421961904
-5.089993 16.59673119 1.951214671
-6.12483263 27.1135025 0.6761737466
-5.080510139 17.84409523 3.210345268
-5.544364929 25.27533722 7.678176403
-6.024849892 27.08104706 0.6714625359
-5.724602222 24.54555321 2.371850967
-5.929140091 27.0418148 0.6671231389
-5.084996223 17.96362114 1.416610241
-5.836502552 26.98191452 0.6633914113
-5.746345043 26.94559669 0.6592797637
-5.364741325 24.49873161 1.519101501
-5.014737129 25.00227547 7.564211369
-5.454432011 26.83048439 0.6458787918
-5.240969181 24.00896454 1.505538702
-5.224695683 24.51865196 2.340388298
-5.361749172 26.80513954 0.6413705349
-5.169024467 24.13464546 1.503093719
-5.177979946 26.69928551 0.6336179972
-5.087064743 26.68891907 0.6288660169
-6.763780594 57.16371536 2.031794548
1.053510308 40.84028625 1.381206751
1.192446113 40.82223892 1.373491645
1.317560911 40.63212585 1.364262223
1.511474252 41.05968857 1.35947752
1.654975414 41.06980515 1.351914048
1.046989679 23.56788063 2.774664164
1.050250292 21.77384377 0.3849165738
1.114760756 21.72063828 0.3822025061
1.68846488 21.50302696 2.583220005
1.662895799 20.5924511 1.085164428
1.645663023 20.25154686 1.081716061
1.785451889 20.50190544 1.077723384
1.814181924 20.33867073 1.074181437
1.671148062 19.50754356 2.423197985
1.912875652 20.4318161 1.070309639
1.734864354 19.48582077 2.419382811
1.949548364 20.30114555 1.066782117
1.51711309 18.61302567 1.711278558
1.802330494 19.477314 2.416525364
1.620717764 18.74157333 1.712924242
2.54639411 21.79458427 2.57810235
2.325968504 21.07945824 0.3228688538
2.502299547 21.69711304 1.056193829
1.707747698 18.79769325 1.711919546
1.777709246 18.90332603 2.371420145
2.565203905 21.64342117 1.052312851
1.769518375 18.77763748 1.708450437
1.795532584 18.73395157 2.357342482
2.493768215 21.13698196 1.049577117
1.831782699 18.75928116 1.705051541
1.842121243 18.6640358 2.350321054
2.563111782 21.11213112 1.045740366
1.964565396 18.97414398 1.7095294
1.90921402 18.66273308 2.348152399
2.049826145 18.98276138 3.035306692
2.145817518 19.15259361 3.73010397
2.648011208 21.15126038 1.0419209
2.05629158 19.07171631 1.710290432
2.120175838 19.13887787 2.379598856
2.200643778 19.12769127 3.725894451
2.716204166 21.13460541 1.038253903
1.958785772 18.53295708 1.689474702
2.170021296 19.07561302 2.373065948
2.061448574 18.6455574 1.690505862
2.187509298 18.92186165 2.360338211
10.52177525 45.43451309 0.9468644261
2.102700233 18.56139755 1.684991121
2.248446941 18.89646912 2.356518984
10.67325687 45.37391281 0.9384524226
2.128768682 18.43148613 1.677999616
2.344874382 18.98100853 2.360384226
3.877820969 22.90467834 6.790408134
10.88833141 45.51074982 0.9292992353
2.21577096 18.49172211 1.677293777
2.357578754 18.80713463 2.346261978
2.62272954 19.34597588 3.754375696
4.608236313 24.80787277 7.28499651
2.338715076 18.78914261 1.028072834
2.305757284 18.55916405 1.676810503
2.47010231 18.93842316 2.353397608
2.680003881 19.3043766 3.74790597
4.315128326 23.6836586 6.996553421
2.397263288 18.75727654 1.024728298
2.444869518 18.77224922 1.681047201
2.555091619 18.98398399 2.354573011
2.440058231 18.38819122 3.615665674
2.747115135 19.03984642 5.090333939
4.212947369 23.13433456 6.856800556
11.2170887 44.94803238 0.9057528377
2.844381809 19.75381088 1.710092187
2.552121162 18.76832008 2.337659836
2.835752964 19.34247398 3.752526045
2.771599531 18.90778732 5.062484264
4.46651268 23.61076164 6.982705116
11.21800137 44.42020035 0.8991729021
2.91203618 19.72680855 1.706219077
2.669220209 18.89733887 2.344549417
2.650677919 18.59340096 3.644412041
2.867333651 18.97048378 5.077605247
4.878920078 24.51098442 7.218766689
23.01284218 78.36148834 0.7266732454
2.991274595 19.74415588 1.703924656
2.690546274 18.74667931 2.332118273
1.037694335 13.89126015 2.480372429
2.678747416 18.47699547 3.627351284
2.970963955 19.0633316 5.099369049
4.975506783 24.52306366 7.224730492
2.980001926 19.51122284 1.693787932
2.866455793 19.0596714 2.351888895
1.070065379 13.84639359 2.474847317
2.77867341 18.57456779 3.641106367
3.040297985 19.0683403 5.101786137
4.730437756 23.60455513 6.989254951
2.843533516 19.04062653 1.005831122
3.040173054 19.47544098 1.689845085
2.951856375 19.11021423 2.353544235
1.335540771 14.4556179 2.538768053
3.145683527 19.40364265 3.760037661
3.105531693 19.05173683 5.099565983
4.8000741 23.55133247 6.97833252
2.868715525 18.91090965 1.00297606
3.089442253 19.40933418 1.684960246
3.242761135 19.72293091 2.393748283
1.222721696 13.99527836 2.48913765
3.214154243 19.39206123 3.75814414
3.16924262 19.15446091 4.419127464
3.17478323 19.04592705 5.099779606
4.897106647 23.57261086 6.986824036
3.053320169 19.22945213 0.9976644516
3.171503067 19.43527412 1.682996511
4.527519226 23.06615067 2.621231079
1.245138049 13.91543674 2.479920626
3.249158382 19.28905869 3.743147135
3.025835276 18.57136917 4.313763618
3.259083748 19.08024216 5.108899117
4.969860554 23.52797508 6.978284359
2.918638945 18.65726471 0.9973710775
3.234005451 19.40638733 1.679314137
3.451297283 19.88776588 2.401144981
1.257416487 13.80945206 2.467961311
3.236648083 19.05966377 3.710023403
3.08182168 18.53436852 4.307735443
3.99197793 20.83953667 5.498607635
5.072650433 23.56307983 6.990544796
2.958524704 18.57465744 0.994371891
3.303283691 19.39605141 1.676223874
3.037395477 18.56648445 2.308797359
1.273182273 13.7147274 2.457224846
3.323519468 19.09968567 3.71566081
3.045079231 18.25183296 4.257077694
4.125329494 20.98262978 5.532020092
5.162601948 23.56325531 6.993817806
3.266088963 19.21802711 0.9869186878
3.426127672 19.41872978 2.365232944
1.320602655 13.70572853 2.455591917
3.490108252 19.34877968 3.751381636
3.113899469 18.25164032 4.25782299
5.687660217 24.84671974 6.38706255
5.774314404 24.9138031 7.348553181
3.166209221 18.75587654 0.9862494469
25.3103199 77.57373047 3.465813637
1.371552348 13.70585632 2.454944372
3.189314365 18.37145996 3.610886574
3.112631321 18.06901741 4.22540617
3.173924923 18.1161499 4.902751446
5.820417404 24.78658485 7.319034576
25.30363274 77.23924255 0.5986015201
25.61281204 77.56676483 3.454198837
3.741601944 19.8590107 2.391519308
1.51468575 13.94543839 2.479639292
3.328800678 18.55189323 3.636813879
3.262484789 18.27801132 4.264324665
3.239544153 18.10811615 4.902727127
6.620619297 26.57432175 7.78843689
25.84399796 77.37195587 3.436867476
1.543528318 13.88547802 2.472665787
3.207666159 18.06136513 3.566350698
3.64834857 19.08260155 4.411794186
6.157865524 25.30984879 6.496759415
6.797671795 26.76051521 7.841023922
26.11752701 77.28832245 3.422997475
3.93735528 19.97222328 2.395481348
1.59018755 13.87179375 2.470606565
3.322008848 18.17664909 3.58298707
3.840456963 19.38260651 4.467465401
5.1798172 22.61744118 5.903847218
5.642867565 23.63101578 7.02893877
9.5250597 34.1496582 2.106218576
4.110582829 20.21757507 2.410272837
3.329260826 18.02067757 3.560673475
3.88055253 19.29716873 4.452971935
5.253917217 22.58436012 5.898948193
5.121980667 22.12331963 6.639202595
26.47925568 77.120224 0.5389275551
9.621717453 34.05591965 2.098489761
4.082627296 19.95194817 2.390424728
4.424207687 20.68821716 3.189051867
3.417009354 18.06712341 3.567488194
3.694992065 18.65605354 4.337209225
5.370797157 22.65624809 5.917356491
5.209098339 22.12659645 6.643658161
26.74326324 77.05017853 0.5250427127
9.732154846 34.01433945 2.09260416
4.231235504 20.13997269 2.401418686
3.780888796 18.90913963 3.000501156
3.570882559 18.28331566 3.59872961
3.709646225 18.52503967 4.314389229
5.400955677 22.5261879 5.890984058
5.29338932 22.13279343 6.648777008
27.00997734 76.94791412 0.5106523037
4.036900043 19.57259178 1.656966925
4.269698143 20.0428791 2.393043995
3.867660761 18.94299507 3.00332737
3.985471964 19.12095261 3.719356537
3.758933067 18.4712677 4.305747509
5.482972622 22.51224709 5.890519619
5.399513245 22.18022537 6.66494751
27.2928772 76.88549805 0.4959606528
4.212871552 19.81846237 1.661524892
4.220509529 19.73335457 2.370374918
3.925162792 18.90469551 2.998568773
4.04357338 19.08244705 3.714080811
3.773766279 18.33545494 4.282173634
3.920951128 18.58094788 5.02132225
5.481110096 22.16807365 6.665627956
4.236125946 19.6880455 1.654902101
4.298299313 19.7360878 2.36881423
4.028400421 18.97647095 3.005443811
4.304519653 19.52833939 3.778492928
3.823720694 18.2851696 4.274244308
3.954183817 18.48898506 5.003180027
5.620681286 22.29154778 6.701906204
10.13045788 33.87267685 0.8246836066
4.299246311 19.65554047 1.651200294
4.336161137 19.64273834 2.360806704
4.068173885 18.89544296 2.996238947
4.465147018 19.72797203 3.807546854
3.915103674 18.33275986 4.284232616
4.012299061 18.45645332 4.998269558
5.100032806 20.87834549 6.33561039
10.22680378 33.78062057 0.8188518882
4.414101601 19.74632645 1.651117921
4.418497562 19.65601921 2.359995842
4.163502693 18.94628525 3.000957727
4.534572124 19.7097435 3.805314541
3.967986345 18.28930283 4.277640343
4.12001276 18.53885841 5.018947601
5.193561077 20.90455437 6.346351624
10.33432865 33.71593857 0.812805891
4.43055582 19.60277557 1.644196033
4.164417744 18.87933731 2.306201935
4.154934406 18.75333977 2.980029106
4.608680248 19.70217896 3.804656029
4.101470947 18.43209076 4.305137157
4.123415947 18.38002968 4.986078262
4.869409084 19.97763443 6.107030392
10.4619379 33.69875336 0.8063487411
4.494894505 19.57329178 1.640623212
4.155199051 18.68589211 2.291639566
4.221829414 18.73788071 2.977824688
4.658288956 19.63796997 3.795888424
4.132426739 18.33745003 4.289280891
4.208712578 18.40971184 4.995161057
4.946013927 19.97243881 6.109516144
10.6235466 33.76007843 0.7991679311
25.29438782 67.5114975 3.018846035
4.266448021 18.77284813 2.295889139
6.427613258 23.61642647 3.490697861
5.140784264 20.5593338 3.928982019
4.168394089 18.25542831 4.27576828
4.244965076 18.32797813 4.979511261
5.035375595 19.99535179 6.119466305
29.26314545 76.40071106 0.3935293257
25.55032539 67.46607971 3.007894516
4.364677906 18.81949997 2.297368288
6.852216244 24.36536217 3.568830013
5.195540428 20.49883652 3.920851707
4.269585133 18.31256485 4.287844181
5.707299709 21.41702652 5.670348644
5.152990341 20.07992363 6.145727158
4.35906744 18.73016167 1.60833478
4.401995659 18.73563194 2.290224314
4.858165741 19.65971947 3.073195934
5.95066309 21.99296951 4.136601925
4.68499136 19.07382011 4.428876877
5.72531271 21.26786423 5.640228271
5.217401505 20.03676987 6.138683319
6.358702183 23.18139839 0.882247448
4.367512703 18.582201 1.601563931
4.548034668 18.89592171 2.299382925
4.916116238 19.61451721 3.067952871
5.189818382 20.11571503 3.866997719
4.744967461 19.03864861 4.424147606
5.825513363 21.30064583 5.650718689
5.240913868 19.91358948 6.11040926
6.385735989 23.03363991 0.8791897297
4.492329597 18.70389366 1.602578282
4.443959713 18.49862862 2.271416187
4.521280766 18.57204819 2.957896948
4.59078455 18.6349926 3.654385805
4.739812374 18.86161995 4.393452644
5.338119507 19.95958519 6.12656498
6.442534447 22.96428299 0.8756104708
4.561750412 18.69241714 1.59969461
4.877678871 19.28857422 2.322459221
4.597129345 18.58374977 2.958740234
4.601916313 18.4973011 3.635226011
4.885359287 19.02105713 4.424410343
5.375016689 19.97314072 5.360594749
5.334343433 19.77988625 6.083460331
6.527656078 22.94765663 0.871277988
4.743440628 18.92613792 1.603669643
4.723411083 18.79295731 2.288103819
4.662858963 18.56482124 2.956371069
4.649794102 18.44067383 3.627776861
5.021038532 19.14788818 4.449557781
5.478035927 20.020998 5.374470711
5.409983158 19.77106094 6.085496426
4.782748699 18.84656525 1.598873377
4.868025303 18.94190598 2.296516657
4.768105507 18.63045883 2.962915182
4.701579094 18.39290619 3.621639252
4.875136375 18.67433167 4.364514828
5.577291965 20.05951309 5.386342049
5.465591431 19.71978951 6.076385498
4.850304604 18.82855988 1.595806479
4.951995373 18.95806885 2.296126127
4.901032448 18.75322533 2.975486994
4.752282619 18.34319305 3.615256786
4.834477425 18.43005943 4.321558952
5.643953323 20.02859306 5.382750511
5.51841259 19.66309357 6.065897465
4.922934532 18.82115936 1.593041182
4.995251179 18.88721466 2.289992809
4.752329826 18.18773842 3.593656778
4.887797356 18.38552284 4.315329552
5.736902714 20.05218315 5.391431808
5.472481251 19.40319252 6.001633644
5.061308861 18.86493492 2.287096739
4.99080801 18.62313652 2.96125555
4.84906292 18.24298286 3.602440119
5.000213623 18.46337318 4.331661224
5.763335228 19.94647598 5.371023178
5.525936604 19.35856247 5.994170666
5.176809788 19.04837418 1.594376802
4.892408371 18.36166191 2.252542973
5.004374504 18.50204277 2.948311329
4.952311516 18.31027031 3.613002539
5.075583935 18.47119522 4.335065365
5.811612606 19.88656616 5.360918522
5.601563454 19.35914612 5.998759747
6.708102703 22.06151772 1.673447967
5.060751915 18.56215668 2.264477968
5.188168049 18.73189163 2.972241879
4.923046112 18.09773064 3.583250761
5.164166927 18.50526619 4.343354702
5.828976631 19.75641441 5.335260391
5.7298913 19.45718575 6.029551029
5.285586357 18.95168495 1.586612821
5.13057375 18.5417099 2.261713743
5.25990057 18.72152138 2.970966339
4.958294392 18.01896286 3.572838783
5.275006771 18.56777382 4.357163429
5.892601013 19.71249008 5.329189301
8.598827362 25.01562309 7.512412071
5.141624451 18.40969849 2.251698494
5.093186855 18.22237396 2.918403864
5.144760609 18.23690605 3.605386972
5.237483501 18.34011269 4.317403316
6.775616646 21.30387878 5.690943718
7.086414814 21.81109238 6.666166306
5.600756168 19.26486969 1.589722991
5.184264183 18.33530045 2.245439768
5.451999664 18.7892189 2.977780104
5.876229286 19.5414772 3.795049667
6.94658041 21.56323242 4.914831638
6.826162815 21.21987534 5.676307201
6.928177357 21.32281303 6.541728973
5.48186779 18.87522125 1.576919675
5.188733101 18.20825195 2.235945702
5.384680748 18.50915718 2.94829011
5.429184914 18.50775528 3.646660089
7.057880402 21.62246513 4.928245544
6.843311787 21.09742546 5.652431488
6.11301136 19.57451057 6.08077383
5.594849586 18.94388962 1.576195955
5.256508827 18.18547821 2.233130455
5.288817406 18.16964722 2.912586451
5.476008415 18.44876671 3.639279604
7.259907246 21.83019257 4.96960783
6.902681828 21.03249741 5.642179489
7.071967125 21.26390076 6.537059784
5.528466702 18.6503849 1.565824866
5.695511341 18.89648247 2.278447866
5.421972275 18.2741375 2.923513174
5.533761978 18.40398216 3.634049654
7.394505501 21.91246033 4.987740517
6.851281166 20.7639637 5.585792542
7.158974171 21.25032043 6.539517879
5.617650509 18.67227364 1.563899875
5.672183037 18.69772339 2.264171839
5.409179688 18.10183144 2.90541935
5.597421646 18.37816429 3.631544352
9.291130066 25.36251831 5.629552841
6.838274956 20.57239914 5.546766281
7.242486477 21.23820114 6.542165279
5.615810394 18.52485847 1.557700872
5.758081436 18.71193695 2.263856411
5.542809963 18.2122345 2.917026758
6.108681679 19.21266747 3.75368166
7.917115211 22.55155945 5.112216473
6.912223339 20.54751015 5.545445919
7.264873505 21.1193428 6.516009331
5.549593449 18.33377647 0.8651789427
5.956450939 19.02845001 1.568236589
5.642100811 18.34025002 2.238367319
5.626034737 18.23187256 2.91913414
6.234570503 19.29706573 3.767295599
7.994244576 22.52483749 5.110316277
6.971613884 20.50336838 5.539611816
7.328751564 21.07075119 6.509017467
6.065180302 19.08218002 1.567078948
5.530933857 17.99056625 2.214437723
5.643396378 18.11940956 2.907406569
6.272443771 19.21453667 3.756753206
6.211167336 19.01832962 4.462783337
7.092822075 20.56604385 5.55826807
7.3831563 21.00484085 6.497443676
5.994483948 18.79624367 1.557231545
5.639423847 18.04396439 2.216712475
5.700507641 18.08252144 2.903640747
6.276953697 19.07081985 3.73736167
6.265152454 18.960783 4.455041885
7.118767738 20.44360924 5.535252571
7.543544292 21.13357735 6.53824091
6.083201408 18.81249619 1.555146456
5.697211266 18.00870895 2.213285208
5.741529465 18.00880623 2.896044731
5.942835331 18.30475807 3.62761116
6.417747498 19.09193611 4.482284546
7.228579044 20.49174309 5.550550461
7.6927495 21.2392807 6.573018551
31.4149704 65.64556885 2.736574173
5.718595028 17.91341209 2.206030846
5.816193581 18.01167679 2.896502972
5.960393906 18.20075607 3.61390543
5.846716881 17.91091347 4.265316963
7.1900177 20.2697506 5.504516602
7.78072834 21.24057388 6.579507828
31.86580276 65.93836975 2.734922647
5.752847195 17.84269142 2.200399637
6.359471321 18.86803627 2.986602068
5.799324512 17.76682472 3.552328348
5.875292778 17.82359695 4.251856804
7.187773228 20.10810089 5.472424507
7.94838047 21.37552071 6.622464657
32.14009094 65.87546539 2.723858356
5.83211422 17.84042549 2.199126959
6.441525936 18.86184311 2.986197472
5.843592644 17.70197105 3.54448843
5.992958069 17.8897686 4.267179489
7.266568661 20.08515167 5.472177505
7.596648216 20.5782814 6.414210796
6.214046001 18.45710564 1.536226392
5.800921917 17.63882446 2.184952497
6.508132935 18.82746506 2.982867241
5.90012455 17.65951347 3.539943695
5.896083355 17.5802803 4.212347031
7.595360279 20.41000748 6.375586033
6.364791393 18.58387756 1.536925316
5.894319534 17.66923141 2.185896397
6.641838074 18.91954613 2.99283886
5.939888 17.59430885 3.532043219
5.965812206 17.56863785 4.213089466
7.635593414 20.41671944 5.557883739
7.678709984 20.3992691 6.379272938
6.376245975 18.46753883 1.531741023
5.893772602 17.53227615 2.176025391
6.358565807 18.27469826 2.92542243
6.456766129 18.37365341 3.647204161
6.043418407 17.5704174 4.216394424
7.719648838 20.41458321 5.562212944
7.739243984 20.35638237 6.374000072
12.37178707 29.03257942 0.660828054
6.511231899 18.5705204 1.531951547
5.924080849 17.45789719 2.170280457
6.359662056 18.14374352 2.911994934
6.480939388 18.28255844 3.635582209
6.132060051 17.59744835 4.224328518
10.40504074 24.90222931 6.594377518
7.79764986 20.30994034 6.367823124
12.41839695 28.89808464 0.6571463943
6.579690456 18.54776001 1.528959274
6.584862709 18.48343468 2.235594988
6.391818047 18.06819344 2.904413223
6.588140965 18.32887459 3.64413166
6.241817474 17.65992165 4.238961697
10.62308025 25.0851059 6.64272213
8.024782181 20.54355431 6.438153744
12.50395107 28.82152557 0.652271688
6.630157471 18.49354553 1.525215983
6.591094971 18.35332108 2.226189852
6.263498783 17.71016121 2.867181301
6.567786694 18.15528107 3.620613098
6.32407999 17.66736221 4.243511677
12.03586864 27.29409218 7.156163692
8.216006279 20.71215057 6.491061211
12.61017895 28.78107643 0.64682585
6.685380936 18.44783783 1.521695614
6.687037945 18.37865067 2.226838589
6.291810513 17.62481117 2.858634949
7.894311428 20.27400398 3.932207584
7.013931751 18.70296478 4.441077709
12.15070057 27.27977562 7.160177708
8.229074478 20.57857132 6.461857796
12.7384634 28.77824211 0.6407603621
6.927226067 18.72124481 1.525815725
6.667964935 18.20723724 2.214828968
6.373298645 17.63037872 2.859677315
7.651070595 19.71068954 3.85194397
7.16575098 18.81786346 4.46613884
13.02691078 28.5381031 7.457017422
8.297510147 20.53861618 6.458204746
12.9327364 28.8869381 0.6328163147
6.861258984 18.47483253 1.517635345
6.753646374 18.21487045 2.214378834
6.481419086 17.68008995 2.865395546
7.700027466 19.65202904 3.845383406
7.209797859 18.75075912 4.457081318
8.606708527 20.98789406 5.7261343
8.397688866 20.55875206 6.470674038
6.85808897 18.33039856 1.511812687
6.79139328 18.14151955 2.20873785
6.628033161 17.7993412 2.878438234
7.768342495 19.61851311 3.842649937
7.263690472 18.70737267 4.452343941
8.616055489 20.8546257 5.700936317
9.251011848 21.80514526 6.819097996
6.760928631 17.96209145 2.196350336
6.715679646 17.81202698 2.88032794
7.806553364 19.54258156 3.833627939
7.327692986 18.67377853 4.449676037
8.67419529 20.79475975 5.692985058
9.288470268 21.71242523 6.801323414
25.96277809 49.72132492 2.24042654
6.757173061 17.82226753 2.186496019
6.738456726 17.72398567 2.871613264
7.131401062 18.29293251 3.652499199
7.409159184 18.67547417 4.453529835
8.793486595 20.84205627 5.709559441
9.376228333 21.69367409 6.804279327
26.10796165 49.55874634 2.229648113
6.75048542 17.67926407 2.176469564
6.853058338 17.77335739 2.877459288
7.164747715 18.20543289 3.641916752
7.810726643 19.18019295 4.552837372
9.515807152 21.84293747 5.947575569
9.434614182 21.61949539 6.792517662
7.446062565 18.74884796 1.511938572
6.730360985 17.51610374 2.16518259
6.808056355 17.56978798 2.856656313
7.232288837 18.18045807 3.640444756
7.86178112 19.12122345 4.545648098
9.29802227 21.33435631 5.836143494
9.484887123 21.54077148 6.779153824
7.497686386 18.69365883 1.508239508
6.971402645 17.77581978 2.181016922
7.057817936 17.84179497 2.886004448
7.254505634 18.08288002 3.628332376
7.902051926 19.04539871 4.535308361
8.907160759 20.55863953 5.662494183
12.29752827 25.8201313 7.966703415
7.082818031 17.88982773 1.487484455
7.033074856 17.73760605 2.177734375
7.240727901 18.0026226 2.90368247
7.202063084 17.86784744 3.598944426
7.983119488 19.02760887 4.53620863
8.961043358 20.48588562 5.652131081
11.95842838 25.09974289 7.778160572
7.144087791 17.85630226 1.484414339
6.750867367 17.16039848 2.140038252
7.22116375 17.83397102 2.886683702
7.219576836 17.76560783 3.586174011
8.231074333 19.27779579 4.587824821
9.164752007 20.65471458 5.697729588
9.243207932 20.69790268 6.571686745
26.10674667 47.70149612 2.154674768
7.341842175 17.96593666 2.190792322
7.408902645 18.00530052 2.90551281
7.354258537 17.84729385 3.600561857
8.155092239 19.02686882 4.544193745
9.313076019 20.74213028 5.724231243
9.228304863 20.52531052 6.532284737
26.22666168 47.53078842 2.144502401
7.372437 17.88977623 2.185213327
7.388726711 17.8435154 2.889251709
7.31420517 17.65642166 3.574768305
8.195596695 18.95199776 4.534219742
9.991185188 21.6343708 5.939035892
10.07348824 21.67079163 6.858255386
26.29387856 47.27905273 2.132579088
7.408840656 17.81674576 2.179820776
7.410869122 17.74895477 2.880111694
7.99793148 18.58086205 3.71385026
8.223844528 18.85887337 4.520802021
9.993343353 21.48147011 5.910266399
10.121068 21.5870533 6.844025612
26.73839569 47.63027191 2.134389877
7.725615501 18.17572594 2.202010632
7.858157158 18.30680466 2.939957142
8.495746613 19.21397209 3.810006142
8.263520241 18.78392029 4.510874748
10.02814102 21.37956429 5.893429756
11.68616867 23.79993439 7.46803236
26.87267113 47.48124695 2.124793053
7.820745945 18.19017982 2.202226162
7.875219345 18.20784378 2.93038702
7.461754799 17.50932884 3.560253859
8.446978569 18.93321037 4.543581009
4.380871773 12.74555683 3.876450539
9.551100731 20.43340683 6.540572166
26.82728767 47.05944824 2.109278917
7.839433193 18.09445 2.195473671
7.793544769 17.95417213 2.904517174
7.547020912 17.5128231 3.563313484
8.55685997 18.96277428 4.553758621
4.448299885 12.75769329 3.883450031
9.60378933 20.36623001 6.53065443
26.95374489 46.90197372 2.099629402
7.909223557 18.07000923 2.193251371
9.000673294 19.63528824 3.083487511
7.577193737 17.43347359 3.554127455
8.649452209 18.96557045 4.558897495
4.482944965 12.72070122 3.878967285
9.679132462 20.33278656 6.530217171
27.16134262 46.88427353 2.093356848
8.748985291 19.1953907 2.26421833
8.920254707 19.37539673 3.057085514
7.600754261 17.35108948 3.544383287
8.715613365 18.92869759 4.55650568
13.45697498 25.8224926 6.968093395
9.775197983 20.33671761 6.5398736
27.17198181 46.55489349 2.080094337
8.790320396 19.11969948 2.258736372
9.01930809 19.390625 3.059792519
9.242738724 19.64385605 3.888089895
10.17918301 20.94628334 4.948328018
4.49421978 12.56681919 3.851045132
5.202245712 13.5471859 4.645583153
23.29541016 40.50095749 1.945071578
9.199619293 19.59290886 2.288201809
5.15294075 13.58496189 2.44527483
9.306933403 19.60535049 3.885294199
12.32366657 23.91718864 5.524801731
4.520294666 12.51841927 3.843934536
5.236256123 13.50774479 4.640220642
22.99395752 39.76310349 1.924104214
8.112862587 17.86600876 2.17784977
5.182465076 13.53842831 2.44113636
9.368625641 19.5562458 3.881116152
14.84766006 27.40126991 6.201396465
4.528423309 12.44878101 3.831605911
9.908297539 20.10803986 6.502812862
23.1767807 39.73992157 1.918398738
8.180294037 17.84411049 2.175923347
5.296741962 13.60992527 2.449593067
9.425599098 19.50041199 3.875976086
20.21175385 34.89677429 7.653598309
4.596740723 12.46146774 3.83900404
4.859706879 12.78792477 4.449617863
23.13673973 39.39363098 1.90593946
9.16778183 19.14050102 2.257655382
5.313616276 13.54022694 2.44308424
9.342302322 19.24437523 3.840961695
10.12769032 20.29512405 4.844234467
4.62449646 12.41606331 3.832688332
4.899915695 12.75777817 4.446980953
23.44924736 39.57115936 1.904734492
9.324008942 19.22902298 2.262705088
5.224743366 13.32056618 2.420647383
5.148854256 13.16803074 2.935120106
10.18487644 20.23372841 4.837859631
4.680468559 12.41061592 3.8358953
10.07995224 19.93736458 6.482539654
23.73552322 39.69319534 1.902080894
9.312995911 19.07832718 2.252602816
5.173748493 13.16172218 2.404629946
5.166241169 13.10256195 2.927529812
10.26366997 20.20991516 4.83852911
4.70706892 12.36800575 3.830082655
10.31788445 20.12997627 6.54673624
23.69756126 39.36782837 1.890466571
9.380036354 19.04578972 2.250044346
5.21178627 13.12518024 2.401683092
5.15575695 13.00308704 2.9147439
10.33774757 20.1721859 4.836845875
4.836515903 12.46410561 3.857601404
10.38140488 20.08512497 6.543378353
23.80129433 39.23060608 1.882524967
24.21381187 39.65771484 3.555317879
5.288210869 13.14669418 2.40489459
5.205982685 12.98447609 2.914211512
10.4037447 20.13015366 4.834101677
5.018913269 12.6355896 3.903026819
5.461964607 13.19638729 4.595225811
24.60404015 40.08262634 1.894949675
5.824223518 13.84924507 1.920014739
5.30747366 13.08394909 2.399199486
5.247087479 12.95752621 2.912343264
4.050023556 11.26652718 3.116078854
5.067836285 12.61746979 3.903526068
4.132473469 11.30032635 4.061466217
24.33753586 39.42700577 1.87650919
9.929427147 19.41428185 2.271953583
5.507230759 13.27405643 2.420452595
5.840761662 13.68233299 3.023759127
5.831080914 13.62376785 3.57819438
5.153119564 12.6528101 3.916641474
4.147774696 11.24602222 4.05150795
24.46147346 39.28783798 1.868076801
9.92634964 19.26850128 2.262261152
5.633563519 13.34735298 2.42944932
5.857873917 13.60368061 3.014672518
5.926733494 13.65198421 3.588025093
5.200408459 12.62330914 3.915026665
4.132592678 11.14378643 4.028416634
24.70154762 39.33541107 1.863911033
5.909201145 13.67911148 1.90830195
5.384319782 12.91990089 2.384855509
5.620488167 13.1918745 2.955069542
4.146727562 11.16945076 3.106883049
5.270570278 12.6327877 3.922335625
4.12490797 11.06000137 4.01001358
24.70457649 39.06014252 1.853363276
5.928681374 13.61270809 1.903826356
5.503489017 12.99300575 2.393764973
5.664435387 13.16196442 2.953054905
4.167030811 11.12257767 3.100976944
5.320818424 12.61524868 3.923208952
4.163758278 11.03859615 4.009490013
24.31193733 38.25598526 1.832521915
5.999221802 13.61513042 1.903719306
5.519259453 12.92673302 2.387791395
6.03190279 13.56178284 3.016100883
4.176378727 11.06149769 3.092302084
4.19546175 11.00773811 4.006293774
24.89367485 38.77505493 1.837920785
6.01824379 13.54858589 1.899269819
5.623558998 12.97815895 2.394448042
5.495628357 12.76780319 2.898323774
4.250009537 11.08539009 3.100322723
4.213427067 10.96262455 3.998740196
25.48824692 39.28882599 1.842835307
6.038124084 13.48365498 1.894940376
5.538021564 12.78316879 2.374651194
5.538115025 12.738307 2.896388769
4.29207468 11.07102585 3.100710392
4.488785267 11.2878046 3.616982937
4.231726646 10.91463757 3.990661383
24.90591049 38.25992966 1.81821847
5.833718777 13.12981319 1.872392178
5.633896828 12.82303333 2.380117416
5.606278896 12.7464323 2.900070429
4.320204258 11.03480911 3.096998453
5.595371246 12.64239407 3.950576544
4.297111511 10.93108273 4.0009408
25.43717957 38.68477631 1.821378112
5.831231594 13.038764 1.866452813
5.846134663 13.01702976 2.402122498
5.640192986 12.70555115 2.896468401
6.619595528 13.92589378 3.670891762
5.590676785 12.55698204 3.93497467
4.57838583 11.21916103 4.090314388
25.7347908 38.79918289 1.818543196
5.796782017 12.91158676 1.858259082
5.755027294 12.81309986 2.381453276
6.116891861 13.19067764 3.530036449
5.600874901 12.48716164 3.923432589
4.59252739 11.16396236 4.080424309
25.85442352 38.6814003 1.811309934
5.816471577 12.8509016 1.854271531
5.881209373 12.88931561 2.390934706
5.853445053 12.80935383 2.917658567
4.532773495 11.09316158 3.118904829
4.62820673 11.13627625 4.078548908
26.21837997 38.88970566 1.810458541
5.860521317 12.8216486 1.852284193
5.903181076 12.83175564 2.386043072
10.87248898 19.07624245 3.878143549
4.555935383 11.0500164 3.113970518
4.938423634 11.45561981 4.177581787
25.81840897 38.11059952 1.790969968
11.39228821 19.73171997 2.288127422
5.982256889 12.85075188 2.389361382
6.937405586 14.00600529 3.10627079
4.80907011 11.29848289 3.166833639
5.643208504 12.29959106 3.893917322
4.976340294 11.42826366 4.176098347
26.11696434 38.22136688 1.788097501
6.047066689 12.89087486 1.856420517
11.00284672 19.04849815 3.060109377
6.891046047 13.85530376 3.086301565
4.821690083 11.24060822 3.159109354
5.761844158 12.36600399 3.915855408
6.04005003 12.79689884 1.850396991
6.015309811 12.72276402 2.378287554
4.768521309 11.1360302 2.671871901
4.843958855 11.19505405 3.153852701
10.6255064 18.26389503 5.372960091
26.8087101 38.56478882 1.784736514
12.25337791 20.33494568 3.203644991
6.958749771 13.7604866 3.077905416
4.897255898 11.18774796 3.156259298
6.451528549 13.04691219 4.095300674
4.068445683 10.10690403 3.807185888
6.010538578 12.59248066 1.837362647
12.36171246 20.33711243 3.206132412
7.038711548 13.76736164 3.082186937
4.972653389 11.21065998 3.164567471
4.063136578 10.03592491 3.792226076
5.830070972 12.25242805 2.331520796
5.593566895 11.92465019 2.801127195
5.003467083 11.17537975 3.16146636
5.42783165 11.64864635 3.761318445
4.104884148 10.02202034 3.794101238
6.200339317 12.6619339 1.841665387
5.887354374 12.24157619 2.331786394
6.037999153 12.38208008 2.874676466
5.093612671 11.21137333 3.172718763
5.490412712 11.64812374 3.766839266
4.121542454 9.978056908 3.787134171
6.250198364 12.63895416 1.840200424
5.928082943 12.21056271 2.329886675
6.231376648 12.53663445 2.901464224
5.083720684 11.1272583 3.159863234
5.023985863 11.01916981 3.616169214
4.18047905 9.987535477 3.795728922
6.2743783 12.58512688 1.836806536
11.59118652 18.88339996 3.057740927
5.104750633 11.08406353 3.155048132
5.059949875 10.99435425 3.615167141
4.730419159 10.57026958 3.975152969
59.02500534 75.3853302 2.39577198
11.82227612 19.0304966 3.076204777
12.10728168 19.30199814 3.95868063
4.595749378 10.41458607 3.023824692
11.82204437 18.84238434 5.580415249
4.213094711 9.899280548 3.781835079
6.031187057 12.13463974 1.808448315
12.58679104 19.80155182 3.162855387
7.452741146 13.72354698 3.095607996
5.171505451 10.98011971 3.622967958
4.192116737 9.812316895 3.762114048
59.29620743 74.63271332 2.362817764
5.905468941 11.90859699 1.794240713
5.773413181 11.71583462 2.282004118
6.372533321 12.37394428 2.888938665
4.717717171 10.42011738 3.033045769
4.25151825 9.815568924 3.769671917
59.01376724 73.78522491 2.338732481
5.966532707 11.89847183 1.793667793
12.56114388 19.50139618 3.135517359
4.491744518 10.09053898 2.970215321
5.129380226 10.75630093 4.058384418
7.068757057 13.1058836 1.869891644
6.769082546 12.71835518 2.394817352
6.038360119 11.83890724 2.811439514
4.706336975 10.28139496 3.012475729
4.87095356 10.43558121 3.502338409
5.015770912 10.56575298 4.007458687
6.119946957 11.93231678 1.795960784
6.106654644 11.87872887 2.304464102
5.529891968 11.18354321 2.71189785
4.715435028 10.22640705 3.005318403
4.919720173 10.42448521 3.505069733
6.162867069 11.7916851 4.38415575
6.096085548 11.79008389 2.296392918
5.99196291 11.63443661 2.785743475
4.73211956 10.18034172 2.999993324
5.057361126 10.51297951 3.533064127
6.593274117 12.19798756 4.514998436
6.065576553 11.71710491 1.782613397
5.789988518 11.36916924 2.251771688
6.248570919 11.84786892 2.822542429
4.951404572 10.36133194 3.041268826
5.176043987 10.57868767 3.5554533
5.441166401 10.83906841 4.111660957
5.299396992 10.78120327 1.723680139
5.529437542 10.96972084 2.687436819
5.026609898 10.37923336 3.049226761
5.228124142 10.56929493 3.558893681
5.497978687 10.83301353 4.117328167
5.27642107 10.68664074 1.717851639
5.497566223 10.83339214 3.147165537
5.198283195 10.46948624 3.539348602
4.917095184 10.12752533 3.910075903
57.47251892 68.62421417 2.189747572
5.361347675 10.7124567 1.719636917
5.670010567 11.01955414 2.218189001
5.229188442 10.50004864 2.619364262
5.189084053 10.3931942 3.52576232
6.575372219 11.86915016 4.448940277
5.373976707 10.65798473 1.716366649
12.49994469 18.43392754 3.040385962
5.509019852 10.70861721 3.130613565
5.162140369 10.29829025 3.507386446
6.809589386 12.04663372 4.511852264
6.013923645 11.3241539 1.265073061
5.422765732 10.64332485 1.715625048
5.737596512 10.95288849 2.214207172
6.551654816 11.80534267 2.832750797
6.451997757 11.66024494 3.332748175
5.284390926 10.3650341 3.530473232
6.668213844 11.82168674 4.45121479
7.179914951 12.44579601 2.381569386
6.807150841 12.00499916 2.868102789
7.89951086 13.14425087 3.646290064
5.235140324 10.25016975 3.506667137
6.707501888 11.7882576 4.449679852
6.077754021 11.25197792 1.261288047
5.394969463 10.4816637 1.705807328
7.285286903 12.47877026 2.387266874
6.89401865 12.02484608 2.874764681
6.69658041 11.77640533 3.36714983
4.682170391 9.570674896 3.774135351
5.970221043 11.06804085 1.257158279
5.584872723 10.62159824 1.714872122
5.480081081 10.47719097 2.166371107
6.699400425 11.74468994 2.833531141
5.714683056 10.66445541 3.139957428
7.765581131 12.80105305 4.177985668
4.679884434 9.511487007 3.762586594
5.922144413 10.94602394 1.253958106
5.499273777 10.46643257 1.705286264
6.728160381 11.73636913 2.30844903
13.34738064 18.68923187 3.949679613
5.716974258 10.60273075 3.131679296
6.359839439 11.24413204 3.782181501
4.696321011 9.469340324 3.756660938
19.49208832 25.32531548 0.300732106
5.943364143 10.89861488 1.2519238
5.544918537 10.4481802 1.704385877
6.059941769 10.95819664 2.2235322
6.000049114 10.86171436 2.699221373
5.704231739 10.52235985 3.119731903
4.931160927 9.684257507 3.383614779
4.768068314 9.484817505 3.76866293
6.179375648 11.07724571 1.253306866
5.583647728 10.42249966 1.703029871
6.323733807 11.16410351 2.248468161
5.824151516 10.60961533 2.662152529
5.733569145 10.48634338 3.11709857
4.926174164 9.618513107 3.372452736
4.909317493 9.571357727 3.802928209
6.263383389 11.12805367 0.7593759894
6.247983456 11.07814217 1.251989245
5.611234188 10.38513851 1.700948
5.809574604 10.52737808 2.652343035
8.159683228 12.92154789 3.635757446
4.931795597 9.564176559 3.364255667
4.921722889 9.524368286 3.795692682
6.283393383 11.04413605 1.250155091
5.662287235 10.37210941 1.700422287
6.815686703 11.52929497 2.293444872
6.383591175 11.05030346 2.740319729
5.214274406 9.822688103 2.986807108
4.944847584 9.488532066 3.791960001
6.295511723 11.01939297 0.7570587993
6.331227303 11.02291775 1.248517275
6.820607185 11.4607172 2.287842751
8.483057976 13.12133312 3.079472065
5.246678829 9.79404068 2.985500336
5.480725288 10.00144863 3.491296053
5.079061985 9.564988136 3.823549509
6.220471382 10.87201977 0.759103179
6.95801115 11.52722263 2.297470808
7.739080429 12.28726482 2.948388577
5.290119648 9.776516914 2.986588955
5.498500347 9.956612587 3.485985756
5.2978158 9.727837563 3.88220191
6.180620193 10.7655077 0.7599560022
6.372941971 10.89591599 1.734676719
6.95804882 11.45735073 2.291658163
5.221257687 9.675164223 2.52768755
5.034622192 9.461986542 2.924196959
5.532574177 9.931380272 3.485541105
5.175011158 9.544717789 3.832276106
6.209330082 10.7259531 0.7583791614
5.679749966 10.10276031 2.140681505
5.279876232 9.673080444 2.530691147
5.086801052 9.4548769 2.927429438
5.309108734 9.617947578 3.863367796
6.440946102 10.82568932 1.730999947
6.932450771 11.28619957 2.276715755
5.293454647 9.625911713 2.526370287
5.13770628 9.443240166 2.929987192
5.46658802 9.739202499 3.448123217
5.557984352 9.802562714 3.930098057
19.03526497 23.38203812 0.3044472337
20.8728981 25.13671684 1.439739704
7.081289291 11.39180279 1.767430663
6.491094589 10.77450848 2.220983982
5.28142786 9.550741196 2.517642498
5.505735874 9.716608047 3.448736191
5.425584316 9.609060287 3.877122402
20.89033127 24.98564529 1.434472084
7.138114452 11.37136841 1.766613722
6.50977993 10.72448444 2.217464924
5.301841736 9.482833862 2.948560715
5.536493778 9.682703018 3.446710587
5.417990685 9.541759491 3.863830328
19.04077911 23.08361626 0.3017885685
20.95005608 24.89367104 1.430370212
20.87837982 24.74645805 2.619061947
6.079738617 10.24054337 2.164402962
5.332782269 9.48738575 2.513787746
5.484930038 9.606907845 2.979864359
5.409814358 9.505831718 3.405406952
5.172207832 9.251507759 3.778187037
21.03781891 24.81256485 1.42612505
20.97278786 24.67278099 2.615496635
7.313533306 11.37415409 2.295842409
5.341196537 9.436120987 2.508832455
5.617699623 9.677594185 3.000058651
5.504909515 9.54069519 3.421130896
5.174416542 9.196115494 3.768445015
6.336419582 10.44969177 0.7506239414
5.911627293 9.953099251 2.135687828
5.392385483 9.426157951 2.510716915
5.332260609 9.344071388 2.932919979
5.611804962 9.582962036 3.439319611
5.148030281 9.113913536 3.750042915
6.361011505 10.40695763 0.7492204309
6.090567589 10.11677933 1.223288298
5.957525253 9.934216499 2.135646105
5.563053608 9.529669762 2.53146553
6.619561672 10.50794888 3.191387415
5.780514717 9.682711601 3.473192453
5.058682919 8.973045349 3.712589502
6.418641567 10.39597034 0.7466437221
5.961668968 9.904178619 1.675369501
7.577179909 11.40803909 2.307103872
5.6623559 9.56384182 2.54082036
5.852807522 9.718584061 3.024984121
5.055381298 8.914307594 3.701613665
6.513987541 10.42051029 0.7427216768
5.995891571 9.874005318 1.673934698
5.605561256 9.450522423 2.525663853
5.313144684 9.152288437 2.906506062
5.099646568 8.926386833 3.281855345
5.034617424 8.839731216 3.685457945
6.557289124 10.3950901 0.7406556606
6.394499779 10.21516705 1.221006274
5.680139542 9.488105774 2.09074831
5.702095985 9.48429966 2.534861326
7.032261848 10.69378376 3.250129461
5.133306026 8.902137756 3.28188014
5.050785542 8.802629471 3.681081772
6.591594219 10.36440754 0.7389391065
5.701208115 9.451059341 2.088506699
6.156144142 9.84543705 2.599190235
5.86880064 9.55461216 3.005285263
5.13079071 8.847270966 3.27323842
5.167429924 8.855145454 3.706493855
5.916889668 9.642557144 1.211276889
6.562685966 10.21603775 1.697427511
5.665005684 9.358280182 2.079930782
7.559013844 11.07401943 2.809662819
6.699124813 10.25640106 3.165831089
5.145342827 8.805622101 3.268545151
6.039937019 9.69510746 1.210792542
7.480590343 10.99512768 1.748024225
5.67089653 9.304923058 2.075919628
7.519556522 10.96739006 2.79633069
7.113300323 10.56889629 3.241160154
5.206299782 8.80627346 3.275503635
5.403564453 8.959359169 3.757682085
5.961335182 9.564892769 1.208072782
7.514222622 10.95557594 1.746137977
5.72961092 9.299942017 2.077545404
6.815559864 10.26206303 2.681591034
6.634948254 10.06910038 3.136563063
5.182747841 8.733016014 3.261804342
5.870144367 9.424526215 1.205259442
5.695239544 9.213355064 2.069573641
6.890758991 10.26807022 2.686769009
7.542119026 10.82396889 3.31056118
5.211536407 8.707251549 3.261206627
5.296465874 8.758096695 3.707474232
5.988838673 9.472276688 1.204723835
7.117376804 10.46537876 1.715873718
6.921842575 10.23078251 2.684876919
5.860160351 9.256838799 2.96688199
5.265327454 8.676055908 3.688818216
6.032052517 9.451194763 1.203343391
7.168683529 10.4412384 1.715031147
5.822926998 9.214743614 2.074157715
5.674039364 9.056475639 2.489335537
5.858080864 9.194043159 2.958852291
6.151400089 9.42701149 3.476090193
5.239583492 8.599488258 3.671911716
6.085683346 9.436226845 1.201984763
5.833869457 9.16358757 2.070587635
5.685925484 9.007351875 2.485117435
6.889301777 10.04398727 3.15572238
5.672432899 8.947562218 3.349827051
5.272074223 8.571838379 3.671769381
6.12286377 9.40941143 1.200545788
7.162978649 10.30344105 1.707546711
5.94346571 9.202289581 2.077490091
5.522797585 8.807889938 2.454949141
6.696153164 9.811533928 3.109763622
5.372449875 8.605751991 3.691946507
7.199912071 10.29560661 1.209780931
5.928769112 9.131486893 2.071527481
5.553282261 8.779270172 2.453994036
17.04239082 18.72917938 5.133674145
7.73185873 10.61784267 3.834835529
6.115056515 9.192679405 3.898962975
5.979759216 9.143458366 1.633899808
5.987518787 9.12488842 2.073158026
5.660364151 8.816806793 2.464467287
5.674472809 8.807199478 2.894661188
5.641100407 8.753831863 3.317690611
5.476310253 8.587926865 3.703850508
8.032984734 10.88918304 1.214151859
5.919192791 9.033421516 1.627441287
5.979844093 9.060738564 2.067996264
5.728730202 8.822934151 2.469399214
5.661366463 8.740791321 2.885351181
5.767967224 8.785203934 3.779545546
8.103896141 10.88357353 1.212837815
5.964264393 9.017900467 1.627085209
5.987095833 9.012639999 2.064619303
5.659622192 8.711341858 2.45398283
5.68875885 8.712025642 2.884324789
5.434781075 8.475152969 3.252870798
5.528445721 8.530542374 3.701699257
5.881571293 8.893310547 1.619653106
7.345229626 10.11223507 2.198048353
5.5548172 8.567892075 2.433171988
5.713038445 8.680614471 2.882718801
5.470126629 8.451987267 3.253698349
5.827253342 8.728075027 3.778548956
7.970359802 10.63042068 1.207409263
5.78564167 8.753220558 1.611279011
7.522061348 10.19673443 2.211014986
5.61341238 8.563407898 2.436500311
5.511255264 8.430904388 3.255546331
5.803422928 8.653520584 3.762564421
8.065554619 10.63863945 1.206149459
8.040676117 10.56236267 2.257919073
5.658158302 8.544290543 2.437529564
6.524103165 9.244425774 3.025042772
5.511680603 8.378515244 3.248081446
5.900929451 8.677246094 3.780870676
6.085548401 8.890316963 1.621722221
7.129676819 9.7370224 2.161852121
5.75205946 8.568392754 2.445974588
6.337954044 9.029114723 2.982061386
5.601209641 8.397208214 3.26148057
6.007938862 8.710674286 3.802234888
5.975954056 8.769715309 1.183749318
8.504290581 10.81301498 2.294216156
5.826482296 8.578392982 2.451805592
6.59887886 9.191905975 3.025675058
6.073415279 8.77354908 1.615556002
6.547967911 9.138980865 2.09527564
5.947037697 8.622841835 2.464004755
5.813363075 8.493121147 2.869494915
6.397119045 8.944345474 3.435105801
5.66609621 8.327138901 3.688127279
7.727491379 10.06864071 1.701284885
6.585887432 9.111658096 2.094738007
5.967906475 8.588013649 2.462045431
5.876656055 8.490839005 2.875144482
6.350046158 8.849713326 3.416050196
5.746911049 8.342549324 3.702733755
6.448916435 8.991177559 1.182943225
6.259982586 8.81380558 1.619812369
7.391406536 9.70789814 2.169822931
5.977603912 8.541511536 2.458252192
8.643428802 10.66474247 3.391170025
6.357862473 8.802718163 3.410403252
5.723918915 8.271753311 3.687723398
6.558107376 9.024815559 1.182263255
6.483776569 8.940730095 1.628960252
7.041058064 9.364189148 2.131010294
5.922156811 8.445732117 2.445453882
5.932617664 8.431316376 2.873416662
5.858411789 8.329109192 3.717303991
6.634725571 9.028518677 1.181220651
6.574781418 8.935256004 2.081449509
5.800578117 8.29557991 2.423100471
5.976082325 8.415127754 2.875644922
5.929759026 8.355700493 3.295584202
5.902623177 8.311470985 3.721131086
6.253093719 8.66674614 1.17657268
6.546000957 8.879107475 1.62661767
6.565188885 8.870571136 2.076397181
5.743591785 8.198096275 2.410081863
6.045722961 8.416678429 2.882452726
5.966486931 8.331723213 3.296788692
5.920665741 8.273144722 3.717692137
6.302064896 8.650086403 1.175376415
6.567465782 8.839199066 1.624888301
6.611705303 8.850423813 2.076814413
5.687605858 8.102319717 2.397313595
6.117044926 8.419057846 2.889545679
6.01557827 8.31725502 3.300868034
5.958609581 8.250368118 3.719817162
6.305650234 8.600311279 1.173917055
6.248912334 8.533137321 1.60554409
5.71295166 8.073322296 2.396333456
8.992816925 10.59798241 3.416665077
6.019979954 8.248147011 3.728843451
6.353167534 8.585037231 1.172796249
6.226801395 8.464109421 1.601830125
5.731916428 8.039370537 2.394477129
6.178844452 8.362663269 2.889007568
6.062829971 8.231338501 3.732743263
6.296082973 8.485765457 1.17084229
8.012041092 9.791520119 1.690925956
6.685184479 8.743503571 2.072183847
5.854478359 8.082461357 2.406883001
6.447005749 8.517401695 2.9326334
6.454362869 8.500161171 3.38059926
6.497189999 8.509730339 3.843681812
7.990454197 9.733962059 1.181317329
6.450563431 8.527621269 1.607928157
6.780570984 8.760234833 2.077286243
5.822523594 8.006685257 2.397703409
6.192764282 8.266972542 2.879457951
6.447574139 8.438001633 3.371325016
6.508022785 8.46359539 3.83808589
6.475901127 8.51440239 1.169071317
6.481851101 8.496624947 1.606835246
6.331043243 8.359891891 2.030576706
5.85831213 7.982800484 2.397999048
6.264166355 8.268061638 2.886551857
6.463012695 8.398345947 3.367925644
6.529595852 8.425682068 3.835484982
6.510619164 8.488594055 1.167870402
8.773926735 10.17710304 1.720106006
6.347712517 8.321471214 2.028586388
5.980214596 8.026074409 2.41044116
6.320156574 8.259760857 2.891105652
6.068510532 8.052358627 3.271535635
6.928894043 8.672014236 3.936072826
8.799772263 10.13292789 1.718324542
6.388185978 8.300947189 2.02885437
6.000194073 7.989677906 2.408538103
6.364774704 8.240015984 2.893284082
7.70988512 9.219047546 3.635993719
6.847486019 8.55597496 3.905330181
37.38485336 31.4355545 1.364689946
7.79980278 9.317938805 1.664951921
6.397577763 8.251821518 2.025850534
6.927061558 8.622429848 2.530882359
6.278505325 8.120762825 2.871462107
7.759229183 9.192491531 3.638757706
6.930520535 8.559111595 3.918827534
36.32145691 30.42574883 1.35196054
6.8647542 8.562653542 1.615387082
6.451692581 8.235858917 2.02704668
6.958695889 8.589852333 2.530192852
6.314759254 8.095173836 2.872220755
8.042068481 9.336388588 3.694012642
6.805513859 8.412745476 3.876647949
8.084065437 9.426650047 1.171612978
7.877363205 9.250222206 1.662826419
6.673855305 8.347945213 2.044202328
9.000603676 10.02458477 2.803464174
6.354505539 8.074614525 2.873910666
7.948869228 9.210747719 3.665495396
7.613667965 8.943335533 4.085425854
8.102542877 9.381183624 1.170142889
8.216629982 9.439788818 1.67678833
6.854621887 8.425187111 2.05722332
7.817085743 9.103699684 2.637115717
6.433963776 8.079989433 2.88244772
7.667174816 8.926436424 4.091323376
