# .PCD v0.7 - Point Cloud Data file format
VERSION 0.7
FIELDS x y z
SIZE 4 4 4
TYPE F F F
COUNT 1 1 1
WIDTH 1323
HEIGHT 1
VIEWPOINT 0 0 0 1 0 0 0
POINTS 1323
DATA ascii
23.38815498 25.14174652 1.534192801
23.41268539 25.1741333 2.760363102
23.417696 25.18491936 3.991537094
23.45140076 25.23700714 5.237635612
14.33792591 15.082551 4.273936749
14.22650051 14.96194077 5.015397072
23.58643913 25.41474915 9.090847969
18.35461998 19.38985443 0.4171546102
23.56596947 25.15642357 1.538530469
23.57159615 25.16791153 2.76766181
23.57313156 25.18412399 4.002490044
23.62176514 25.24354172 5.254289627
14.40765762 15.05412197 4.279011726
23.69725418 25.34828377 7.805711269
23.73589134 25.39767075 9.113008499
18.73103905 19.66128159 0.4122587442
23.73154449 25.16544151 1.542556524
23.73696518 25.17684555 2.775803804
23.75077057 25.19759941 4.015911579
23.77457237 25.23866844 5.268371582
23.78867149 25.26020813 6.53190136
23.87631989 25.36299133 7.833386898
23.90060616 25.40563202 9.141973495
18.88427353 19.6919384 0.4117614329
23.8952179 25.16211128 1.546470523
23.90989304 25.18373871 2.784273863
23.90540886 25.19376564 4.026725769
23.94553947 25.24352837 5.285072327
23.93462181 25.24697304 6.547855377
24.02607346 25.35343742 7.853606224
24.06490707 25.40287018 9.169211388
19.04286957 19.71994972 0.4113221169
24.05645752 25.15501022 1.550321817
24.06235504 25.17634392 2.791333199
24.06482697 25.18499184 4.037642002
24.11816025 25.24898338 5.302047253
24.1106987 25.25643349 6.570006847
24.191185 25.35052681 7.877043724
24.2334404 25.40356255 9.197845459
19.29859352 19.85107231 0.4090084136
24.21656227 25.14564514 1.554152727
24.24946213 25.19618416 2.800978661
24.24207687 25.19440079 4.050952911
24.27625275 25.23755836 5.316277504
24.27368927 25.25052643 6.588973999
24.33520889 25.32377815 7.894270897
19.55819321 19.98358154 0.4066770971
24.38876343 25.15723991 1.55844152
24.38380432 25.15815544 2.806245804
24.41969872 25.20287514 4.064289093
24.4273262 25.22669029 5.329942703
24.44637108 25.25388336 6.610211372
19.7041626 20.00012398 0.406463176
29.4217968 30.32382584 3.21631813
17.01368141 17.02032661 0.4608828425
30.38666153 31.12673569 1.745153546
29.54274178 30.24505997 3.219709635
17.11722946 17.0100975 0.4611554146
30.53540802 31.0595932 1.74842453
29.69508362 30.18811226 3.225371361
17.13733482 16.89384079 0.4633797705
40.88341522 41.57850266 2.072098494
28.66633034 28.89212227 3.134042263
17.74189949 17.39980507 0.4542613924
41.9774971 42.4120369 2.104633093
28.79623413 28.81927681 3.138191938
20.8133316 20.41877747 0.3994049132
31.99752235 31.89625359 1.790218115
29.44363213 29.28698158 3.184826374
21.07875061 20.54793549 0.3971835673
31.9519043 31.62185287 1.787464499
29.36943245 29.00181961 3.172349691
21.23227882 20.55384827 0.3972203434
32.30833817 31.75614357 1.797317982
29.49479294 28.93139076 3.176474571
21.4383297 20.61136627 0.3963260949
32.47136307 31.69284439 1.801144481
29.98585129 29.21753883 3.209855318
17.05679512 16.09544182 0.4785856009
31.9814949 30.97805977 1.784642339
29.77380562 28.79697227 3.186469078
12.29482269 11.36581135 2.38807869
17.78719521 16.69385147 0.4678504169
31.88617134 30.65118408 1.780441761
6.379091263 5.414687157 1.300174475
12.31119251 11.29273033 2.38532567
6.419298649 5.46087265 2.262528181
17.77165985 16.55010033 0.4706123173
30.99581528 29.54634666 1.751563549
6.376494884 5.366104603 1.298599482
12.29169655 11.18477917 2.377982378
6.437074661 5.434345245 2.26202035
22.50570488 21.0452652 0.3891526759
31.09029007 29.42690086 1.753433943
6.365403652 5.311762333 1.296430469
12.36210918 11.16971684 2.382541418
31.0442028 29.42349625 6.326959133
6.47026825 5.422947407 2.265060663
22.7531414 21.13214874 0.3877716064
32.19710541 30.29914856 1.786800981
6.435733318 5.336789608 1.300776005
12.22669411 10.95465851 2.360624075
12.08598995 10.82646275 2.938075304
6.496382713 5.404518127 2.266494036
23.0494709 21.27150726 0.385438025
31.16313934 29.08721542 1.753710508
6.494801521 5.350325108 1.304216623
12.33746815 10.98321629 2.370665789
12.10945129 10.76779461 2.935907841
6.518513203 5.384379387 2.267262459
18.18846512 16.47341347 0.4726287127
31.38801384 29.104002 1.759754777
6.372571945 5.192161083 1.293326855
6.639762402 5.44998455 1.637215972
11.99737167 10.58362484 2.910122395
6.44188261 5.267456055 2.245475054
18.31270981 16.47635269 0.4727405608
30.30473709 27.86689568 1.725292921
6.374915123 5.152039051 1.29230094
6.676569462 5.443064213 1.639701843
6.708703041 5.476010799 1.971040606
6.476440907 5.259733677 2.249147654
23.86166573 21.58442688 0.3804262877
30.42954063 27.78435707 1.72827363
6.391988754 5.128153801 1.292514086
6.600083351 5.326821327 1.627654552
6.662985802 5.38860321 1.959605217
6.509213448 5.24800539 2.252202988
23.99695587 21.5543232 0.381213218
31.80217934 28.86962891 1.769818783
6.393571377 5.085613728 1.291398764
6.59116745 5.27519083 1.624265194
6.307033539 5.011224747 1.893841147
6.507056236 5.20122385 2.247214556
6.599113941 5.290157318 2.594498396
24.37360382 21.73983765 0.3781215549
31.17646217 28.08056068 1.74965632
6.385121822 5.036098003 1.28957057
6.632607937 5.268676281 1.627173901
6.308629036 4.971654415 1.891003966
6.276842117 4.944470882 2.19148612
6.525777817 5.178922176 2.569130421
6.436925411 5.100874901 2.867369413
19.83515167 17.40169907 0.4567780793
31.32575226 28.01641846 1.753454566
6.395477772 5.004321098 1.289236903
6.705585957 5.295349598 1.634287119
6.315849781 4.937533855 1.889183402
6.278654575 4.907601357 2.188048601
6.555781841 5.16665411 2.572330475
6.454743862 5.075816154 2.866924047
19.91661453 17.34859276 0.4579561651
12.39935207 10.46865368 1.169612169
6.407607555 4.976363659 1.289111495
6.922208786 5.451045036 1.659358978
6.450477123 5.022621155 1.909706235
6.321982861 4.907085419 2.193685532
6.570940018 5.138508797 2.571248293
6.494355202 5.072920799 2.873820066
20.00217056 17.30535316 0.4589509964
12.35020351 10.34456253 1.167803884
6.402930737 4.93113327 1.287628531
6.915174961 5.402606487 1.656335115
6.315619469 4.858422279 1.883233428
6.367293358 4.910101891 2.199951887
6.492261887 5.026832581 2.545054197
6.513493538 5.048994541 2.873842001
20.03148079 17.20460892 0.4610004723
12.91876602 10.78019333 1.185012698
6.402928352 4.892482758 1.286582589
6.477907658 4.96281004 1.599320173
6.309090614 4.812428474 1.879125714
6.44148016 4.936955929 2.212394238
6.492372513 4.985773563 2.540048361
6.555607319 5.045936584 2.881232738
20.11540222 17.15329933 0.4621638656
12.94749451 10.72438335 1.185614228
6.405229568 4.854112625 1.285676122
6.419750214 4.869643688 1.589994907
6.3598423 4.818283081 1.884942055
6.413248062 4.870928288 2.202198505
6.531627178 4.980216026 2.545632839
6.71778965 5.150784969 2.926846743
20.20368004 17.10562515 0.4632680416
32.31985855 27.91715622 1.780460238
6.438622952 4.843717575 1.287197471
6.34264946 4.763068676 1.879054546
6.321361542 4.74861145 2.178081036
6.508059025 4.918244839 2.534352303
6.782139778 5.166330338 2.941167355
20.25443077 17.02441788 0.4649820924
12.87253284 10.49593544 1.182786584
6.349485874 4.724573612 1.279236078
6.322598934 4.703233719 1.57391274
6.399358273 4.773856163 1.88590014
6.33793211 4.723957062 2.177909374
6.564792156 4.928128242 2.544653893
6.759384632 5.10393858 2.927857876
26.61249352 22.48656464 0.3670192659
12.622365 10.19616413 1.174868464
6.360030174 4.694492817 1.279021144
6.343523026 4.682490349 1.574576139
6.319259644 4.663696289 1.869310737
6.222639084 4.583109379 2.148914099
6.526063442 4.853375435 2.52944684
6.7625494 5.064950943 2.922838926
12.91454124 10.3683939 0.5851000547
12.61427021 10.11131382 1.174394369
6.340371132 4.638129234 1.276489258
6.442340374 4.729822636 1.584890962
6.335530758 4.6390481 1.869279742
6.2341609 4.554923058 2.147765875
6.535582066 4.821599483 2.527192354
6.769917488 5.029861927 2.919203043
12.94473934 10.31540203 0.5862242579
6.617618561 4.837218285 0.990410924
6.37016201 4.625156403 1.27778399
6.528028965 4.764780521 1.593550086
6.361236572 4.624563694 1.871012688
6.2738657 4.551318645 2.152777195
6.586394787 4.825855255 2.535937786
6.790784359 5.008751869 2.920152664
12.97731686 10.2685194 0.5872333646
6.675455093 4.846724987 0.9920762777
6.378761768 4.593797684 1.277456999
6.536132336 4.734042168 1.592722893
6.392373562 4.612748146 1.87353909
6.264873505 4.507332325 2.147395611
7.077061653 5.211729527 2.661358118
6.802296638 4.977471828 2.917903662
26.3653965 21.63289261 0.3837553263
6.892996788 4.992340565 0.9986356497
6.459086418 4.625871181 1.282688141
6.493648052 4.658136845 1.585601687
6.459662437 4.631752014 1.882196784
6.276066303 4.479072094 2.146253109
6.685857773 4.833400249 2.55303359
6.608403206 4.770004272 2.851547241
26.6741333 21.73616791 0.3822822571
6.657440662 4.750846386 0.9913293719
6.448800564 4.576342583 1.280881047
6.821784973 4.900982857 1.940665126
6.31812048 4.475289345 2.151625633
6.457283974 4.596628666 2.487918139
6.604224205 4.726800442 2.84467268
6.8581357 4.845971584 0.3721683919
6.88118124 4.894774914 0.6839179993
7.208594322 5.173561573 1.008095384
6.400670528 4.49718523 1.276251316
6.770467758 4.811974049 1.615662098
6.351763725 4.466009617 2.155357599
6.423832417 4.529817581 2.474651575
6.661704063 4.734078407 2.856742382
6.867441177 4.813049316 0.3733481765
6.898308277 4.868161678 0.6844958663
6.92458725 4.893022537 0.9993229508
6.40410614 4.462022305 1.275579453
6.799427986 4.796024323 1.617302656
6.397513866 4.466704845 2.161692619
6.409517288 4.479701042 2.46649313
6.669177532 4.700872421 2.853563786
6.921483517 4.846612453 0.6849851608
6.897069454 4.829222679 0.9984027743
6.439610958 4.453712463 1.277359962
6.71202755 4.683140755 1.604784369
6.881231308 4.826941013 1.942021132
6.399377823 4.430508614 2.158615112
6.458189964 4.482489586 2.474858999
6.698916912 4.686377525 2.857311964
6.773567677 4.686793804 0.9945567846
6.702983856 4.63337326 1.296442628
6.921731949 4.817000389 1.628429294
6.644209862 4.590619087 1.89957118
6.432994843 4.420787811 2.162361383
6.454093933 4.441234112 2.469456434
28.52507019 22.45489311 0.3715523779
6.810200691 4.682135582 1.303633451
6.824546337 4.696865082 1.61478734
6.619337559 4.53336668 1.892895699
6.504739285 4.442214012 2.17423892
6.496747494 4.438673973 2.476258516
6.755867004 4.656912327 2.86433363
28.5899601 22.35010529 0.3738520443
6.929252148 4.7365098 0.9991888404
6.911645412 4.725171566 1.310372829
6.600627422 4.476755142 1.585980296
6.659661293 4.527830124 1.896998167
6.53450346 4.430657864 2.177322865
6.511196613 4.414696217 2.475952864
28.63360786 22.22005844 0.3766306937
7.088828564 4.82540226 1.004005313
6.719065666 4.531516075 1.294945002
6.616167068 4.451222897 1.586124063
6.704648018 4.525825977 1.901875734
6.61730814 4.460064411 2.191496372
6.558457375 4.415480137 2.483947992
28.76250458 22.1587925 0.3781949878
7.171126842 4.850691795 1.006466866
6.709903717 4.485560417 1.293361306
6.931213379 4.666336536 1.622352481
6.942949295 4.678905964 1.938802361
6.628133297 4.430814743 2.190389633
6.62260437 4.429520607 2.4962852
25.48352242 19.38411331 0.4278834462
7.169233799 4.808205605 1.006364584
6.720796108 4.455917358 1.293303013
6.902247429 4.603663445 1.617099524
7.258350372 4.891021252 1.988332868
6.689712048 4.442203045 2.200026035
7.279646873 4.916975021 2.661183834
29.69161987 22.56513786 0.3719854653
7.267503738 4.845177174 1.009324193
6.737185955 4.428806782 1.293625951
6.91508007 4.574636936 1.61689651
6.824455738 4.506000996 1.913985491
6.687434196 4.40055418 2.196022272
7.254617214 4.853785515 2.649958372
7.613014221 5.075390339 1.019830823
6.75568819 4.405288696 1.294160247
7.033621788 4.626828671 1.629274011
6.824452877 4.467484951 1.911445975
6.708836555 4.379689693 2.197203636
7.223619461 4.788476467 2.637516499
29.16687584 21.82148933 0.3861770928
7.24745369 4.747639656 1.008652687
6.7835536 4.389073372 1.295404792
7.1493783 4.683008671 1.962326527
6.786779881 4.404884815 2.210419655
7.007531166 4.580922127 2.578089476
29.16058731 21.65351295 0.3896699548
7.188036919 4.661139488 1.006819725
7.288700104 4.744394302 1.332370281
7.053579807 4.565498352 1.628304243
7.229811668 4.705488682 1.972917557
6.921996117 4.471986294 2.235411167
7.046546459 4.572150707 2.58377862
29.27880478 21.58207512 0.3914666772
7.215303421 4.642130852 1.007636428
7.257652283 4.680006504 1.329174161
7.083563805 4.549393177 1.630181909
7.326200962 4.73957634 1.986092091
6.915539742 4.428586006 2.230746269
7.068508148 4.550002575 2.58513093
29.43504715 21.53918076 0.392770648
7.616099358 4.907976627 1.019849539
7.13262558 4.544410706 1.318998098
7.189466953 4.591166973 1.64108026
7.36619091 4.729688644 1.990022898
7.004448891 4.458449841 2.245981932
7.045258999 4.493192673 2.575034142
15.45269871 10.80117035 1.258816361
7.355169773 4.673900127 1.334720016
7.208492279 4.566087246 1.641658187
7.267173767 4.614069462 1.971315145
7.060652256 4.462690353 2.254377842
7.06071949 4.46628046 2.57480979
15.61643505 10.83972454 1.263814926
7.230950356 4.540177822 1.324650049
7.281509876 4.581663609 1.648633838
7.260900497 4.569629669 1.967781425
7.11067009 4.461847305 2.261476994
7.403125286 4.686189651 2.657180071
15.68609238 10.80672264 1.265957117
7.201854229 4.47908783 1.321676493
7.308474064 4.562224388 1.650163293
7.230583668 4.507482052 1.960382938
7.320276737 4.580183983 2.301574469
7.47257185 4.698026657 2.670427322
15.0945406 10.27633953 0.5920863152
15.81514072 10.81742096 1.26992321
7.239768028 4.468222141 1.32368505
7.34658289 4.550971031 1.653015494
7.378248692 4.578060627 1.981843233
7.410447121 4.607647419 2.316871881
7.43208456 4.627529621 2.656006098
15.1383009 10.22716045 0.5932513475
15.1262989 10.22548294 1.248956323
7.3323493 4.497410774 1.329741001
7.32859993 4.498173237 1.649277568
7.301414967 4.481710911 1.966971993
7.381829262 4.546670437 2.307666302
7.416431427 4.576014042 2.647907019
15.15820217 10.171772 1.249979496
7.681484222 4.713353634 1.354732275
7.364975929 4.485539913 1.651948929
7.325493813 4.462214947 1.968568444
7.421313763 4.536107063 2.312518597
7.421704769 4.542198658 2.645314693
15.73206997 10.51128197 1.267547488
7.654758453 4.655044079 1.351992965
7.400422096 4.474003792 1.65459621
14.6477232 9.749903679 3.144478798
7.424779892 4.501087666 2.310149431
7.501312256 4.56265831 2.66132617
15.78958225 10.4692049 1.269380212
7.562948704 4.550274849 1.344479442
14.49227524 9.552843094 2.482518196
14.5880518 9.629183769 3.130183935
7.474471569 4.499619007 2.317271948
15.81284237 10.40243626 1.270180225
7.500687599 4.465784073 1.339131236
14.75024796 9.661100388 2.509598017
14.55028915 9.525179863 3.119496107
14.66998577 9.508335114 1.2353971
7.538836956 4.453481674 1.34118247
14.86146545 9.662714958 2.519510269
14.64126778 9.513530731 3.129481554
14.6552515 9.534827232 3.774395943
14.68164349 9.43984127 1.235858917
7.65857029 4.498504162 1.349222302
14.9517231 9.648756981 2.526981115
14.71775913 9.491076469 3.137154102
14.6864109 9.480332375 3.774620533
14.79951477 9.445858002 1.239575505
14.44687271 9.2101717 1.845632315
15.02086639 9.619441032 2.532004833
15.22624207 9.771019936 3.213667631
14.71430588 9.419795036 3.773927927
14.92433167 9.452000618 1.243523836
14.69849873 9.306417465 1.862599969
14.98553753 9.513282776 2.524783373
15.00446224 9.534088135 3.173569441
14.77919769 9.385112762 3.780782938
14.94234753 9.383672714 1.244222879
14.76854897 9.275202751 1.866284013
14.7758913 9.287717819 2.497451305
15.10760117 9.524213791 3.185239553
14.84064007 9.351548195 3.787259817
15.75398827 9.861611366 1.269186854
14.70827198 9.158293724 1.860542655
9.088781357 5.319226742 1.837594986
15.58535767 9.774141312 3.25647378
40.97279739 26.8623333 0.3123209178
15.8027544 9.818348885 1.270841599
8.937402725 5.165496349 1.438769579
9.029618263 5.232700825 1.829046845
15.17438602 9.419151306 3.187179804
15.36291409 9.555496216 3.880690098
41.09450531 26.74647141 0.3152375221
15.89784908 9.806138992 1.273924828
8.904419899 5.100161076 1.435625196
9.015129089 5.179400444 1.82577312
15.20497036 9.366677284 3.187866926
15.39716339 9.504641533 3.881910801
16.00153732 9.795079231 1.277293682
8.952403069 5.089515209 1.438385129
9.068211555 5.171683788 1.830295563
16.90252495 10.42775536 3.451048136
14.93817043 9.122769356 3.78422451
39.98764801 25.62861252 2.011858702
8.981492043 5.063796997 1.439741611
8.936692238 5.038654804 1.813546419
9.345067978 5.315022945 2.257550001
14.97436237 9.071808815 3.785808325
39.96127701 25.41091728 2.011599302
9.018844604 5.043442726 1.441707492
8.835938454 4.927443504 1.800394416
9.338406563 5.26386404 2.25391984
15.09266949 9.075104713 3.803842783
8.945096016 5.016139507 2.962921858
39.71962357 25.05375481 2.004770041
8.965303421 4.961220264 1.43706131
8.851111412 4.893352509 1.8005687
8.893620491 4.925892353 2.181652069
15.13041401 9.020962715 3.805509806
8.979572296 4.992030144 2.966896296
17.33262062 10.32517147 0.5979118943
16.5700798 9.843877792 1.295624614
8.973910332 4.922327518 1.43697226
8.880513191 4.866353512 1.802309513
8.903768539 4.888399601 2.180844069
15.16461086 8.968233109 3.806790113
9.018531799 4.975162029 2.972391129
17.36134911 10.26224518 0.5994015336
16.56520844 9.762939453 1.295723557
8.922616959 4.84716177 1.432600975
8.867684364 4.816428661 1.799398184
8.962748528 4.884723186 2.187807798
9.082164764 4.974065781 2.983862162
16.62078857 9.716948509 1.297701955
8.902873993 4.792843342 1.430528641
8.881451607 4.783827782 1.799541354
8.872529984 4.78287077 2.171383142
16.63209152 9.767798424 4.087616444
9.021551132 4.890544891 2.965127707
16.66612434 9.66426754 1.299378753
8.907448769 4.752142906 1.430193424
8.820463181 4.701602936 1.791121602
8.888811111 4.749806881 2.171618223
8.977003098 4.818044186 2.950365067
34.88981628 21.02960777 0.4206014276
16.69775009 9.602890968 1.30064714
8.893266678 4.699781418 1.428519845
8.92236805 4.722861767 1.8012501
8.856332779 4.68601656 2.164295912
9.157371521 4.883230209 2.598120451
8.956910133 4.761635303 2.94157052
34.93051529 20.88551712 0.4239618778
16.76816177 9.565763474 1.303120375
8.919454575 4.672980785 1.429768801
8.955329895 4.700184822 1.803545833
8.932765961 4.690915585 2.1739223
9.287608147 4.920469761 2.620675325
8.99795723 4.743982792 2.947517157
16.76723671 9.48008728 1.303429365
8.891497612 4.608241558 1.427072048
8.993556023 4.676316738 1.806307435
8.924396515 4.640431881 2.170289993
9.235948563 4.839048386 2.60703063
9.013337135 4.707969189 2.947131395
9.284515381 4.765599251 0.3136307001
9.635651588 5.020233154 1.084213972
8.887537956 4.565170765 1.426210403
8.940689087 4.602677822 1.798987985
8.875054359 4.569255352 2.160574198
9.091899872 4.707996845 2.575759172
9.123353958 4.734805584 2.969800711
9.31111908 4.737297535 0.3140851259
16.88516045 9.394966125 1.307721019
8.949842453 4.562754631 1.430118442
8.929900169 4.555408001 1.796457529
8.914236069 4.550727367 2.164474249
9.110255241 4.677902699 2.576503038
8.999032974 4.614935398 2.936277628
9.317088127 4.696525097 0.3155855536
9.34309864 4.74605751 0.6943685412
16.90381622 9.32567215 1.308652997
8.943169594 4.516010284 1.429054737
8.970901489 4.53768158 1.799725533
9.002552032 4.561826706 2.175961733
9.350291252 4.780351162 2.620577574
9.088313103 4.626366615 2.953815699
9.355897903 4.709307194 0.6952457428
9.37303257 4.724613667 1.076724052
8.90890789 4.45291996 1.426028132
8.976067543 4.498178959 1.798964381
9.006117821 4.521237373 2.17438674
9.17222023 4.628602982 2.582707167
9.10227108 4.591675758 2.95340395
9.409749031 4.702123165 1.07806778
8.93775177 4.427968502 1.42753756
8.919528008 4.421979904 1.791279674
8.941422462 4.440011978 2.162343979
9.020299911 4.494366169 2.550097942
9.208569527 4.612329483 2.974960089
9.730435371 4.84725523 1.088191509
9.038689613 4.445567608 1.434214234
8.920805931 4.380727768 1.7901299
8.971794128 4.415914536 2.164954185
9.025309563 4.454877853 2.548234224
9.719353676 4.795084 1.088079929
9.03519249 4.406080723 1.801695347
9.020904541 4.402729988 2.170451641
9.019168854 4.406847477 2.544093847
9.414213181 4.572211742 1.07887578
9.199048042 4.452139854 1.444580436
9.088860512 4.393029213 1.806379795
9.073457718 4.391260624 2.176481962
9.093649864 4.408239841 2.555810213
9.408973694 4.525362968 1.078948975
9.174381256 4.395085335 1.442301393
9.032146454 4.320072174 1.798838258
9.122603416 4.37750721 2.181996822
9.158795357 4.405831814 2.56584239
9.516317368 4.543157578 1.082516909
9.188353539 4.362691402 1.442818522
9.129631042 4.33412981 1.808512568
9.152850151 4.352612019 2.184633493
9.549818993 4.588219643 2.638906956
9.613469124 4.554342747 1.085780263
9.27427578 4.369095802 1.448448777
9.210597992 4.343272686 2.19147706
9.438503265 4.480683804 2.614541769
9.872832298 4.656128883 1.094090581
9.344700813 4.366145611 1.452979684
9.722216606 4.584418774 1.872202039
9.378871918 4.396003723 2.215147257
9.366041183 4.396324158 2.597787619
9.878163338 4.613868713 1.09452796
9.341208458 4.319243431 1.452233791
9.409407616 4.364808559 1.836090565
9.644480705 4.501891136 2.25357008
9.483225822 4.417052269 2.617575169
10.01624012 4.645253658 1.099099994
9.371513367 4.293426514 1.45392859
9.426775932 4.329385281 1.836769938
9.690839767 4.483681679 2.258631229
10.03900337 4.612210274 1.100096822
9.889770508 4.535788059 1.490304232
9.742128372 4.462335587 1.870713711
9.843104362 4.523590088 2.279756546
10.05192375 4.576052189 1.100779414
9.883131027 4.489625454 1.489396095
9.800844193 4.450304031 1.876040459
9.702586174 4.404426098 2.256620407
10.05334949 4.531459332 1.101125121
9.677082062 4.333557606 1.474327922
9.769410133 4.391283035 1.871431708
9.666854858 4.341297626 2.24931407
9.992917061 4.453864098 1.099545956
9.671444893 4.289212227 1.473525405
10.04370117 4.494766235 1.900673032
9.735559464 4.33483696 2.257821321
10.08212376 4.456510544 1.102645159
9.719373703 4.271413803 1.476512074
9.79033947 4.320495605 2.264230251
10.09895134 4.420386791 1.103492022
10.03032494 4.392168045 1.498140097
10.12805367 4.390692234 1.104730368
10.07518291 4.371057987 1.500917196
10.13222218 4.347978115 1.105195165
10.17000198 4.322662354 1.106720924
64.91438293 32.16109085 2.826745272
64.54011536 31.687603 2.817233086
64.22002411 31.20843887 0.3022182882
30.05555916 14.01250267 1.734919548
31.01334763 14.51256943 2.976795197
30.19699478 13.95172215 1.740480781
30.3400116 14.06420994 4.117537022
30.25392151 13.8489418 1.743400574
29.57004356 13.53918457 2.873146772
30.48107719 14.00210953 4.130101204
30.42749214 13.80250263 1.750031471
29.60204697 13.42732716 2.87457633
30.53072739 13.89495182 4.132683754
29.94480896 13.4406662 1.735910535
29.66781807 13.33182716 2.878421307
30.5584774 13.77727032 4.132918358
35.51223373 15.93450451 0.5412254333
29.78439331 13.24275684 1.731930017
29.64676857 13.19488621 2.876184225
30.65764999 13.69381046 4.141021729
29.92752266 13.18306065 1.737647414
29.07263756 12.79791641 2.83503437
30.76850319 13.62197685 4.150576591
29.97999382 13.08030033 1.740512133
29.09777069 12.69227505 2.836170435
30.77534485 13.4944458 4.148675919
30.26446152 13.27381897 5.276145458
30.01941299 12.97147655 1.742982507
29.31197357 12.66196537 2.8505826
30.24357224 13.1176033 4.088055134
30.23592567 13.1324501 5.267474174
29.87360001 12.77159023 1.739632607
29.43145943 12.59296989 2.858391047
30.3612709 13.03758049 4.098279953
30.30462456 13.03005505 5.27306509
29.69707108 12.56577206 1.735246181
29.3672905 12.4399271 2.853312016
29.58869743 12.55838394 4.011662006
30.29121971 12.89649296 5.266793251
29.77295303 12.47522736 1.738926888
29.4953289 12.37434483 2.861788273
29.55166054 12.41757774 4.005311012
29.49137497 12.40848255 5.14441967
29.89603806 12.40546417 1.74414134
28.86859703 11.97150135 2.817231417
29.55034637 12.29343605 4.00290823
30.55042839 12.75878716 5.296707153
31.40312576 12.9518795 1.793656349
28.91676521 11.87239552 2.820168495
29.71597481 12.24352169 4.018712521
30.63493156 12.67528915 5.305278778
29.68891144 12.07216358 1.74004364
29.0194397 11.79712677 2.826969385
30.31313324 12.38802052 4.08154726
29.83663177 12.01301003 1.746111035
28.98058319 11.66602135 2.823876858
30.87007523 12.50427818 4.139875412
69.35062408 28.78843117 0.3843299747
29.69765663 11.83011055 1.742985368
28.97268486 11.54285812 2.822973967
30.50860596 12.22127724 4.098511696
31.2362175 12.55364037 5.381852627
65.08626556 26.69446945 0.4157680571
29.56881523 11.65302753 1.74018991
31.09651947 12.3269949 2.97184062
30.76804733 12.20616055 4.124595642
30.24882507 12.00376892 5.232871532
31.37588882 12.27235126 0.611552
30.23152161 11.8101902 1.762936473
31.32432175 12.29523373 2.987540483
31.21294403 12.26751614 4.170802593
30.63275337 12.04181576 5.285563946
31.40321159 12.15513229 0.614598453
29.81051064 11.51103687 1.750747085
30.44896507 11.80172729 2.925805807
29.65161324 11.48735046 3.99967885
30.80703354 11.98937321 5.307480812
29.7112236 11.34831619 1.748944759
29.1389389 11.13615227 2.833600998
29.72924232 11.39840508 4.006247044
30.76343918 11.84557152 5.29749012
29.50195885 11.14187431 1.743585706
29.21747398 11.04962158 2.838937283
29.72005272 11.27362442 4.003465176
30.61653519 11.66011333 5.272450924
29.74756813 11.12132645 1.752984524
29.92470741 11.21739483 2.888443947
29.72511292 11.15504074 4.002277851
30.66152382 11.554142 5.275605679
29.98410988 11.09547997 1.762129188
30.10735321 11.16945839 2.901153088
29.75002289 11.04471016 4.003288269
30.65097046 11.42583466 5.270700455
29.95133781 10.96138668 1.762546897
29.88379478 10.95914173 2.885380745
29.80226517 10.94537926 4.007300854
30.89398956 11.39892197 5.302931309
31.82022476 11.7945652 6.663650036
29.77636528 10.77814579 1.758267045
30.43743896 11.05632591 2.924200773
29.40048599 10.66731453 3.962333918
30.39946938 11.08578873 5.227622032
29.82971954 10.6852293 1.761439204
30.27766418 10.87803936 2.912975073
29.48283958 10.58726311 3.969787359
30.39611053 10.96856499 5.224164009
29.71124649 10.52016258 1.759089351
29.86936951 10.60550594 2.884335041
29.65409088 10.54119301 3.98687005
30.44793892 10.86690331 5.228669643
30.42343903 10.6723671 1.783947825
29.80851555 10.45700741 2.880121469
29.54847527 10.38242722 3.974056005
30.45871353 10.74944782 5.22725153
30.50094795 10.58027744 1.78807807
29.86452866 10.35938644 2.884143829
30.5163002 10.62439632 4.07694149
30.45049095 10.62507057 5.223134995
31.88013458 10.97274017 1.834998727
30.48865128 10.47356415 2.92808485
32.87260818 11.39032936 4.329535484
31.44760132 10.87762165 5.365436077
40.22021866 13.89465809 0.6146258712
31.22909546 10.60644245 1.815272808
29.95685196 10.16232967 2.890898705
33.02873611 11.31785297 4.344940186
31.37651825 10.7266922 5.352225304
40.28663635 13.75974464 0.618418932
31.37975502 10.53785324 1.821919441
30.75043488 10.3338728 2.946811676
33.08385468 11.20747089 4.349513531
31.23506927 10.36189938 1.818848133
31.38228416 10.44096756 2.991412401
39.47608948 13.15357113 0.6298148632
31.27971268 10.25490952 1.822039366
31.69202423 10.42823601 3.013435125
31.18481064 10.26678944 4.142643452
39.54753113 13.02373791 0.6335303783
31.35603905 10.15904999 1.826302052
31.82518768 10.35096169 3.023094654
31.21008682 10.15340042 4.14423418
31.37355804 10.04239655 1.828638554
31.87723732 10.23835659 3.027112246
33.47125244 10.64343071 1.900135994
31.90057373 10.12194443 3.029131889
32.07730484 10.20360756 4.235291004
32.58979797 10.2124052 1.872696996
32.09722519 10.06486607 3.043367624
64.33078766 20.74633789 0.5630019307
35.8030014 11.16904736 1.981744647
31.94220924 9.89398098 3.032900572
64.34142303 20.50031853 0.5694684386
32.59425735 9.96079731 1.876617432
31.66713333 9.678235054 3.014044046
53.5594368 16.70651817 0.611435771
35.28422928 10.72078037 1.968562722
31.8286705 9.609073639 3.025918007
53.35426331 16.43304253 0.617502749
35.40236282 10.62302017 1.974612713
19.02939606 5.308814049 2.1261518
53.28876114 16.20643044 0.6230974197
18.82386208 5.153505325 1.419873118
18.94444847 5.208134651 2.120524645
53.27188873 15.9962101 0.6285335422
18.75336266 5.058753014 1.418635607
19.04726028 5.168107986 2.128129005
19.14671326 5.212277889 2.842010021
36.21712494 10.45436764 0.6829343438
18.75387955 4.990592957 1.419736147
19.07094002 5.106200695 2.130167007
19.16286469 5.147661686 2.84338212
53.70567703 15.72228527 0.6380925179
18.81535721 4.934322834 1.423020005
18.91736031 4.981837273 2.11978364
19.18655586 5.07810688 2.845556498
53.7853508 15.53129292 0.6435779929
18.74761772 4.841731071 1.421892405
18.92528152 4.908452034 2.120792389
18.86200333 4.901390076 2.810416698
53.87783432 15.36448574 0.6485039592
18.74833679 4.770531654 1.423086762
18.95101738 4.844186306 2.123055935
19.33586311 4.9772439 2.860960007
54.03968811 15.20782852 0.6535489559
18.79475784 4.713120937 1.425843477
19.40755463 4.912537575 2.155685186
19.27599716 4.885797501 2.854282141
54.08790207 15.01695061 0.6588968039
18.87551498 4.665644169 1.429783821
18.83247757 4.668818951 2.115633011
19.26913643 4.81068325 2.853318691
19.32873535 4.713554859 0.7435612679
19.00894165 4.636633873 1.435479164
18.8842144 4.612641335 2.1197896
19.36891556 4.766982079 2.863816738
19.35301208 4.651120663 0.7453650236
19.01271057 4.565884113 1.436834335
19.05657578 4.591005802 2.132481337
19.13701439 4.630449295 2.838799715
40.83629227 10.66145992 0.7026109099
18.81430817 4.437870026 1.431283236
18.99393463 4.504918098 2.128583193
19.21910477 4.581742287 2.847460508
40.82631683 10.50491714 0.7067620754
18.86739349 4.381941795 1.434336782
18.95106125 4.421401024 2.126124859
19.23789024 4.514753819 2.849365473
40.88291931 10.63673878 6.674358845
40.85771942 10.6652298 8.190378189
18.88949585 4.317172527 1.436343431
19.05782509 4.379816532 2.134257078
19.33503532 4.469516277 2.859697819
18.91034126 4.248499393 1.438382983
19.04416466 4.30109024 2.133933783
19.35242081 4.398217678 2.861510515
19.16942978 4.247336864 1.448588014
19.07835388 4.235505104 2.13701582
19.28961372 4.207586765 1.454038858
19.95998192 4.398391247 2.200057507
81.61035156 20.35737038 0.6677321792
19.66414833 4.237151146 1.468254209
19.94061661 4.322658062 2.199355364
80.80587006 18.63433266 0.7102999091
71.77619934 14.89501953 0.7619977593
72.92377472 3.708157778 1.095138073
73.7531662 3.336970329 3.693024635
91.09992218 -2.072817564 4.571767807
90.56739807 -2.381884813 4.559893608
90.40143585 -2.69454217 4.563266754
89.95510864 -2.983857155 4.554403782
89.54109955 -3.630426168 4.558768749
89.58254242 -3.944427013 4.570946693
89.11968231 -4.239864349 4.561834335
47.92265701 -3.563131332 1.169160485
47.95804214 -3.527848482 2.846909046
49.50170517 -3.832742214 1.18766439
49.49633789 -4.517424107 1.21005857
29.65534019 -3.016319513 3.120449305
29.62326813 -3.123059034 3.122091055
21.69821548 -2.507789135 3.263731003
21.68523979 -2.621087551 1.737465143
29.65483665 -3.229412794 3.12858367
21.72162247 -2.589473009 3.269706249
81.2466507 -7.133924484 12.96375847
81.17664337 -7.062108994 15.87350178
29.69730186 -3.383927107 1.051380038
21.35044479 -2.669488192 1.725491285
21.25852203 -2.645037651 2.4686656
21.74734116 -2.663913965 3.27567029
81.23291779 -7.417662621 12.97444439
81.16791534 -7.331617832 15.88478947
21.28432465 -2.738777637 1.725284815
21.08359337 -2.701008558 2.457582951
21.74672699 -2.7401824 3.278818846
71.57785034 -7.387206554 1.4400388
21.29758453 -2.814776659 1.728584051
20.83438301 -2.756597281 2.440873146
21.04199982 -2.865815401 1.719989061
21.00429535 -2.84555006 2.457289457
20.87979698 -2.924157381 1.71549356
20.96147919 -2.915313721 2.456837416
20.83672905 -2.993345976 1.716280699
21.07157135 -2.996351719 2.468446255
21.00806236 -3.084576845 1.726656079
20.94098854 -3.05713582 2.461027145
71.77159882 -8.669007301 1.483944058
20.88896751 -3.145872355 1.724071741
20.93910599 -3.130731583 2.463896751
21.44747162 -3.298740387 0.9982261062
20.91268158 -3.222217083 1.72789216
20.97263718 -3.208283663 2.469631672
20.9714222 -3.306511641 1.733454108
21.14807701 -3.305960178 2.486958981
20.90922928 -3.373286486 1.733437896
21.21065521 -3.388017893 2.495124578
20.95591164 -3.452945232 1.738360882
21.11457825 -3.451412916 2.490537643
20.96660233 -3.528479576 1.741674304
21.13306427 -3.52843976 2.495204926
71.90060425 -10.22199535 1.537009478
20.99137115 -3.602247238 1.745506287
21.26794052 -3.620540857 2.509325266
81.61117554 -11.266922 10.29252148
81.58020782 -11.18090153 13.20808411
81.50498962 -11.1028223 16.1441021
21.63733482 -3.76209259 1.777935147
21.30952835 -3.701400042 2.515945911
81.59705353 -11.53979778 10.30398655
81.58170319 -11.47001934 13.22346401
81.51593781 -11.37831688 16.16184998
56.4331665 -8.607714653 1.389041305
71.99865723 -10.67460632 4.092834473
81.61788177 -11.89913464 7.419289112
81.58202362 -11.82716846 10.31616211
81.56649017 -11.75722885 13.23646832
81.49082184 -11.67825222 16.17466354
56.35299301 -8.807124138 1.395338893
49.63154984 -7.823852539 3.073220491
81.60788727 -12.20212173 7.431766987
81.57577515 -12.13044262 10.33020592
81.56000519 -12.06023216 13.25174999
81.53666687 -11.98795414 16.20111465
49.01145554 -7.960449219 1.322403789
49.54356384 -7.987805843 3.076042652
81.56517029 -12.50076866 7.441685677
81.6038208 -12.43878746 10.34841251
81.56228638 -12.35027695 13.26777649
81.51526642 -12.27446938 16.21422958
48.9738884 -8.120776176 1.327649355
49.38909531 -8.132770538 3.075453758
81.59660339 -12.78110313 7.456467628
81.58379364 -12.71168804 10.35970116
81.55977631 -12.62539101 13.28244591
81.51832581 -12.55012703 16.23130608
48.91998291 -8.278521538 1.332718253
47.29663467 -7.995014668 2.985160351
81.61522675 -13.06005383 7.470304489
81.56481934 -12.98483849 10.37122822
81.57374573 -12.91770172 13.30060291
81.51244354 -12.83927345 16.24776268
48.92419052 -8.462571144 1.339045405
47.18516922 -8.155064583 2.986971855
81.60090637 -13.36345673 7.482843399
81.58371735 -13.29296589 10.38879967
81.55119324 -13.21947956 13.31414986
81.4994278 -13.14208412 16.26396942
47.43833923 -8.410955429 1.328404069
47.28433609 -8.347672462 2.998641968
55.58839417 -9.599404335 5.357970715
81.57984924 -13.59807777 10.4038496
81.55488586 -13.52545547 13.33191586
81.49920654 -13.43257618 16.28193283
47.62698364 -8.61123085 1.33641088
47.4846611 -8.54901886 3.014788151
81.63415527 -13.96634674 7.512681484
81.5771637 -13.88907909 10.41843987
81.54216003 -13.81464195 13.34651947
81.49988556 -13.72352695 16.30028343
47.51094818 -8.762616158 1.340932012
47.56389236 -8.732078552 3.02533412
48.96264267 -8.912942886 4.829202652
81.59304047 -14.18345451 10.43536758
81.53231049 -14.10457039 13.36173916
81.49176025 -14.01342869 16.317173
47.42205048 -8.917956352 1.345760942
41.86198044 -7.943455219 2.76312089
48.02168274 -8.931012154 4.759463787
81.56473541 -14.47088623 10.4472084
81.55848694 -14.40072155 13.38269711
81.46707916 -14.30084515 16.33111382
47.15527725 -9.042152405 1.348469377
41.83497238 -8.089050293 2.767921448
47.82003403 -9.068799019 4.75074482
81.56088257 -14.76265144 10.46208096
81.55240631 -14.69190788 13.39885426
81.49953461 -14.59806442 16.35617638
47.13243484 -9.207643509 1.354061127
41.79958344 -8.233143806 2.772350073
47.7809906 -9.233721733 4.755524158
81.5559845 -15.05451775 10.47696781
81.52580261 -14.97985649 13.41201019
81.50184631 -14.8906498 16.37570572
48.3451004 -9.595345497 1.374667645
41.95446014 -8.411239624 2.785865784
47.93763733 -9.433400154 4.776636124
48.48444748 -9.489816666 6.557141781
81.53515625 -15.27431011 13.43091488
81.4934082 -15.18176842 16.39339828
45.42876816 -9.234630585 1.344938397
41.46397781 -8.472784996 2.768627882
48.32683945 -9.676625252 4.81725359
81.60362244 -15.64969254 10.5140152
81.53955841 -15.56834602 13.44923306
81.49167633 -15.47438335 16.41259384
45.44457245 -9.401512146 1.350836754
41.45022964 -8.612295151 2.773819447
48.02109528 -9.794211388 4.800001621
81.58382416 -15.93997288 10.52755642
81.5533371 -15.84981918 13.46830368
81.4908371 -15.7674427 16.43217278
45.39645004 -9.548309326 1.355668902
42.06806564 -8.87149334 2.809391022
36.11317825 -7.712993622 3.810966969
47.6966362 -9.857164383 6.490818024
81.54089355 -16.12678719 13.48345566
81.50131226 -16.04836845 16.4531517
45.22219467 -9.670537949 1.358912826
35.55809021 -7.760360718 2.501593113
36.05289841 -7.825398445 3.811885595
47.76950073 -10.03473759 6.508532047
81.53720093 -16.4057312 13.50013733
81.48184967 -16.32400703 16.46857262
36.57570648 -8.1198349 1.254076838
35.30759048 -7.8334589 2.494580269
35.80251312 -7.900372028 3.796847582
48.39151764 -10.31992245 6.592224598
81.55003357 -16.68815994 13.51956177
81.51548004 -16.61014175 16.49441528
36.24841309 -8.206441879 1.255197763
34.95288467 -7.915907383 2.48380208
35.92036819 -8.073076248 3.814056158
48.42078781 -10.52729416 6.606982231
81.53003693 -17.03839493 13.53868103
81.48065948 -16.9424305 16.51141739
36.21481323 -8.3312397 1.259380579
35.01218414 -8.054907799 2.492028713
35.73072433 -8.164885521 3.804446459
47.88402176 -10.59423447 6.552233696
81.68305969 -17.36481857 13.58138943
36.19254303 -8.458327293 1.263717532
35.25087357 -8.2318573 2.509065866
35.66775131 -8.281694412 3.805533886
47.76952362 -10.74457741 6.548277378
45.53993225 -10.57579231 1.392524362
35.39102554 -8.389864922 2.521379709
35.40935898 -8.357108116 3.790077686
47.76341248 -10.91704655 6.557454109
49.30580902 -11.55566788 1.448892474
35.15099716 -8.460865021 2.514810801
35.30874634 -8.464605331 3.787982225
34.89332581 -8.526502609 2.507329226
35.14295197 -8.550963402 3.780023813
48.39466858 -11.69500446 1.448557615
34.79221725 -8.631666183 2.507812977
34.91859818 -8.623382568 3.767053843
87.74654388 -20.1522522 14.63285542
35.3635025 -8.918398857 1.275175571
35.36891556 -8.88933754 2.541915178
34.83917236 -8.739753723 3.767092466
48.48757935 -12.08031845 1.462758303
34.90698624 -8.919507027 2.524829865
34.82683945 -8.864661217 3.772573948
81.68087006 -19.50621796 10.74084759
26.12643814 -7.021255493 1.154809952
35.03034973 -9.076569557 2.536570072
34.800457 -8.98645401 3.776894331
47.27012253 -12.14757156 1.458188295
35.95192719 -9.423975945 2.588363409
34.86481857 -9.129675865 3.789065361
81.92578888 -20.16398048 10.80666828
81.90958405 -20.08779335 13.79385281
81.83731842 -19.98251152 16.79895401
21.90789795 -6.266255856 0.3159837723
47.57265472 -12.39503002 1.468741179
35.05752945 -9.341240883 2.549234867
34.93293762 -9.280909538 3.801970959
86.12358856 -21.31451797 17.66326332
21.212883 -6.178517342 0.3332064748
24.72935677 -6.972289085 1.145101905
35.1193161 -9.492304802 2.558338165
39.04313278 -10.41088486 4.164191246
14.3952055 -4.536062241 0.4807062745
29.95695496 -8.366409302 1.224645495
35.14128494 -9.627693176 2.565196276
39.0731926 -10.56269836 4.174405098
14.31274128 -4.568406105 0.4839159846
29.57394791 -8.380654335 1.222990751
38.95735931 -10.71962166 2.764641047
39.00214767 -10.68961334 4.17590332
81.67823029 -21.25443268 13.84209156
14.24377251 -4.603740215 0.4868234396
32.6449585 -9.278515816 1.272558093
38.91104126 -10.85243225 2.768732071
39.09872055 -10.85892105 4.192023277
14.21533775 -4.64934063 0.4888645709
29.19775963 -8.502638817 1.225257277
38.59164429 -10.91429329 2.758894682
39.06337738 -10.99512005 4.196725845
14.16743851 -4.689630032 0.4913067222
26.10638809 -7.795235157 1.182426691
38.78033829 -11.10777092 2.775028229
39.5827446 -11.27671432 4.249994278
14.13939762 -4.732396126 0.4932538271
14.39907074 -4.757775784 1.007309556
14.40023136 -4.742755413 1.527891636
14.39276791 -4.728074551 2.049478054
14.42523289 -4.723882675 2.57834363
14.12984085 -4.782762051 0.4948832989
14.35144806 -4.79604578 1.008427501
14.36545277 -4.787201405 1.528536439
14.34648132 -4.769399166 2.048341036
14.36819267 -4.759757042 2.574511766
14.35208416 -4.742506504 3.100502729
14.35473442 -4.727397442 3.634324074
14.36450672 -4.716627121 4.177155972
14.34947872 -4.698973179 4.722346306
14.12395 -4.834193707 0.4964352548
14.32810974 -4.843432903 1.01001358
14.35365486 -4.837796688 1.530372977
14.30846119 -4.81005621 2.047787428
14.34486771 -4.807185173 2.575054169
14.33834362 -4.792459011 3.102236032
14.31823254 -4.771195412 3.631538153
14.32437992 -4.759481907 4.172660828
14.30957031 -4.741844177 4.716899872
14.12942314 -4.888889313 0.4977525771
14.34121704 -4.900896072 1.012170315
14.32243347 -4.883008003 1.531211257
14.33615303 -4.874094486 2.053335428
14.32521534 -4.855554581 2.576072454
14.32442856 -4.84236908 3.103970289
14.29605675 -4.82142067 3.631847858
14.31164169 -4.812304974 4.174923897
14.31617451 -4.797160149 4.724270344
14.14167309 -4.948330402 0.4990036786
21.79659653 -7.065882206 1.132043958
14.14862728 -5.003781319 0.5002932549
21.42696953 -7.04216814 1.129143476
42.647892 -13.08542156 3.016961575
95.76074219 -28.1730442 9.283301353
39.81877518 -12.19838238 5.778895378
41.3249588 -12.58811378 7.49403286
14.19638348 -5.068679333 0.5006875992
21.2882309 -7.082862377 1.129864335
43.15582275 -13.38534927 3.050661087
40.18503952 -12.4538908 5.834782124
40.48364258 -12.49518299 7.368483067
84.71155548 -25.08221436 17.72264671
14.40413284 -5.184289455 0.4979455769
20.93375587 -7.05524826 1.126914144
42.59420776 -13.38408566 3.028680325
41.16456604 -12.9282465 4.456650734
39.23472214 -12.32157803 5.724750996
40.33026123 -12.60359097 7.355169296
84.53483582 -25.33491516 17.7135334
14.4063673 -5.239718914 0.4993575215
20.87187958 -7.116230965 1.128805876
26.06510544 -8.639130592 2.163604498
41.36104584 -13.13456154 4.482579708
39.57689667 -12.57106781 5.777792931
40.05150223 -12.67432022 7.321418762
84.42082977 -25.62130737 17.71852493
14.2132988 -5.235723019 0.5046575665
20.53795242 -7.094898224 1.126206517
43.20951462 -13.89242744 3.076341867
41.56968689 -13.35410595 4.510185242
38.94943619 -12.53386879 5.708582878
40.01135254 -12.81428909 7.326607227
14.0261631 -5.232209206 0.5098009706
20.41099739 -7.134374142 1.126965523
43.16558456 -14.04359627 3.081718922
41.64762115 -13.53591728 4.526213646
39.12852478 -12.73617077 5.741244316
38.40814209 -12.48295307 7.075963497
8.730708122 -3.516391754 2.87618494
13.84495544 -5.229225636 0.5147896409
20.24962044 -7.162416935 1.127122879
43.26620483 -14.23931503 3.094832897
39.04662323 -12.89580631 4.3012743
39.12822342 -12.88519382 5.751321793
38.53689194 -12.66854858 7.108550072
8.762346268 -3.559196234 2.887083769
13.6677494 -5.226243496 0.5196632743
20.10548019 -7.194787025 1.127536774
24.69747734 -8.60973835 2.109088182
38.85003662 -12.98389721 4.29214859
38.89599991 -12.96263885 5.732001781
39.14426804 -13.00340843 7.219965935
8.719249725 -3.579364538 2.88010478
13.50522041 -5.229306698 0.5242829323
19.91069221 -7.21398735 1.127197981
42.38072586 -14.2989769 3.063349485
41.13326645 -13.85936356 4.507704258
39.41165543 -13.28092766 5.808428764
38.78216934 -13.04726124 7.172844887
8.696110725 -3.607152939 2.878092766
13.34284973 -5.23124361 0.5288652778
19.77125549 -7.249573231 1.127765179
41.02425385 -14.03564835 2.998382807
40.04103088 -13.67668724 4.418329239
39.34465408 -13.41839504 5.810845852
38.68017578 -13.17106819 7.168516636
8.680324554 -3.637143135 2.877867937
13.21940041 -5.242218494 0.5325955749
19.55686378 -7.256092548 1.126862645
41.55367279 -14.36514473 3.034554958
39.09798431 -13.49026871 5.789805412
38.99385834 -13.42039967 7.232334614
8.640785217 -3.657852888 2.87176609
13.06567287 -5.242304802 0.5368821621
19.39396286 -7.278047085 1.126809835
26.10246277 -9.459783554 2.203881741
39.57131958 -13.83170128 4.393645287
39.08348083 -13.63624477 5.798483849
40.0521965 -13.91445446 7.419763565
9.116481781 -3.853437901 2.641350508
8.664278984 -3.698669434 2.880893469
12.89505196 -5.235625744 0.541459918
18.7396946 -7.135478497 1.118056774
41.10941696 -14.53884506 3.025785446
39.19260788 -13.85946178 4.368099213
38.72151566 -13.66786385 5.762595654
39.97203445 -14.04274654 7.419086456
9.063010216 -3.871084929 2.633729219
8.622741699 -3.718510628 2.874336481
12.74167252 -5.233614922 0.5456763506
41.7733078 -14.92103672 3.069750786
24.61388397 -9.134960175 3.041908503
24.59517288 -9.105875015 3.954360247
37.9475174 -13.52402592 7.095274448
8.560817719 -3.731366158 2.862837076
8.654521942 -3.753759384 3.222623825
12.58846569 -5.230586052 0.5498586297
18.08990097 -7.059838772 1.111822009
24.09322739 -9.081260681 2.108392715
24.06951904 -9.046328545 2.997635841
24.08263016 -9.028386116 3.895018339
24.04321098 -8.99246788 4.791796684
8.008490562 -3.587632895 2.424752712
8.576542854 -3.769788265 2.870175838
12.42976952 -5.224565029 0.55411309
18.10419464 -7.135272026 1.114707828
24.1437397 -9.192462921 2.115735292
24.09538269 -9.148880959 3.005642176
24.0951252 -9.12633419 3.903337717
24.08172417 -9.099052429 4.805999756
8.041657448 -3.629996777 2.434499502
8.540409088 -3.790868521 2.864947557
8.668663025 -3.825609684 3.23457551
12.29579163 -5.226119518 0.5578740835
17.87834549 -7.127357483 1.113234043
23.88999939 -9.198623657 2.106329918
23.85911179 -9.161105156 2.989509344
23.86328125 -9.140263557 3.880055189
23.84707069 -9.112124443 4.774624825
7.959483147 -3.633120537 2.420633793
8.572460175 -3.835072756 2.876336098
12.17514896 -5.231476784 0.56136024
18.33180046 -7.357053757 1.124177098
23.61767197 -9.196486473 2.095824718
23.61364746 -9.168504715 2.972455263
23.58103943 -9.135000229 3.85014987
23.58651161 -9.114559174 4.738824368
9.070034981 -4.04958725 2.651890993
8.56010437 -3.864239693 2.876946926
8.806402206 -3.940652847 3.281716347
12.02074337 -5.223872185 0.5654464364
17.41241837 -7.101686001 1.109856486
23.34188843 -9.191227913 2.085050106
23.53746796 -9.23413372 2.971028328
23.52937126 -9.209172249 3.85014987
23.32810211 -9.11593914 4.703278542
8.990249634 -4.05708456 2.638900042
8.555006027 -3.895931482 2.879356384
7.044403076 -3.360209703 2.786042452
11.88345718 -5.221385956 0.5691868663
17.47719574 -7.193535805 1.113634586
23.06832123 -9.184800148 2.074318647
23.06811714 -9.1149683 4.667363644
8.860570908 -4.04633379 2.615586042
7.039207935 -3.385975361 2.787950993
11.76135063 -5.223511696 0.5726224184
17.47577477 -7.261983871 1.116197586
22.82136536 -9.186131477 2.064997911
14.27385616 -6.040114403 3.193101645
8.782824516 -4.053283691 2.602936983
7.161048889 -3.464324951 2.544728994
7.859937668 -3.70646739 3.024994135
11.65249443 -5.229717731 0.5757928491
17.40465164 -7.304935932 1.117449284
22.57656097 -9.186530113 2.055728674
22.56698418 -9.157356262 2.897404671
16.15448189 -6.79628706 2.90428853
14.19246674 -6.066822052 3.184220314
8.751276016 -4.076471806 2.599825382
7.139046669 -3.484580994 2.542466402
7.748105049 -3.697069645 2.996955156
11.52127647 -5.22677803 0.5793457031
17.32781792 -7.345397472 1.118581891
22.33765793 -9.187396049 2.046721458
22.28741455 -9.143366814 2.876746178
16.12986374 -6.851147652 2.905812025
14.11848354 -6.09575367 3.176577806
8.059847832 -3.857518673 2.459811449
7.13711977 -3.512080669 2.545157671
7.814281464 -3.751794338 3.019690752
11.38274002 -5.220144272 0.5830041766
17.20785904 -7.369218826 1.118871927
22.09715652 -9.186010361 2.037556648
22.0604744 -9.147058487 2.860935688
16.0102005 -6.870555878 2.894850016
14.07039642 -6.133858681 3.173315763
14.04624557 -6.108381748 3.707406759
7.144227028 -3.542969704 2.550105095
7.816730976 -3.783628941 3.024294615
11.24812508 -5.214028358 0.5865648389
17.24310684 -7.451205254 1.12214756
21.85881424 -9.183732986 2.028443813
21.8561573 -9.157709122 2.847182751
15.82373142 -6.86400795 2.875041962
14.09616852 -6.199499607 3.182612181
7.288654327 -3.632576466 2.305616856
7.156677723 -3.575993776 2.556409836
7.860684872 -3.831024647 3.040834188
11.11742687 -5.208459854 0.5900287628
21.62075233 -9.179918289 2.01927948
14.48246193 -6.430266857 2.155971527
15.7784977 -6.909901142 2.873832226
14.29521942 -6.331297874 3.221470594
7.333991528 -3.678774834 2.318019867
7.123414516 -3.59192872 2.551436663
7.409127235 -3.692248344 2.915168762
10.94220734 -5.184550762 0.5942536592
17.31437302 -7.616882801 1.128779054
21.39789009 -9.180309296 2.010914087
14.3476944 -6.436248779 2.146867514
21.39060402 -9.132369041 3.622368574
14.01408005 -6.280549526 3.178586483
7.382757187 -3.726731539 2.331203938
7.17204237 -3.638921261 2.566777945
7.574208736 -3.784632444 2.966464758
