# .PCD v0.7 - Point Cloud Data file format
VERSION 0.7
FIELDS x y z
SIZE 4 4 4
TYPE F F F
COUNT 1 1 1
WIDTH 1324
HEIGHT 1
VIEWPOINT 0 0 0 1 0 0 0
POINTS 1324
DATA ascii
9.309518814 11.71457005 3.316031933
9.157035828 11.50802422 3.830365658
9.519575119 11.99961185 4.536634445
16.68917274 21.53615189 1.354948401
9.779996872 12.25158024 1.693174839
9.538913727 11.92725277 2.231936932
8.944169998 11.12734413 2.671317816
9.293126106 11.60129738 3.300322771
9.460954666 11.8273077 3.917232513
9.474661827 11.84611893 4.502110004
16.5622673 21.20416641 1.348961711
9.850865364 12.25098133 1.696056724
9.565544128 11.87003899 2.229786396
8.978736877 11.08661175 2.670336723
9.412149429 11.67005539 3.321244478
9.502609253 11.79120731 3.917002916
9.406629562 11.66347027 4.458928108
16.44771576 20.89249039 1.343450427
9.769108772 12.0475893 1.684918761
9.615886688 11.84459591 2.231241941
8.984445572 11.00776672 2.663372278
9.515112877 11.71606636 3.337720871
9.480331421 11.67037201 3.89586401
9.645806313 11.89039612 4.535553455
16.48243904 20.78087997 1.343024492
9.926350594 12.15642262 1.695577025
9.717981339 11.88715172 2.240451097
8.94289875 10.86740208 2.646676302
9.534693718 11.64664841 3.331292868
9.529527664 11.64037418 3.897607327
9.679359436 11.84286022 4.532015324
16.37071991 20.4787693 1.33770287
9.617260933 11.65876579 1.663862109
9.913534164 12.04606056 2.26322031
8.941488266 10.78105164 2.638464212
9.560136795 11.58988667 3.327071905
10.50655937 12.82724285 4.201552391
9.532863617 11.56013298 4.459215164
16.43538094 20.40888214 1.33834374
9.729215622 11.71372795 1.670629025
10.13622093 12.24666214 2.290462732
9.00258255 10.77657795 2.643238068
9.61929512 11.58169079 3.332390785
9.780303001 11.79227638 4.538172245
16.85518837 20.79561234 0.3916420639
16.42860031 20.25481415 1.336690545
9.926423073 11.88175964 1.68524456
10.29180813 12.35287476 2.307299852
9.032527924 10.73577309 2.641998291
9.585035324 11.44832897 3.312554121
10.56890774 12.71696091 4.193079472
9.603504181 11.47835159 4.455305576
16.93813896 20.75379372 0.3923420012
16.5010128 20.19582367 1.337633014
9.967171669 11.84236717 1.685506344
10.2079401 12.15555 2.28911829
9.043540001 10.66674519 2.636542082
9.618353844 11.40725517 3.31118536
10.63779068 12.71290779 4.201433659
9.647428513 11.44645405 4.456335545
16.54104996 20.09573746 1.337516189
10.01296711 11.81400394 1.686409116
10.06350517 11.87891483 2.261932611
9.118010521 10.67885113 2.64408493
9.679278374 11.39699841 3.31654954
10.61690044 12.58950138 4.18035984
9.669576645 11.38685226 4.449164867
16.89875603 20.39663315 1.347955823
10.19465637 11.94779682 1.699142218
9.833112717 11.49732399 2.222449064
9.197605133 10.69679928 2.652637005
9.874855995 11.55185223 3.356415033
9.325007439 10.85946941 3.754431725
9.924850464 11.62179279 4.530015945
16.9865799 20.34710884 1.349367619
10.11591721 11.75774193 1.688769579
9.790021896 11.35079956 2.210250139
9.197705269 10.61039448 2.6447227
10.03869724 11.66862297 3.388296604
9.956863403 11.56876945 4.525633335
17.00286293 20.21609879 1.348506212
10.1787014 11.74574375 1.691056371
9.821311951 11.30265999 2.209223509
9.25377655 10.59841061 2.648538113
9.958470345 11.47977543 3.356985569
9.439387321 10.835639 3.76604867
9.988916397 11.52044773 4.522137165
16.45572281 19.3985157 1.329195619
10.34337234 11.85912132 1.702359319
9.814766884 11.20802689 2.202776432
9.995108604 11.43738842 3.356002331
9.478714943 10.80122948 3.766242027
10.01371384 11.46773815 4.516789436
16.36452293 19.14274025 1.324901342
10.31069756 11.72863197 1.696212173
9.823221207 11.13690376 2.198831558
10.06020069 11.42861271 2.795085669
10.0406723 11.41040993 3.357867956
9.513420105 10.76529884 3.765635014
16.28825378 18.90792847 1.321137428
10.30042267 11.63117218 1.692256927
9.866267204 11.10415745 2.199624538
10.12057114 11.41498375 2.799217939
10.1095953 11.40745163 3.365202904
9.553740501 10.73215389 3.766227484
16.29981613 18.78170013 1.320282817
10.35162449 11.60442448 1.693570852
9.888888359 11.04670238 2.197526693
10.15187454 11.36592197 2.797597408
10.33842564 11.59736824 3.413130999
9.583937645 10.68677807 3.763719559
16.36234665 18.72451782 1.321174741
16.4889431 18.87864685 2.225706816
9.875522614 10.94639587 2.190360308
10.19226551 11.33228683 2.79820466
9.596358299 10.620224 3.75577879
16.4126606 18.64589882 1.321625113
10.16880798 11.21079445 1.671445847
9.913310051 10.91212654 2.19077301
10.21043396 11.26784897 2.794087887
16.74736977 18.90140152 0.4258215427
16.39419174 18.48624611 1.319861412
10.20364666 11.17095947 1.671613812
9.938881874 10.85927296 2.189228058
10.24236202 11.22010803 2.792732
16.80343246 18.82761383 0.4271714091
16.45519066 18.42134094 1.320700526
10.24043274 11.12923813 1.671819448
9.979699135 10.8245821 2.189863682
10.29208279 11.19345093 2.794891596
16.52689743 18.37582588 1.321958065
10.25365257 11.06012344 1.670017242
10.09168434 10.8729248 2.200485945
10.26736164 11.08400249 2.782976627
16.66978073 18.40585518 1.32547152
10.7258234 11.52313232 1.70761466
10.17994595 10.89677429 2.208003759
10.34388924 11.0887537 2.790415287
16.85243607 18.48039246 1.330271721
10.76946831 11.49056435 1.708500147
10.18039227 10.81463623 2.203033924
10.39454651 11.06315804 2.792843819
16.74733353 18.22443008 1.32582593
10.87518883 11.52018547 1.714394331
10.4046526 10.9910574 2.787495136
16.84696198 18.20340157 1.327984571
16.77898788 18.12964821 2.21296382
16.93469238 18.16845703 1.329774737
16.82126236 18.04417229 2.212048769
17.04838753 18.16889572 1.332457781
10.65750885 11.02210236 1.68741703
17.1067276 18.10040855 1.3333354
10.69360065 10.97894669 1.687675714
17.16748619 18.03470802 1.334307075
10.72344017 10.93311501 1.687566519
42.37231827 45.51084518 2.134639502
10.7477684 10.87314606 1.686745286
42.37674713 45.17582321 2.132398605
10.76706028 10.81209469 1.685666203
16.08252716 16.46322441 1.297129631
15.89995289 16.26999092 2.109676838
16.14947891 16.42008781 1.298470378
15.93349075 16.19242287 2.108784437
40.63211441 42.70101547 6.249355793
16.22344589 16.37823486 1.300005674
15.93002892 16.06980515 2.104675293
41.67105103 43.52066422 6.37196064
16.03884888 16.06862831 1.293438911
15.95999241 15.98939323 2.103564262
41.48324203 43.01329422 6.32914257
14.94832039 14.80070496 0.5013769269
16.02759361 15.93872356 1.29232955
15.96637917 15.87868786 2.100362778
16.56225586 16.51558876 2.993457556
15.0196476 14.76577473 0.5020951033
16.06267738 15.85818195 1.292698264
15.94856453 15.74930286 2.095408678
16.36372757 16.18734741 2.960220814
40.67195511 41.58522415 8.26639843
16.09322739 15.7732811 1.292941689
15.97325897 15.6534586 2.093623877
16.31656647 16.01984215 2.947267532
40.85629654 41.48191833 8.276035309
16.16378975 15.72996712 1.29445684
16.22974586 15.80248165 2.110961676
16.33378792 15.91433907 2.942602873
41.14955902 41.49034119 8.305643082
16.06361961 15.5120163 1.29063952
16.0685463 15.52172565 2.094269753
16.3112278 15.78044891 2.933431149
40.99128723 41.0346756 8.252957344
16.00003242 15.33341122 1.28799367
16.10453415 15.44993877 2.093864679
16.39285088 15.74764919 2.937692404
41.22140503 40.97796631 8.271248817
41.96683121 41.76361847 10.54233837
16.67293549 15.89365768 0.4820632041
16.19455528 15.41659641 1.293434024
16.27803802 15.51138306 2.104441643
16.43518066 15.67488194 2.936831713
41.24492645 40.71162033 8.252164841
16.73287964 15.83678818 0.4832188785
16.16793442 15.27657509 1.291979671
16.1981945 15.31749535 2.094551325
16.48985863 15.61471462 2.937628508
41.13956833 40.31780624 8.210076332
16.22422028 15.22009659 1.293129325
16.23329353 15.23982239 2.093993425
16.54008102 15.55015087 2.937882423
41.13884735 40.03160095 8.187196732
16.32728195 15.20975971 1.295749307
16.3263092 15.21961594 2.098117113
16.56171989 15.45743942 2.934470892
41.39772415 40.00384903 8.211135864
42.60155106 41.2225914 10.56525421
16.40903664 15.17791557 1.297718406
16.2939167 15.07594013 2.092209339
16.80043411 15.57816124 2.959179163
41.54927063 39.86920547 8.215871811
42.33591843 40.67027664 10.47420979
16.44642258 15.10812283 1.298349857
16.37373734 15.04272556 2.095323324
16.89325523 15.55427265 2.96498394
41.86665726 39.91018677 8.251379013
42.97141647 41.00226593 10.58942699
15.7943573 14.36124897 0.510677278
16.60707092 15.15211582 1.302792668
16.46212959 15.01748753 2.099134922
41.25668335 39.02260971 6.091010571
41.95521164 39.71313095 8.245023727
42.75177383 40.51390457 10.51111507
15.81146431 14.27142811 0.5124493241
16.73072052 15.15917873 1.306096792
17.04599762 15.47332478 2.142500639
41.34057999 38.82619476 6.087003231
42.19164658 39.65893936 8.265042305
42.90631866 40.37582779 10.51678848
26.73542213 24.57592392 0.3258392811
16.84592438 15.15730286 1.309150219
17.03063965 15.34489155 2.138011694
16.93854713 15.26293468 2.952949286
42.5071373 39.6789093 8.299043655
43.14888 40.32172394 10.54249001
26.81692505 24.47561455 0.327914834
16.91485786 15.11083031 1.310783505
16.92036819 15.12751579 2.126067638
17.00905228 15.2175312 2.956027031
43.19469833 40.04933929 8.398538589
42.80165482 39.70672607 10.4352541
26.87327957 24.35175896 0.3304243386
16.99096107 15.07091141 1.312652469
16.95118523 15.03948879 2.125187635
17.05479813 15.14862251 2.955981255
42.87137604 39.46080399 8.319982529
44.40018845 40.91685867 10.76463127
27.04024696 24.32269669 0.3312400579
17.10498238 15.06614017 1.315706253
17.02113914 14.9939394 2.127581835
17.13214111 15.1038084 2.959695339
43.23425293 39.51994324 8.362229347
44.02576828 40.27672958 10.65162277
27.32471466 24.41914177 0.329767704
17.21625328 15.05804062 1.318686366
17.15979004 15.01190948 2.135391235
42.65162659 38.69832993 8.239180565
43.92385101 39.91062164 10.60172176
27.9162159 24.78677559 0.3234215379
17.27634811 15.00768948 1.320123076
17.23432922 14.97528839 2.138323545
42.33088303 38.11141968 6.126950264
42.58646393 38.37679291 8.208127975
27.91415787 24.61449432 0.3268280625
47.95063019 42.94747162 2.26445055
42.45793152 37.96974945 6.129749298
42.7063179 38.21354675 8.208491325
44.41952133 39.8143425 10.6572094
27.83569908 24.35614967 0.3318254054
48.29137039 42.93556595 2.273759604
43.15851593 38.30596161 4.155028343
42.9088974 38.0954628 6.171903133
43.29026794 38.45883942 8.288378716
27.81969452 24.16516685 0.3355960548
48.61017609 42.91683578 2.282484293
43.65936279 38.48430634 4.186646461
43.13574219 38.02847672 6.186580658
43.61642075 38.47937393 8.324431419
27.8638134 24.02926254 0.3383799195
48.94862747 42.92892075 2.291898727
43.26032639 37.86865234 6.188518047
43.99402237 38.55739975 8.370298386
27.82077217 23.82517052 0.3423810601
49.28335953 42.92005157 2.301179647
44.35902023 38.55853271 4.226288319
43.41926956 37.75305939 6.195498943
27.87093544 23.69617462 0.3450529277
49.63962936 42.92788696 2.311156034
44.24850464 38.21621323 6.285154343
27.87089348 23.52364731 0.3485144079
49.99051285 42.92851257 2.321002245
44.49063492 38.13759232 4.222407818
44.31824493 38.00402832 6.280341625
27.76740646 23.26214981 0.353579402
50.32993317 42.91671371 2.330531836
44.66531372 38.01638794 4.228801727
45.79508209 39.01922989 6.449625015
27.76988411 23.09449959 0.356963098
50.66687775 42.90044403 2.34002161
44.79138947 37.85261536 4.231507778
27.83525848 22.98183441 0.3593664765
50.98452377 42.88085175 2.348996162
8.791335106 6.590872765 0.6533708572
8.79082489 6.594007492 1.056688547
8.785664558 6.593201637 1.460422635
8.798729897 6.610643387 1.867857814
8.783985138 6.601764679 2.274560213
8.785512924 6.609516621 2.687518358
8.787444115 6.615090847 3.105491638
8.773330688 6.607076645 3.524731398
8.809802055 6.553693295 0.6541627049
8.810787201 6.558138371 1.057177782
8.802769661 6.557616234 1.460481882
8.815655708 6.572215557 1.867417932
8.806919098 6.568569183 2.274724245
8.788890839 6.559734821 2.683325768
8.810369492 6.581942558 3.105380297
8.802135468 6.579053879 3.52632761
8.838837624 6.525478363 0.6547964811
8.835202217 6.526076794 1.057810783
8.840654373 6.534342766 1.46201086
8.833939552 6.535047054 1.867166638
8.850972176 6.553189754 2.278469563
8.824997902 6.535200596 2.685984373
8.835959435 6.548448563 3.105699539
8.844241142 6.562212944 3.532082081
27.80818558 22.29254913 0.3733151257
15.59413147 12.01749802 0.5570657253
52.84794998 42.90389252 2.402650595
35.59176254 28.61523819 3.492482662
26.89357185 21.22108078 0.3932537138
53.21949005 42.8997612 2.413461208
35.31308746 28.18747902 3.466587543
35.03215408 27.97120094 5.039877892
26.88545036 21.05751991 0.3965928257
53.57615662 42.88091278 2.423857212
35.13468933 27.82550812 3.447947025
35.05207443 27.78338814 5.032906055
26.8849678 20.89338875 0.3999685645
52.28874207 41.51052094 2.384075642
35.15951157 27.6574955 5.036159992
15.59138966 11.6478672 0.5646554828
52.50160599 41.38059235 2.390178204
35.38344574 27.61994934 3.45721674
35.87998962 28.03611374 5.113861561
15.58354473 11.55218983 0.5666148067
35.48844528 27.47548866 1.870624661
35.49802017 27.50892258 3.461176634
35.34300232 27.40061378 5.040011883
26.62607956 20.22542 0.4131698012
36.56580734 28.12857246 1.903289557
35.72480011 27.48688126 3.473616362
35.45819855 27.29094696 5.04486084
26.82377625 20.23015213 0.4135488272
39.4413681 30.18798256 1.990831017
35.4753685 27.08763123 3.450327158
36.29512405 27.75082397 5.136239529
15.74776268 11.41549587 0.5698497295
52.79610062 40.41736221 2.398022175
35.15127945 26.63384628 3.42158103
36.34893036 27.5885849 5.133686543
36.14619827 27.44643784 6.73413229
27.21231842 20.2301178 0.4145096838
53.96914291 41.0328598 2.433623314
32.62440872 24.47154808 3.22819829
34.7551918 26.14472389 4.934638023
36.26457214 27.33622932 6.740348339
15.64489746 11.15998936 0.5749279857
37.18848801 27.78664589 1.921731114
32.67295456 24.32717514 3.227852583
34.85361862 26.02711868 4.93797493
36.39358902 27.23404694 6.748382568
28.55340195 20.95381927 0.4027742445
36.5372963 27.09176445 1.901812196
32.9126091 24.32975388 3.24181056
35.94696426 26.67265701 5.059614658
37.66744232 28.02065849 6.94425106
28.62891006 20.86146545 0.4049104154
36.70932007 27.03108406 1.907025218
32.94337845 24.18070412 3.240417719
35.36297989 26.03949165 4.982319832
36.25946426 26.74969101 6.701965809
36.70052719 26.80595398 0.3010461926
36.93563461 27.00051689 1.913920879
33.09295273 24.12205887 3.247908115
35.60723877 26.04004669 5.003446102
36.47997665 26.71784973 6.725214958
36.78742981 26.6705246 0.3041355908
36.98465347 26.83554077 1.91543889
33.19734955 24.01973152 3.251882792
33.07853317 23.94618797 4.696475983
37.01937485 26.9243145 6.800256729
36.87381744 26.53484154 0.3072387874
36.45080948 26.23714256 1.899211407
33.21657944 23.85375786 3.249585152
33.10871887 23.78913498 4.69256258
36.66573715 26.45953751 6.730341911
37.02083206 26.44404602 0.309566766
36.47119141 26.05517578 1.899913549
32.74555969 23.32578087 3.21106267
33.19583511 23.67481041 4.695435524
36.71728134 26.29981995 6.726354599
37.15155411 26.34071541 0.3121253848
36.7341423 26.05202484 1.908043504
32.64457321 23.07556534 3.200051308
33.15579605 23.46703339 4.683430672
37.33055496 26.55370522 6.81315279
15.598032 10.45232487 0.5897505283
32.74966049 22.9688549 3.20415616
33.1661911 23.2973938 4.677455902
15.67845058 10.42321205 0.590601325
34.0559845 23.71440315 1.826646805
32.82115173 22.84636497 3.205999374
33.27835846 23.19340515 4.683134079
38.4780159 26.68849945 0.3084869385
34.29911041 23.70855713 1.834247589
32.81921387 22.67125702 3.202485085
33.41352081 23.11451149 4.691906452
38.5138092 26.51115417 0.3123947978
34.1354866 23.4113102 1.829462409
32.89936066 22.5555439 3.205062628
33.44481277 22.96093369 4.688601971
27.69532013 18.87252998 5.221819401
27.64035416 18.85466957 6.426624775
27.61891365 18.86877441 8.894309044
27.80297852 18.74164963 0.4476851523
27.79587746 18.75016975 1.636158943
27.77427292 18.7557621 2.82571578
27.75782585 18.75785255 4.019574165
27.74908638 18.7656517 5.221773148
27.68918419 18.74463272 6.424968719
27.69361496 18.76239967 7.653170109
27.72012138 18.79628754 8.90633297
34.17224121 23.08899879 1.831063509
33.45212173 22.59990692 3.239108324
33.42721939 22.59905434 4.672921181
34.21536636 22.95050049 1.832649112
33.56068039 22.51071167 3.244015932
33.19269943 22.27060699 4.639365196
40.66326141 27.21523666 0.3036839962
34.33442688 22.85606766 1.836593986
33.54265594 22.33349991 3.239703178
33.32617569 22.2003212 4.648616314
40.63905334 26.97896576 0.3087338507
34.4425354 22.74488449 1.840249181
33.41995621 22.06809998 3.227498293
33.42982101 22.09178162 4.653803349
40.66987991 26.78149033 0.3131242692
34.51313782 22.61674881 1.842768431
33.59925842 22.01085472 3.237399578
33.70250702 22.09838676 4.678563595
39.96611023 26.10900688 0.325550437
39.41585159 25.75690651 1.993100405
33.66880035 21.88689232 3.239485979
35.02418137 22.83105278 4.824871063
40.66469955 26.37492752 0.32197842
39.72761536 25.76636505 2.003108501
33.86815262 21.85879135 3.251205206
39.55737686 25.45251465 1.998399019
34.06666183 21.82034302 3.262737989
39.75943375 25.3974247 2.005086422
34.44675064 21.90091896 3.287471771
39.83409882 25.24762154 2.007930279
34.7460556 21.9254055 3.306343317
40.06279373 25.20830536 2.015494823
34.79283524 21.79166603 3.307076454
40.38686371 25.21934509 2.02604723
41.43918228 25.65365601 0.3404322267
39.52963638 24.07280731 2.001778364
39.50458145 23.86471367 2.001724243
39.50233841 23.67186546 2.002397299
28.15483284 16.46199799 0.4989160895
39.40565109 23.42159271 2.000190258
26.61857224 15.38658619 0.5175411701
39.34863281 23.19734001 1.999227166
39.80601883 23.50827599 3.646772861
28.17279816 16.20283127 0.504807353
39.40840912 23.04543877 2.001886129
39.74474716 23.27114105 3.639609814
28.447752 16.2274189 0.5052587986
39.46590424 22.89236259 2.004503727
39.73110199 23.07365036 3.636062145
28.56619453 16.16997337 0.5069950223
39.70466995 22.84798431 2.012742519
39.94264603 23.01192284 3.648706913
39.64206314 22.63262558 2.011666298
39.99564743 22.86421204 3.650160313
45.21509933 25.70396614 0.3528887033
39.9942627 22.65351868 2.02347517
39.91463089 22.6283493 3.641958475
40.18998337 22.58047295 2.030487299
39.15239334 21.79148674 1.999363899
46.27277374 25.66745758 0.3577555418
39.16532516 21.61694527 2.000753403
39.35152817 21.74566078 3.594928741
39.14801025 21.42573357 2.001230717
39.40225983 21.5925045 3.596405506
46.92959976 25.62164116 0.3613620102
39.10198212 21.21918488 2.000840902
39.4068222 21.42254639 3.59474802
39.13344574 21.05725288 2.002879858
39.3832283 21.22831917 3.591035843
41.31574631 22.06985664 0.4210872054
39.29877472 20.97021866 2.009105921
39.60808945 21.1735096 3.605055809
39.94033432 21.12302971 0.4375014603
39.29769516 20.79053116 2.010187864
39.25506973 20.78895569 3.577936172
41.98445892 22.05004501 0.4242268503
39.39404678 20.66485786 2.014328718
39.36345291 20.67022133 3.583779335
42.29062653 22.03567696 0.4258016646
39.47769547 20.53212166 2.018102884
39.76086807 20.70827484 3.610184431
42.58003235 22.00070953 0.4277974367
39.64344025 20.45239639 2.024407387
39.67736435 20.49310112 3.602577448
42.96099091 22.02234268 0.4288576543
39.72460938 20.31779099 2.02816391
39.56486511 20.25489426 3.592886686
39.71535873 20.12633133 2.029186487
39.95202255 20.28330612 3.618665457
27.52718735 13.53472137 0.5636412501
39.92994308 20.06205368 2.03717494
40.18615723 20.22843552 3.633629084
27.51708031 13.40722466 0.5665965676
40.26160049 20.05746078 2.048869133
39.36968994 19.41900063 2.022237539
27.52013397 13.16570568 0.5723079443
39.17865372 19.1563549 2.017506361
40.04001617 19.62039948 3.618737221
27.70041847 13.14223289 0.5736349225
39.09327316 18.9494915 2.016104221
40.08083344 19.47411346 3.620282888
45.53060532 21.99282265 0.4404035211
39.19429779 18.82922554 2.02064991
39.94287872 19.2379303 3.609245539
46.03624344 22.04616737 0.4413250983
39.10891724 18.61565018 2.01935482
39.33413696 18.75943184 3.564957857
28.6772995 13.26837254 0.574867487
39.16230011 18.47204018 2.022452593
39.93872833 18.88807106 3.606394768
28.79550362 13.19575024 0.5771208405
39.25440216 18.33907127 2.02687192
39.96763229 18.72063255 3.607173681
28.30173874 12.82570744 0.5838024616
39.27080917 18.1775856 2.028857231
39.78403473 18.45023918 3.593023062
28.52733421 12.81851578 0.5849769115
39.3120842 18.03697014 2.031578064
40.01485062 18.39903831 3.608256817
29.8218708 13.31960201 0.57870543
39.46798706 17.94281578 2.038030863
40.26016998 18.35338783 3.624546766
29.81707954 13.18983746 0.5818122625
39.65623093 17.86321449 2.045543909
39.9964447 17.85380745 2.057921886
29.93467903 12.99069405 0.5871623158
40.24097443 17.79762077 2.067306757
39.27620697 17.18308258 2.038228035
41.46564865 17.99165916 0.518471539
39.10975647 16.94143105 2.03454566
39.13940048 16.79858971 2.037049294
39.10226822 16.61783409 2.037524223
39.7910881 16.95033264 3.58557415
39.23609543 16.51381302 2.043490648
39.91721344 16.8484745 3.593822718
39.17935944 16.32536316 2.043382645
40.06750488 16.74004173 3.603750706
39.05875778 16.10199356 2.041328669
39.32353973 16.24918938 3.550914526
39.83159637 16.24947929 0.5535415411
39.24253845 16.0194912 2.048983812
39.35096741 16.09011841 3.552318096
45.08857346 18.33622932 0.5270230174
39.13833237 15.82105637 2.04731822
39.51211166 16.01290894 3.563229799
45.56625748 18.35240746 0.5289105773
39.16500092 15.67120934 2.049971819
39.80026627 15.97244263 3.583058596
39.07493591 15.47271919 2.048881531
39.82177734 15.81815434 3.584202766
39.36618042 15.43366718 2.060130596
39.47272491 15.31678581 2.065449476
39.74653244 15.25949192 2.076319456
39.87300491 15.1491394 2.082359314
39.65102005 14.90738201 2.077003002
46.18862915 17.29920197 0.5582771897
39.01034164 14.49451542 2.058107853
39.05995178 14.35693169 2.061686516
38.98975372 14.17303181 2.061377287
39.81261444 14.52391529 3.58229804
42.15618515 15.20247555 0.5911322832
39.01208878 14.02554321 2.064109802
39.78574753 14.35431957 3.580460548
41.27861786 14.70239449 0.5994079113
39.03761292 13.87950039 2.066970587
39.95410156 14.25944519 3.592372179
41.79177475 14.72993946 0.6013044715
39.03264618 13.72222042 2.06885457
39.92424774 14.08919907 3.590414762
42.08240891 14.67150784 0.6042722464
39.15452194 13.61240387 2.074929476
39.78704071 13.87974548 3.580965996
29.05007362 9.733511925 0.6639888287
39.14846039 13.45514488 2.076825142
40.0946846 13.8352747 3.60279417
29.04940224 9.618481636 0.6669327021
39.14683914 13.30762196 2.078781605
40.2130661 13.71995926 3.611381292
42.94464111 14.48994923 0.61334306
39.1621666 13.1588459 2.081424713
43.00563812 14.34268761 0.6174478531
39.19953918 13.0181818 2.084819794
43.06235886 14.19386768 0.6215803027
39.37030792 12.92445469 2.092662096
45.0195694 14.70383549 0.6185878515
39.8978157 12.95363331 2.112390041
39.49354935 12.84604836 3.56235075
45.31970596 14.63098145 0.622043848
39.96845245 12.82221031 2.117002964
40.03344727 12.68091202 2.121572256
39.7413826 12.2811985 2.116342306
46.66310501 14.36711502 0.6360051036
39.3823967 12.00986671 2.106658697
46.40211868 14.10267735 0.6415429711
39.26540756 11.82010078 2.105072737
46.68089294 14.01316547 0.6453822255
39.11712646 11.62152004 2.102442741
39.82894516 11.87509155 3.590293884
28.11782265 7.968606472 0.7049205899
39.21214294 11.4938755 2.108127356
39.78737259 11.70903111 3.588161707
39.20920944 11.34274197 2.110422611
40.05552673 11.64063168 3.607878208
39.2630043 11.20947456 2.114654779
39.96528244 11.45965958 3.602406263
39.88928223 11.22472572 0.6824002862
39.23220825 11.05032825 2.116051197
40.32655716 11.41762066 3.628784895
39.19107056 10.89609337 2.116990328
39.17628098 10.74284172 2.118962765
39.4064064 10.66186047 2.12929368
41.37837601 11.05704212 0.6949962378
39.47325134 10.53214359 2.134104729
41.82567215 11.02835369 0.6982252598
39.45508957 10.37794113 2.136040211
42.43690109 11.04276752 0.7012113333
39.83842087 10.33742332 2.151742458
42.99478149 11.03805542 0.7044257522
40.22193146 10.29440498 2.167521715
43.36024857 10.97675037 0.7081070542
39.19131088 9.713604927 2.137386799
44.96300888 11.07921219 0.7142718434
39.11981583 9.547987938 2.137561798
39.38132095 9.643921852 3.57358408
45.31984329 11.00512505 0.718279779
39.13268661 9.405380249 2.140666008
39.90382767 9.642445564 3.611861229
45.91871643 10.99135303 0.7220165133
39.27466583 9.296489716 2.148265123
39.20423508 9.304278374 3.563815355
46.51041794 10.96298409 0.7261208296
38.94967651 9.067263603 2.139694929
39.21223831 9.160619736 3.565823078
47.16627121 10.96392345 0.7297974825
39.06741333 8.952404976 2.146499634
39.31643677 9.041470528 3.574690819
39.08031845 8.818105698 2.1495502
46.52318192 10.46617031 0.7397895455
39.02841568 8.660820007 2.150497913
39.11129761 8.522281647 2.156454086
47.29030228 10.28713894 0.7490851879
37.32536697 7.954356194 2.096626043
37.27024841 7.804140091 2.097386122
36.79376984 7.557653427 2.083320618
40.35784912 8.411767006 3.658532858
36.7220459 7.413207054 2.083353043
37.45573807 7.604678154 3.453769207
36.73117828 7.280757427 2.086388111
37.46152496 7.468828678 3.45590353
36.57624435 7.302714825 4.711515427
36.77693558 7.156455994 2.090741873
37.518013 7.351163864 3.461600542
36.39832306 7.12977457 4.693136692
36.77537537 7.021831036 2.093442678
35.66448212 6.813251019 3.331204891
36.39653778 6.996560574 4.69370842
36.92643356 6.926508427 2.101453066
35.71627045 6.694268227 3.336647272
36.56933212 6.900828362 4.713074684
36.88292694 6.782999516 2.10270834
35.75984573 6.573401451 3.341544867
36.81454849 6.825914383 4.740232468
41.7771759 7.622475147 0.7914464474
36.97986603 6.668754578 2.108994961
35.80760574 6.459767818 3.346689463
36.87007523 6.703607559 4.747128963
42.15179825 7.545835018 0.7957882881
37.18618393 6.576010704 2.119233131
35.72843552 6.307321548 3.342981815
36.93883133 6.583788872 4.755505085
36.31760406 6.483270168 6.00249815
42.99687195 7.55150032 0.8005685806
37.04845428 6.407290936 2.117321014
35.48693085 6.130018234 3.327589512
35.5083046 6.158810616 4.602898121
36.38265228 6.358160496 6.011978626
43.37172318 7.468135357 0.8051202893
37.14029312 6.290977001 2.123520851
35.20350647 5.946450233 3.309205532
35.48935318 6.02666378 4.601922035
36.49075317 6.247759342 6.027708054
44.91179657 7.602949142 0.8103415966
37.16771698 6.16865015 2.127286434
35.19554901 5.817714691 3.310572624
35.54804993 5.909689426 4.609345913
39.73494339 6.486288071 0.8115887046
37.07805634 6.017716408 2.126992941
35.36949158 5.72326088 3.325024128
36.28150558 5.925881863 4.689330101
36.93634415 6.075127602 6.092309952
35.1121521 5.524231911 2.058779001
35.2693367 5.583732605 3.319749594
37.40387344 6.002326488 4.811310291
36.41661072 5.845761776 6.018082142
35.10077286 5.395737648 2.061187267
35.92478561 5.568477154 3.36899662
36.39199066 5.684565544 4.703757286
36.59327316 5.746855736 6.043944359
34.65100098 5.184193611 2.047810793
35.99990463 5.452563286 3.376520872
36.23917007 5.520149231 4.688727856
36.80004501 5.645582676 6.0742383
34.68960953 5.066360474 2.052041054
35.22934341 5.190046787 3.323222876
36.2961998 5.399951935 4.696271896
37.04228973 5.312577724 0.8291839361
34.76819229 4.961383343 2.057613611
35.17338943 5.054205894 3.321344376
37.73901749 5.515160084 4.853163242
37.02518082 5.183603764 0.8327888846
35.2852478 4.92213583 2.07941246
35.21139145 4.93448782 3.326268435
36.55513763 5.189490318 4.727071285
36.24143219 4.95670557 2.117279053
35.64773941 4.88563633 3.359863758
36.62088013 5.069431782 4.735732555
36.19635773 4.819979191 2.118652105
35.68712997 4.764475346 3.364991903
36.63417053 4.947226048 4.738712311
36.04901505 4.661499977 2.116419792
35.62163544 4.626875401 3.362579584
36.74134827 4.826643944 4.752043724
36.06608582 4.535447598 2.120105743
35.50432968 4.482040882 3.356445312
37.08506775 4.747999191 4.790890694
35.99966049 4.397152901 2.120721817
35.57786942 4.366418839 3.36415267
36.64951706 4.577428341 6.059601307
36.04745865 4.275835037 2.125586987
35.59860229 4.236457348 3.368199587
36.8058548 4.443423748 4.764400959
36.63255692 4.444604874 6.058355331
40.64403534 4.755710602 0.8668428659
35.97893143 4.131632805 2.126308441
35.61800385 4.112604141 3.372068405
36.4683342 4.25830698 4.729917049
36.91984558 4.34878397 6.101028919
40.663517 4.613893509 0.8711043
37.8001976 4.252113819 2.197363138
36.28322983 4.077384949 3.422882795
36.52310944 4.136358738 4.737785816
37.52258682 4.081069469 2.190295219
36.28625107 3.949035645 3.425683498
36.5735321 4.013576984 4.745243073
37.47616196 3.941981554 2.191862583
36.32046509 3.824825764 3.430791855
36.66297913 3.895647049 4.756983757
37.58903122 3.830042124 2.199258089
36.63130951 3.735528946 3.45609355
36.66525269 3.766102076 4.759344578
37.47223663 3.682678461 2.198215485
37.15777969 3.670661688 3.497201204
36.76100922 3.654743671 4.771780968
37.25762558 3.524614573 2.193482399
37.26552963 3.558720112 3.507719994
37.32232285 3.400375128 2.199296713
37.2884903 3.429739237 3.512233973
66.39176941 6.469591618 0.9720881581
36.95559692 3.227592468 2.188785553
37.35461807 3.305528164 3.519947767
66.39318848 6.235350609 0.979054749
37.03320694 3.105567217 2.195117235
37.36549377 3.168355227 3.523810625
66.42682648 5.992945671 0.9864746928
37.10246277 2.982253313 2.201164722
37.46843338 3.047481298 3.534317017
66.40352631 5.768143654 0.9930378795
37.07387543 2.84861207 2.203511
37.50747681 2.919486523 3.540188551
66.38456726 5.532444477 0.9999662042
37.14426422 2.724929333 2.209662437
66.33479309 5.634774685 5.660877705
66.38069916 5.298382759 1.006951928
37.26596832 2.605687141 2.217817068
66.337883 5.390009403 5.666833401
66.38898468 5.053921223 1.014338613
66.45479584 5.11939764 3.344317436
66.33107758 5.156205177 5.671856403
66.40635681 4.833709717 1.02106607
66.39746857 4.880873203 3.348417044
66.32147217 4.922350883 5.676738262
59.70500946 4.04510498 1.003826737
59.69540024 4.087478161 3.095635891
59.67172241 4.139321804 5.191361427
59.69994736 3.835063696 1.010136724
59.698246 3.878177166 3.101484299
59.65068817 3.928243399 5.194955349
70.92339325 4.893093109 8.532616615
70.90250397 4.94402504 11.05376434
70.85398865 5.00585556 13.59408283
59.69414902 3.625089407 1.016452909
59.69038773 3.668152571 3.106952667
59.65078354 3.719037533 5.200169563
70.69257355 4.626418591 8.512919426
70.65888977 4.676300526 11.02333832
70.58825684 4.736428738 13.55022812
59.68761063 3.415241957 1.022773385
59.66983795 3.457338572 3.111961126
59.66207123 3.51079917 5.206273079
70.67290497 4.377232552 8.51638031
70.66493988 4.429285049 11.02919674
70.59431458 4.489720821 13.55566406
59.70428085 3.207144499 1.029195905
59.66448975 3.247860432 3.117593288
59.66269302 3.301836252 5.211648464
70.68211365 4.130367279 8.523103714
70.64447784 4.180413246 11.03134251
70.59165955 4.242461681 13.55968952
59.70026398 2.997649908 1.03554666
59.65441895 3.038180351 3.123075724
59.64533234 3.081326723 5.216021538
70.68846893 3.883398533 8.529616356
70.64089966 3.933027506 11.03607082
70.60855103 3.984388351 13.56765366
59.68816376 2.777358294 1.042190075
59.67552185 2.830616236 3.129815102
59.62852478 2.871488571 5.220225811
70.68279266 3.623365164 8.53521347
70.64435577 3.686171055 11.04195404
70.58055878 3.735708475 13.56742764
59.68403244 2.578577995 1.048238635
59.68393326 2.622302532 3.136093378
59.63287354 2.663123846 5.226062775
70.67675781 3.388180971 8.54027462
70.65287018 3.439709425 11.04870605
70.56473541 3.500417709 13.569314
15.5998745 -0.09377510101 0.3131581545
59.69178391 2.370113134 1.054668427
59.66368103 2.412366152 3.141279936
59.62398529 2.464491606 5.230695724
70.6646347 3.140397549 8.545070648
70.64076996 3.192129374 11.05259609
70.57236481 3.254352331 13.57585621
15.57469654 -0.1495765746 0.3156944215
59.68283844 2.160874367 1.061031938
59.6506691 2.203056574 3.146783829
59.63088608 2.256467104 5.236842155
70.66553497 2.893494368 8.551398277
70.63571167 2.945080042 11.05764294
70.57913208 3.0082829 13.58241081
15.58127403 -0.2037527412 0.3172622621
59.6871376 1.952349782 1.067467809
59.66487122 1.995206952 3.153400898
59.63309097 2.048181057 5.242701054
70.67352295 2.647063732 8.558608055
70.62780762 2.698044062 11.06240749
70.58895874 2.762448311 13.58968544
59.67471695 1.743151426 1.073834062
59.66636658 1.786755085 3.159552097
59.61862564 1.839211583 5.247375011
70.67469788 2.40031004 8.565172195
70.62496185 2.451354504 11.06804371
70.57042694 2.515223742 13.59197903
59.65158463 1.533638597 1.080156684
59.66713715 1.578355551 3.165709496
59.63131332 1.631533504 5.254143238
70.64917755 2.152503729 8.568901062
70.62718201 2.205018759 11.07454967
70.57264709 2.269173145 13.59820271
59.67167282 1.325961947 1.08670187
47.55561066 0.9087811112 2.687902451
59.63531494 1.423489094 5.260323048
70.62676239 1.905039191 8.573070526
70.6285553 1.958705664 11.08106613
70.5818634 2.023435593 13.60586357
59.67105484 1.117526174 1.093155622
47.79710007 0.7511225343 2.702517986
59.63260269 1.215261221 5.266061306
63.30254745 1.393094659 7.771737099
63.27779388 1.440270424 10.01554012
63.23191833 1.498370409 12.27656078
63.23223877 1.548082471 14.5737009
63.20299911 1.597748876 16.89867592
59.67370987 0.9092155099 1.099638104
47.94417953 0.5888357162 2.713422298
59.64910507 1.007689714 5.27330637
63.29350281 1.172006607 7.776874065
63.26083374 1.219082832 10.01896477
63.23273849 1.278023601 12.28236866
63.19592285 1.32648313 14.57120991
63.19213104 1.37722981 16.90110588
47.9820137 0.3868613243 1.043710709
47.39553833 0.4063527882 2.696368217
59.61503601 0.7986620665 5.276807785
63.30752945 0.9516754746 7.784653187
63.26485062 0.9986612201 10.02557182
63.22296143 1.057361364 12.28639698
63.20570374 1.106681943 14.57894611
63.1843605 1.156997442 16.90452766
59.65483475 0.4921579063 1.112505674
47.44155884 0.2420940399 2.703238726
59.62210083 0.5908849239 5.283467293
63.30688477 0.7309408188 7.790904522
63.26810074 0.7782350779 10.03218651
63.20060349 0.8364949226 12.28828239
63.20299149 0.8864725828 14.5841341
63.18745041 0.9371188283 16.910923
59.64529419 0.2837504148 1.118954301
47.81466675 0.08426559716 2.723391533
59.6264534 0.3830350339 5.289986134
63.28956223 0.509845376 7.795403004
63.28640366 0.5582308769 10.04112339
63.21682358 0.6167192459 12.29733562
63.19560623 0.6662646532 14.58847427
63.17426682 0.7168406844 16.91337013
59.65703583 0.07581655681 1.125532031
59.60816193 0.1196404099 3.207232237
59.6162796 0.1645581275 5.29578352
63.2853775 0.2891501188 7.801448822
63.25645447 0.337125212 10.04312611
63.21276474 0.3854698241 12.30316162
63.17979431 0.4348741174 14.59146404
63.17580795 0.4970433116 16.91978073
59.66217422 -0.1426680684 1.132412791
47.64022827 -0.2599862516 2.726811886
59.57926178 -0.04381467775 5.299297333
63.3004303 0.05780601501 7.810052395
63.25752258 0.1057680622 10.05011177
63.21560287 0.1653711051 12.31008434
63.17863846 0.2149717361 14.59752369
63.1728363 0.2661599815 16.92555618
59.65441895 -0.350910157 1.138905883
59.6213913 -0.3064423203 3.220965624
59.57740784 -0.2515540719 5.305533886
63.31454849 -0.1626051515 7.818321228
63.26161194 -0.1145494133 10.05733967
63.20979691 -0.05481120944 12.31558037
63.19040298 -0.004777135793 14.60658646
63.15149689 0.04606505856 16.92653656
59.63594818 -0.5591455698 1.145345092
59.62877655 -0.5039027929 3.227435827
59.59476852 -0.459123373 5.313292027
63.28416443 -0.3834627271 7.821740627
63.26092911 -0.323905468 10.06365013
63.18945312 -0.2750814557 12.31856823
63.17990494 -0.2248001397 14.61095619
63.17004013 -0.1624173075 16.93757439
59.64071274 -0.7567613721 1.151605487
59.61555099 -0.7118954062 3.233424425
59.58747482 -0.6668735743 5.319241524
63.18740082 -0.5934346318 7.817517757
63.17447281 -0.5447191596 10.0578289
63.13883209 -0.4844324589 12.31582832
63.15690613 -0.4338697493 14.61241913
63.13751984 -0.3824504614 16.93609047
59.64482117 -0.9648071527 1.158203125
59.61158371 -0.9197653532 3.23982811
59.59144211 -0.8641779423 5.325780869
63.29266357 -0.8134684563 7.836207867
63.24356842 -0.7645873427 10.07495403
63.20355225 -0.7040640116 12.33463764
63.15272903 -0.6536626816 14.61851215
63.17979431 -0.6018661857 16.95394135
59.64819717 -1.172907829 1.164810538
59.62088013 -1.127688766 3.246816874
59.60261536 -1.082303643 5.333592892
63.28187561 -1.033965111 7.842077732
63.25451279 -0.9848598242 10.08366871
63.21038818 -0.9350982308 12.34338951
63.19068527 -0.8844311237 14.63437939
63.16123962 -0.8216826916 16.95643616
59.63676071 -1.391293645 1.171665668
43.76736069 -1.227924585 2.5980196
59.56124115 -1.289814115 5.337129116
63.28213501 -1.265476942 7.849634171
63.24083328 -1.216169715 10.08925438
63.18894577 -1.155071139 12.34676456
63.17125702 -1.104295969 14.63749409
63.15924072 -1.05236423 16.96374702
59.62864685 -1.599275351 1.178224444
43.9196167 -1.382236123 2.609242201
59.57484818 -1.507951498 5.345263481
63.27970123 -1.485984206 7.856629372
63.25020218 -1.436482787 10.09798813
63.19215393 -1.38611877 12.35517406
63.18216324 -1.33520329 14.64781952
63.1584816 -1.27209425 16.9712162
59.63380814 -1.807389855 1.184882045
35.29182816 -1.410991311 2.255369425
59.58001328 -1.705346704 5.352140427
63.2725296 -1.706429958 7.863188267
63.248909 -1.656811595 10.10527897
63.18111801 -1.595047474 12.36037159
63.16330338 -1.543909788 14.65102577
63.16083527 -1.491832733 16.97968674
59.62624359 -2.01535368 1.191469073
35.20775986 -1.532561064 2.255865335
59.58431625 -1.913168192 5.359355927
63.2725296 -1.92690444 7.870642662
63.2448616 -1.877111435 10.11228561
63.19081497 -1.815160275 12.36989021
63.15328979 -1.763650775 14.65673161
63.15854263 -1.711579323 16.98717308
59.61795425 -2.223218679 1.198060989
34.9595871 -1.643984199 2.249304295
59.55599976 -2.120321512 5.364129066
63.27176666 -2.147450686 7.878108501
63.23041153 -2.086137533 10.11748791
63.19580841 -2.035341501 12.37870216
63.16399384 -1.983673573 14.6671629
63.14607239 -1.920151591 16.99183464
59.63319778 -2.421310663 1.204497695
34.44522858 -1.753256083 2.231749058
59.55686569 -2.328063965 5.37120676
63.27051926 -2.356984854 7.885231018
63.2367363 -2.306632996 10.12626266
63.1747551 -2.244030476 12.38247967
63.16056824 -2.19251585 14.67425346
63.13841629 -2.139751196 16.99834251
59.62548828 -2.629285097 1.21112144
35.71226883 -1.909166217 2.288989544
59.55731201 -2.525450706 5.377962112
63.2563324 -2.577173233 7.891373158
63.234375 -2.526986837 10.13387775
63.17037582 -2.463965654 12.38986015
63.1697731 -2.412696838 14.68470764
63.14160538 -2.35961175 17.00784111
59.61905289 -2.837287426 1.217766643
34.6518364 -2.000214577 2.248427868
59.58466339 -2.734093428 5.387211323
63.52545929 -2.805855751 7.929461956
63.59909058 -2.758048773 10.19591713
63.49359894 -2.693214893 12.45760441
63.22116089 -2.634108782 14.70462894
63.32605362 -2.58435297 17.06414032
63.73910904 -3.193595648 1.254660726
34.65562439 -2.121313334 2.252630711
63.62296677 -3.080238819 5.70663929
63.53551865 -3.027796745 7.938556671
63.59910202 -2.979818106 10.2041769
63.55842209 -2.916574717 12.47805977
63.51385498 -2.863407612 14.77789593
63.53292084 -2.811068296 17.12645912
63.75666046 -3.416969776 1.26197505
34.65698624 -2.242391348 2.256755352
63.56863022 -3.2506845 7.950346947
63.61810684 -3.202297926 10.21537495
63.55954361 -3.138167381 12.48695755
63.49727631 -3.084171295 14.78325844
63.49697495 -3.031134367 17.12656784
63.75343323 -3.63960743 1.26915133
34.90747833 -2.374017715 2.27149415
63.58110809 -3.473057747 7.959916115
63.5304184 -3.358687639 12.49043655
63.51115036 -3.305998802 14.79551125
63.48348236 -3.251839638 17.1326561
63.75942612 -3.862746477 1.276414037
35.06565094 -2.503198385 2.282379627
63.58684158 -3.695257187 7.968823433
63.53142929 -3.591390133 12.50006962
63.51981354 -3.53884697 14.80727482
63.51567459 -3.474393845 17.1507206
63.74010468 -4.095850468 1.28385818
34.91767883 -2.624593258 2.280448914
63.58528137 -3.928355694 7.977426052
63.54591751 -3.813737869 12.51189613
63.51453781 -3.760156631 14.81567764
63.50973892 -3.706604958 17.15968132
63.67859268 -4.315520287 1.290620327
35.34229279 -2.769102573 2.302846432
63.65361786 -4.203999519 5.748953819
63.5933876 -4.150882244 7.986804485
63.58295059 -4.099781036 10.24538231
63.53604126 -4.035032749 12.51938152
63.49482727 -3.980774403 14.82107162
63.50743484 -3.927983761 17.16929245
63.64228439 -4.536252975 1.297585845
62.38220596 -4.404865742 3.469296932
63.61926651 -4.424623966 5.754394054
63.60865402 -4.373968601 7.997096062
63.59472275 -4.311396599 10.25569344
63.54306793 -4.257259846 12.53014183
63.50555801 -4.202917099 14.83336926
63.51468277 -4.138834476 17.18104935
63.62584305 -4.74688673 1.30435729
63.59998322 -4.695797443 3.529369593
63.57021332 -4.64426136 5.758748531
63.63572311 -4.586777687 8.008392334
63.59719849 -4.533782482 10.26519775
63.5303688 -4.467386246 12.53692532
63.52400208 -4.414587498 14.84705448
63.50119781 -4.359705925 17.18818092
63.61797333 -4.969212532 1.311576009
63.60998535 -4.919043541 3.537567616
63.58877945 -4.856710434 5.768042564
63.6197052 -4.808341026 8.015330315
63.61073303 -4.756948471 10.27647781
63.52803421 -4.689226151 12.54625225
63.51955032 -4.636215687 14.85635662
63.52174759 -4.582604408 17.20431709
15.54993629 -1.998206973 0.3744930625
63.62928009 -5.192876339 1.318970084
63.60126495 -5.141242027 3.545001507
63.57727051 -5.089658737 5.775882244
63.62075424 -5.03102684 8.024306297
63.62744904 -4.980448246 10.28836155
63.52807236 -4.922431946 12.55667496
63.5018692 -4.868149757 14.86343575
63.46998215 -4.801301479 17.20197105
63.63700867 -5.427596092 1.326718688
63.59495926 -5.374765396 3.552975416
63.58956909 -5.313185692 5.78524828
63.61626053 -5.264550686 8.03319931
63.61098099 -5.21314764 10.29590034
63.53983307 -5.145393372 12.56893349
63.51142883 -5.09079504 14.87621593
63.08621979 -5.009174347 17.11446381
63.63872528 -5.650883675 1.334069371
63.5846405 -5.596949577 3.56042695
63.58517456 -5.535660744 5.793374538
63.62363815 -5.487905502 8.043100357
63.59844971 -5.434902191 10.3036747
63.54296494 -5.367968082 12.57975101
63.50461578 -5.312416077 14.88554668
62.90936661 -5.217608452 17.08005714
63.62369919 -5.873021126 1.341293097
63.60342407 -5.821397305 3.569192171
63.56607819 -5.757128239 5.800413132
63.63815689 -5.711937428 8.053917885
63.60091782 -5.657864571 10.31382179
63.53549957 -5.589865208 12.58875561
63.51455307 -5.535385132 14.89878273
62.88826752 -5.436116219 17.08616257
63.61986542 -6.096087933 1.348629475
34.59197235 -3.69889307 2.304769516
63.57403946 -5.980744362 5.80965662
63.6162262 -5.933307171 8.06067276
63.59472656 -5.880255699 10.32279778
63.51942444 -5.811165333 12.59631252
63.50813293 -5.757261753 14.90856647
63.62122345 -6.319666862 1.356028199
34.3747673 -3.802037477 2.299587488
63.60306931 -6.206267357 5.820641518
63.60937119 -6.155923843 8.069248199
63.59563828 -6.103339672 10.33296776
63.50257111 -6.032442093 12.60387611
63.49897766 -5.979028702 14.91792679
63.60187149 -6.54155302 1.363257885
34.39611816 -3.924673557 2.304897308
34.43657684 -3.894807816 3.517382383
63.62152863 -6.38023138 8.08010006
63.5760498 -6.324812412 10.34018707
63.52020645 -6.256608963 12.61801434
63.48516083 -6.200470924 14.92643166
63.61958313 -6.766857147 1.370840907
34.2956543 -4.036417961 2.304848909
63.57928848 -6.650926113 5.836355686
63.62497711 -6.604010105 8.09005928
63.57539368 -6.547935486 10.35037518
63.53118134 -6.480479717 12.63107491
63.49585342 -6.424050808 14.94057846
34.56856155 -4.210413456 1.108555675
34.07151413 -4.135778904 2.299311399
63.55035019 -6.871771336 5.842963696
63.60389328 -6.825641155 8.097300529
63.57395172 -6.77115202 10.36057568
63.51394653 -6.701961517 12.63903046
63.49213409 -6.646575928 14.95170212
63.59489441 -7.212373734 1.385511518
34.2586937 -4.274145603 2.312044621
63.54445267 -7.094806671 5.851472855
63.5978508 -7.048755646 8.106369972
63.56384277 -6.993615627 10.36959648
63.50376129 -6.924168587 12.64845848
63.50514603 -6.870729923 14.96674156
63.6022644 -7.437226772 1.393057346
34.31811905 -4.400887012 2.319149494
63.56157303 -7.320248604 5.86189127
63.58311844 -7.271110535 8.114537239
63.59232712 -7.22005415 10.38457012
63.50453949 -7.147533417 12.66009045
63.50179672 -7.093594074 14.97832298
63.6008873 -7.661394119 1.400540471
34.44859695 -4.535597324 2.329474449
63.57788849 -7.54591465 5.872325897
63.58342743 -7.495018959 8.124535561
63.57276917 -7.441912174 10.39242744
63.51822281 -7.372315407 12.67429161
63.5015564 -7.316904068 14.99078465
63.59474945 -7.88513279 1.407993913
34.40972137 -4.652888298 2.332258224
63.54461288 -7.777681351 5.879327774
63.5947876 -7.720341206 8.135917664
63.56031036 -7.664519787 10.40147972
63.52595901 -7.608008862 12.68814468
63.4973526 -7.551107407 15.00318432
63.88462067 -8.153927803 1.418770194
34.42137909 -4.781747818 2.3375597
63.55929947 -8.003569603 5.889788151
63.7620697 -7.974398136 8.165957451
63.57528305 -7.901434898 10.41537189
63.50868225 -7.829928398 12.69687843
63.48384857 -7.773273945 15.01305866
64.12304688 -8.407611847 1.428741217
40.76025009 -5.640249252 2.628413439
67.43523407 -8.674764633 6.210854053
67.47098541 -8.623967171 8.606050491
67.4539566 -8.566477776 11.01464653
67.39420319 -8.491467476 13.43837452
67.39228058 -8.433872223 15.90275097
64.00705719 -8.62048912 1.435204983
34.59944153 -5.046413898 2.354805708
67.43086243 -8.912570953 6.220510483
67.4585495 -8.860845566 8.615626335
67.44335175 -8.803440094 11.02507114
67.38544464 -8.728293419 13.44977474
67.36003876 -8.667907715 15.90960884
64.00149536 -8.846412659 1.442790627
33.17472839 -4.993174553 2.29473424
67.44147491 -9.152412415 6.23145771
67.45713043 -9.099201202 8.626589775
67.43584442 -9.040867805 11.03610134
67.389534 -8.96681881 13.46375751
64.13796997 -9.090658188 1.45186758
33.27975464 -5.118103981 2.303780794
67.41169739 -9.387413979 6.239219666
67.478508 -9.340574265 8.64031601
67.41919708 -9.265385628 11.04526234
67.36543274 -9.202109337 13.47260952
66.36897278 -9.599143028 1.482543111
33.42911911 -5.255529404 2.315130711
32.81568146 -5.148948193 3.446410894
67.4887619 -9.568922043 8.652293205
67.41790771 -9.50390625 11.05750847
67.37913513 -9.430236816 13.48806286
66.74486542 -9.292717934 15.8138504
66.37382507 -9.835392952 1.490582228
33.39375305 -5.369425774 2.318081379
34.6350708 -5.501101017 3.598863602
67.46118927 -9.804540634 8.660536766
67.42752838 -9.744031906 11.07156181
67.3768158 -9.668571472 13.50134754
66.43528748 -10.07971478 1.499250412
32.69293976 -5.391794682 2.290458202
34.50196457 -5.605895996 3.593386412
67.46035004 -10.04381466 8.672010422
67.41669464 -9.981726646 11.08263874
67.3717041 -9.906734467 13.51427746
41.05548096 -6.719651699 1.232352376
32.75605011 -5.516905785 2.297888756
34.4159317 -5.71646595 3.591746569
67.45472717 -10.28261185 8.68303299
67.42068481 -10.22162247 11.09612274
67.37936401 -10.14681244 13.52979565
66.39917755 -10.54729271 1.514956713
32.80285645 -5.640241623 2.304609299
33.31132889 -5.680416107 3.506970167
33.22653961 -5.640791416 4.682505608
67.421875 -10.46131802 11.10931683
67.37060547 -10.38489914 13.54238129
66.38283539 -10.78151703 1.522856593
32.83339691 -5.761590004 2.310612679
33.38487625 -5.809838295 3.51825285
33.22116852 -5.758225918 4.687740803
67.41046906 -10.69949722 11.12072849
67.35712433 -10.62241459 13.55423927
66.46848297 -11.03141499 1.531917214
32.87138367 -5.884438038 2.316998482
33.51706314 -5.948736668 3.534405708
33.14268875 -5.864830017 4.684434414
67.41385651 -10.94001198 11.134552
67.34666443 -10.8605938 13.5668478
66.75276947 -11.31309032 1.543268085
32.83191299 -5.995665073 2.319806337
33.58761597 -6.079170227 3.545579672
33.08153915 -5.973655224 4.683197498
67.4046402 -11.17891884 11.14658833
67.33341217 -11.098526 13.57909584
66.67250824 -11.53896141 1.550542712
32.87099838 -6.119187355 2.326305628
33.59566498 -6.206433296 3.551951885
33.2084465 -6.111658573 4.704173565
67.40240479 -11.41910553 11.15983772
67.34075928 -11.35179806 13.59618187
66.67248535 -11.78952026 1.559158802
33.24588776 -6.303571701 2.348848581
33.309021 -6.280258656 3.533798933
33.11415863 -6.22112751 4.699429035
67.40126801 -11.67173004 11.17409325
67.35489655 -11.59449673 13.61400032
67.13899231 -12.10631275 1.572846413
32.70241928 -6.332415104 2.328033209
33.49822617 -6.430740833 3.554906845
