# .PCD v0.7 - Point Cloud Data file format
VERSION 0.7
FIELDS x y z
SIZE 4 4 4
TYPE F F F
COUNT 1 1 1
WIDTH 1294
HEIGHT 1
VIEWPOINT 0 0 0 1 0 0 0
POINTS 1294
DATA ascii
12.55466461 -12.46117306 5.603171825
7.760426044 -8.233516693 0.3722393513
11.56275272 -11.80986881 0.7242411971
12.43246555 -12.52213287 2.506065607
11.55225372 -11.68347073 2.942611456
11.76071358 -11.86154938 3.554415464
11.3633728 -11.4714222 4.019782066
12.50474739 -12.51491642 4.968086243
12.81295776 -12.78214836 5.720201492
7.730668068 -8.259158134 0.3735948503
11.50723648 -11.83361149 0.7260368466
12.45625782 -12.63027573 2.517237425
11.59231091 -11.79690266 2.958913088
11.53957081 -11.73111439 3.513032198
11.1684742 -11.36691761 3.977059126
12.26162529 -12.373353 4.90288353
12.53173256 -12.60327721 5.629674435
7.655942917 -8.23908329 0.377364397
11.51769257 -11.92409229 0.7275556326
11.59667587 -11.88144016 2.96909523
11.57684708 -11.84631824 3.533156395
11.03471088 -11.31432247 3.950941801
11.97789764 -12.18679523 4.822762966
12.43495369 -12.59879112 5.610943317
7.669319153 -8.305963516 0.3763943315
11.37548923 -11.86428452 0.7297847271
60.76043701 -59.0223465 6.351237774
11.67524719 -12.0537138 2.423416138
12.26798248 -12.59859657 3.104901075
11.59254456 -11.93816376 3.547777414
10.98903656 -11.34779549 3.950605392
12.40798759 -12.67837334 4.984245777
11.72286224 -12.00660801 5.351658821
7.64922142 -8.338261604 0.3772227764
11.3266573 -11.89752293 0.7315955162
13.09597588 -13.49852753 2.6305902
11.75889301 -12.19588566 3.018416166
11.70675945 -12.12914276 3.586645365
11.18553638 -11.60932064 4.019654751
12.2989645 -12.65700912 4.963193417
11.66487122 -12.03333855 5.346942425
7.563295364 -8.306200981 0.3815778196
11.28966141 -11.93837452 0.733268857
58.98138809 -58.13471985 6.243767262
11.88834953 -12.41719246 2.468076706
11.68926239 -12.20782661 3.014457703
11.6176033 -12.12187862 3.57646513
11.26333427 -11.75956917 4.054834843
11.71025944 -12.17302608 4.778531551
11.60326004 -12.05245399 5.339954853
7.540310383 -8.335362434 0.3825491667
11.26300907 -11.98555088 0.734815836
12.31295204 -12.95091248 1.330391407
12.33403778 -12.95005512 1.934021711
11.91059494 -12.51966 2.478737593
11.30740929 -11.91526127 2.950747252
11.25171375 -11.82458019 4.064275265
11.71226311 -12.25420952 4.794579029
11.56714439 -12.09201908 5.342130661
7.480212212 -8.32513237 0.3855221868
11.07937241 -11.88118839 0.7371522188
12.27147293 -12.99022961 1.332066774
12.25766277 -12.95937729 1.932664394
11.86554337 -12.55689526 2.479899168
11.27486706 -11.95675468 2.953156948
11.05174732 -11.72203445 3.461588144
11.35092449 -11.99440575 4.105559826
11.7158556 -12.33350849 4.810548782
11.48894596 -12.09451771 5.328589439
7.482584953 -8.379454613 0.3851173222
10.75362396 -11.63299274 0.7400743961
12.24477386 -13.04843426 1.334591389
12.22531796 -13.01185513 1.935420752
11.83940983 -12.60868073 2.483400106
11.28393459 -12.0432663 2.964080095
11.05013275 -11.79638386 3.472094774
11.86015034 -12.57343674 4.268171787
11.52168655 -12.22306252 4.759282112
11.47954559 -12.16400242 5.342285633
7.464951992 -8.414032936 0.3857805729
10.74010658 -11.69454861 0.7415782809
11.78844357 -12.64001656 2.483744383
11.68313503 -12.51835632 3.050677776
11.04252529 -11.86531067 3.481245756
11.74945164 -12.54571056 4.249453068
11.56452274 -12.34498501 4.789660931
11.44926834 -12.21326447 5.347809315
7.407857895 -8.408753395 0.3885619342
10.95263004 -11.98516655 0.7421471477
11.25304985 -12.16922092 2.976700544
11.04572105 -11.94546509 3.493133783
11.78181648 -12.65977669 4.272929192
13.09236336 -13.94780445 5.336247444
11.30692482 -12.15117741 5.308609009
7.369168282 -8.424431801 0.3903317153
10.57770443 -11.68071938 0.7451388836
12.5450964 -13.5736599 2.609529972
11.2259903 -12.2209816 2.980836153
11.07487583 -12.05233288 3.511520863
11.43179321 -12.39461708 4.18373251
13.3400116 -14.2926569 5.44158411
11.11894798 -12.04193878 5.250823498
7.312262058 -8.418596268 0.393093437
10.57722855 -11.75951195 0.7466561198
11.38752174 -12.48507881 2.449013472
11.13137436 -12.20828915 2.972235203
11.05854225 -12.11797428 3.519414186
10.70346355 -11.73798084 3.980284691
11.3752079 -12.40063667 4.771947861
11.18724537 -12.19311714 5.296782494
7.323529243 -8.482888222 0.3921701908
10.79238033 -12.0579586 0.747303009
11.2662487 -12.4420948 2.438907623
11.18442345 -12.34188461 2.99219799
11.06453991 -12.20283985 3.532358408
10.88318348 -11.99731445 4.04716301
11.34955502 -12.45532799 4.778916836
11.19856358 -12.28401852 5.319208622
7.270793438 -8.481002808 0.3946954608
10.75478745 -12.09698391 0.7489253879
11.16480255 -12.41841412 2.431629896
11.01100636 -12.22713947 3.530600071
10.78122711 -11.97058487 4.029904366
12.01112843 -13.21472549 5.02862978
11.2470293 -12.41366386 5.3569417
7.202996731 -8.462924004 0.3980309665
10.74603844 -12.16627789 0.7504453659
64.05853271 -67.55879211 7.023219585
11.16577339 -12.50022507 2.439436197
11.10109425 -12.41661549 2.995011568
10.87942982 -12.17039394 3.509317398
10.90684414 -12.17823696 4.081250668
10.78275871 -12.03321743 4.610367775
11.11921406 -12.36289883 5.323113918
7.208210945 -8.521414757 0.3974115849
10.68191814 -12.17756844 0.7521541715
11.42202473 -12.84966946 2.485259771
11.02087784 -12.41368771 2.988751888
10.78247452 -12.1484375 3.496569633
10.83588886 -12.18362427 4.073439121
10.68151474 -12.00624657 4.589951038
11.17611027 -12.50257301 5.364694118
7.229522228 -8.597515106 0.3959102333
10.6055212 -12.17543316 0.7538916469
11.08010292 -12.57339191 2.442191839
10.89441204 -12.36151791 2.973165989
10.98199463 -12.43704605 3.558533907
10.69343853 -12.11358738 4.043813705
10.6342411 -12.0348711 4.588687897
11.15900326 -12.56633663 5.376225471
7.138593197 -8.554020882 0.4004841745
10.51211834 -12.15060902 0.7555928826
51.54039383 -55.74629211 3.254058838
51.37456894 -55.47467804 5.866200924
11.01730156 -12.58874607 2.440594673
10.84052181 -12.38496494 2.972075939
10.79043388 -12.31150341 3.521354198
10.56507015 -12.05691242 4.018270493
10.63234043 -12.11118984 4.603724957
11.80890656 -13.32821655 5.662290573
7.120031834 -8.584976196 0.4011480808
10.41431141 -12.12417984 0.7573630214
51.34990692 -55.9079361 3.261106253
11.26179981 -12.93204689 2.485310078
10.82792759 -12.44820309 2.978850126
10.78128338 -12.3820076 3.530885458
11.46782398 -13.09097958 4.308425426
10.58807087 -12.13916016 4.60285759
11.77551651 -13.38033009 5.668457508
7.074276924 -8.589198112 0.4032638967
10.44829178 -12.23986244 0.758749187
11.17969322 -12.92407608 2.480577946
10.78734112 -12.48581886 2.980496645
11.38722038 -13.11253548 3.697707415
11.44622231 -13.15365314 4.316758633
10.55501366 -12.182971 4.606865883
11.79056072 -13.48431015 5.694880009
7.042073727 -8.610647202 0.4046191871
10.31820965 -12.17739201 0.7605827451
11.00314426 -12.82161808 2.462240219
10.64574337 -12.41421318 2.961540699
10.82883739 -12.59550762 3.567147732
10.55447388 -12.2827177 4.056453228
11.09188747 -12.84448528 4.818879604
12.12998199 -13.93777943 5.857132912
6.939976692 -8.552287102 0.4097918868
10.32588768 -12.265131 0.7620462179
10.92635345 -12.8217392 2.458575726
10.56842232 -12.41509628 2.956100225
10.57295418 -12.39961624 3.513444185
10.65752792 -12.47481346 4.102598667
10.93256569 -12.75593662 4.777815342
12.08257008 -13.97840309 5.858433723
6.94405508 -8.607926369 0.4091999531
10.23527241 -12.24465942 0.7637488246
10.89121819 -12.86707306 2.46127677
10.59405041 -12.52023792 2.9708395
11.93805027 -13.97558975 3.879043341
10.6306572 -12.52293968 4.107859135
11.00427437 -12.91362858 4.820252895
11.35101318 -13.27337456 5.571460724
6.891850471 -8.603820801 0.4116490781
10.2169981 -12.30412865 0.7652753592
10.9126997 -12.97092342 2.472338915
10.51863861 -12.51886272 2.965306282
10.66788578 -12.66700459 3.562457561
10.49099445 -12.45118713 4.078530312
10.7593708 -12.7291975 4.747413635
11.24767494 -13.24730682 5.547977924
6.818511486 -8.575540543 0.4152485132
10.16918659 -12.33073807 0.7668651938
55.0888176 -62.36354446 6.440371513
10.86237049 -12.99996853 2.472777843
10.46721554 -12.54361534 2.964717627
10.69765282 -12.78310394 3.582694769
10.2995472 -12.32047749 4.03264904
10.85163975 -12.91488743 4.798606396
6.781163692 -8.587305069 0.4168794155
10.09482098 -12.32718086 0.7684997916
55.42792511 -63.17816544 6.506064415
11.0635004 -13.31094074 2.512426376
11.7191925 -14.02808952 3.236498117
10.27626133 -12.37516403 4.03960371
10.87403584 -13.02476406 4.824333191
6.779345036 -8.64218235 0.416539371
10.11689472 -12.43299198 0.7699528337
55.01150894 -63.14665604 6.494057178
10.80814266 -13.11445332 2.481367588
10.78998661 -13.07272911 3.052908897
10.95917034 -13.24616623 3.677020311
10.43662071 -12.640728 4.105751991
11.5829525 -13.91103363 5.10723114
6.731356621 -8.641670227 0.4187403321
9.95112133 -12.32820034 0.7717947364
54.7613945 -63.32352448 6.50079155
10.57357216 -12.93384933 2.452843189
10.45324993 -12.78046703 2.993088722
10.57229519 -12.89887142 3.588393211
10.4457407 -12.73414707 4.123492241
11.67074299 -14.1024332 5.159104347
6.722646713 -8.686297417 0.4187825024
10.04725933 -12.52017593 0.7731441259
50.19290924 -58.59908676 3.380640745
10.58496952 -13.03205299 2.462968588
11.05929184 -13.55809212 3.132029772
10.49114799 -12.89109802 3.57967186
10.53559971 -12.92046833 4.167313099
11.20153141 -13.66151905 5.001914978
6.638237476 -8.642959595 0.422973603
9.995670319 -12.53823853 0.774646163
49.94100952 -58.61701202 6.054038048
10.6557312 -13.19963646 2.482639313
10.97716236 -13.55311775 3.125726461
10.51051331 -12.99408817 3.597107649
10.20931911 -12.63084793 4.077457905
10.69350147 -13.1692152 4.82868433
6.651464462 -8.710580826 0.4218191803
9.942033768 -12.55782604 0.7762195468
10.66836739 -13.30150795 2.493215561
10.75906277 -13.38528728 3.089716911
10.48468876 -13.04995632 3.603234053
10.14829254 -12.63933277 4.071923256
10.07171345 -12.53385067 4.609901428
6.624228001 -8.733748436 0.422858566
9.9375 -12.6351757 0.7777369618
53.65529633 -63.79199982 6.508804321
11.2693367 -14.08828831 2.597977877
10.89549255 -13.63334084 3.130158424
10.37911892 -13.01305866 3.587919712
10.11329079 -12.68196011 4.075573921
10.94804668 -13.63580608 4.961197376
6.621234417 -8.788597107 0.4225308597
9.942851067 -12.7248745 0.7792536616
11.27479076 -14.19311905 2.608554125
10.82766914 -13.6440115 3.126871109
10.32245731 -13.03258133 3.585732698
10.09380531 -12.74708462 4.085106373
10.87942791 -13.65054989 4.954784393
6.59628582 -8.814728737 0.4234286249
9.868211746 -12.7195797 0.780836463
10.71428967 -13.62222576 2.526900053
10.79725456 -13.70317364 3.132254124
11.701087 -14.75057602 3.974449396
10.05079556 -12.78060055 4.086269379
11.0073595 -13.88773155 5.022057533
6.513971329 -8.768823624 0.4275149703
9.789411545 -12.70449734 0.7823315859
11.14925671 -14.22817993 2.606369257
10.59170723 -13.54446602 3.09834218
11.65858555 -14.79369068 3.977230549
10.12808895 -12.95301723 4.126355648
10.96756363 -13.92843723 5.02514267
6.45108223 -8.745615005 0.4305282831
9.787594795 -12.78643513 0.7838585973
12.14731026 -15.51944065 2.778927088
10.57991505 -13.61594963 3.106587172
10.18102264 -13.11968613 3.586323977
9.967385292 -12.842206 4.088011265
10.90166569 -13.94263268 5.019132614
6.440151691 -8.78821373 0.4306361675
9.67390728 -12.7322607 0.7854201198
12.11501598 -15.58466339 2.783968687
10.50874233 -13.62062836 3.102416277
10.08654976 -13.09279537 3.573705435
9.947773933 -12.90389156 4.097054958
11.04280663 -14.20590591 5.093832493
6.384945393 -8.776490211 0.4331927001
9.553153992 -12.66812229 0.7869560122
10.5067091 -13.72654533 2.528003693
10.62861633 -13.85771084 3.140503168
10.04740524 -13.13236332 3.576336622
9.875645638 -12.9021368 4.088649273
10.68482685 -13.86678123 4.973716259
6.322375774 -8.755139351 0.4361563921
9.641336441 -12.86175251 0.7884824276
10.34623528 -13.62109756 2.510436773
10.62061501 -13.94068909 3.15053153
10.31934261 -13.55338097 3.665772438
10.23564816 -13.42873001 4.225322723
10.86274147 -14.17715263 5.063444614
6.281252861 -8.759986877 0.4379255772
9.614548683 -12.91405582 0.7900182605
10.31660938 -13.67561436 2.514586449
10.28836155 -13.62338352 3.088162422
11.07682705 -14.57949543 3.892190456
10.1705513 -13.43840694 4.219871998
10.92234707 -14.34583664 5.107265949
6.25135088 -8.778736115 0.4390648901
9.611165047 -12.99605751 0.7915649414
10.22134495 -13.6313076 3.084779024
11.5482893 -15.26413059 4.040296555
10.09938526 -13.44015217 4.212329865
10.88099194 -14.39124393 5.111418247
6.248326302 -8.837231636 0.4386432767
9.669935226 -13.16634941 0.7933143377
10.1955862 -13.69977188 3.091866732
44.12225342 -56.20969009 13.28297043
10.85044289 -14.45998478 5.122037411
6.225565434 -8.86529541 0.43936795
9.596264839 -13.16064262 0.7948382497
43.67906189 -56.19879913 8.2212677
10.15184784 -13.73672867 3.093771935
11.02013779 -14.81543541 3.924076796
10.78329468 -14.47327042 5.116012573
6.199011326 -8.888557434 0.4402979016
9.509263992 -13.13718891 0.7963359952
43.66916275 -56.58533096 8.259755135
10.82996273 -14.67409325 3.885443211
10.63565636 -14.38419628 5.07750082
6.167487144 -8.90540123 0.4414999485
8.789639473 -12.29308033 0.7971303463
43.63737488 -56.87182617 10.80362797
10.92694664 -14.89794922 3.92898798
6.151713371 -8.942756653 0.4418110251
8.628214836 -12.16491032 0.798394084
49.3938446 -64.90788269 6.497047901
10.92533588 -15.01650906 3.308391571
10.89338589 -14.9560976 3.935273409
10.74285126 -14.7181282 5.163369656
6.123664379 -8.964180946 0.4428044558
9.444852829 -13.3204155 0.8010014296
10.8793745 -15.05914783 3.310989141
10.74065399 -14.85967255 3.90702796
10.77590752 -14.86132717 5.198582172
6.042583466 -8.915288925 0.4467824101
9.467750549 -13.44107723 0.8026350737
10.8956995 -15.18351078 3.32814765
10.89837742 -15.16765785 3.969137192
6.012234211 -8.933133125 0.4478981793
8.809760094 -12.65467072 0.8030905128
10.7594471 -15.1076746 3.309729576
10.85176659 -15.21017456 3.971945524
5.94963789 -8.907547951 0.4508331716
9.120684624 -13.15385437 0.8051233292
5.970589161 -8.991563797 0.4490623772
9.724435806 -14.05567646 0.8078790307
5.935507298 -9.000037193 0.4504590034
9.207513809 -13.44780064 0.8084028959
9.149558067 -13.46044731 0.8098754883
5.865818024 -9.026098251 0.4531161189
8.516429901 -12.68186665 0.8099135756
43.008255 -59.77653503 11.14248466
5.799966335 -8.997174263 0.4561917186
5.774044514 -9.020629883 0.457015872
9.000432014 -13.54074192 0.8144794106
43.26232147 -61.10422897 8.703458786
43.14813232 -60.86610031 11.29434681
5.744567394 -9.039105415 0.458036989
9.435391426 -14.24981785 0.8174843192
5.68291235 -9.011639595 0.460901916
9.32100296 -14.18116283 0.8187358975
43.95864487 -62.90283585 11.61197186
5.630925655 -8.994340897 0.4632459581
49.75069427 -71.87205505 3.983364344
43.97973251 -63.3716011 11.67532158
5.606100559 -9.018883705 0.4639873207
9.174647331 -14.16856003 0.8216302991
5.589928627 -9.059164047 0.4641858935
9.167916298 -14.25820065 0.8233163953
44.69367218 -65.33875275 11.97866726
5.529992104 -9.032351494 0.4669472575
8.608896255 -13.53805065 0.8227582574
44.42907333 -65.46242523 11.97970772
48.03775787 -70.58737946 15.90509033
5.428092003 -8.939658165 0.4721849263
9.046578407 -14.27552891 0.8261759877
44.28072357 -65.70697784 12.00374126
47.84275436 -70.80089569 15.92468071
5.486064911 -9.083795547 0.4681258798
8.987713814 -14.28384781 0.8275569677
47.57162857 -70.90312958 15.92032623
5.439010143 -9.071994781 0.4701690376
9.059812546 -14.48827744 0.8295361996
5.428256035 -9.127129555 0.4699379206
8.890379906 -14.35589123 0.8308268189
3.967478037 -6.967317104 0.3010388017
5.397369862 -9.14268589 0.4709874094
9.018873215 -14.65441036 0.8332220316
6.705487728 -11.03355503 2.097733974
46.77246475 -71.38697815 15.9383707
3.947438478 -6.982812881 0.3015801609
5.356637001 -9.143042564 0.4726102948
8.832282066 -14.47290707 0.8340273499
6.656858444 -11.03689003 2.096295118
6.487980366 -10.76694012 2.480596542
46.62427139 -71.70035553 15.97874451
3.913283825 -6.976436615 0.3038569093
5.325723171 -9.158332825 0.4736516476
8.884709358 -14.65819836 0.8360778093
6.618056297 -11.05500412 2.096781969
6.456592083 -10.79441833 2.482550621
3.899646521 -7.001839161 0.3035925925
5.28506422 -9.158354759 0.4752632082
8.932985306 -14.83404255 0.8380511403
6.395612717 -10.78914642 2.06071806
6.709498882 -11.24332905 2.998962641
3.867704153 -6.998576641 0.3055939674
5.248056889 -9.160653114 0.4766958654
8.900419235 -14.8904314 0.839676559
47.82747269 -75.60048676 4.158360004
6.517764091 -11.05564976 2.093225002
6.320251942 -10.73141479 2.466489792
6.65715456 -11.24175644 2.994807959
6.377880096 -10.7909193 3.326371908
3.856030941 -7.027251244 0.3050621152
5.232043743 -9.199213028 0.4768382609
8.757595062 -14.77257919 0.8406372666
6.254204273 -10.71662235 2.047987461
6.291058064 -10.76168442 2.468995094
6.007155418 -10.30435658 2.791267633
3.824120045 -7.023759842 0.3070558906
5.174087048 -9.174271584 0.4794270098
8.870546341 -15.06065845 0.8431574106
6.582397461 -11.3291626 1.690267086
6.226565361 -10.75285816 2.050839663
6.252203465 -10.77681351 2.468935966
5.989907742 -10.35011387 2.797603846
6.544098377 -11.19638062 3.870984554
3.78807497 -7.013335228 0.3095749319
5.152611256 -9.204172134 0.4798810482
8.832342148 -15.1151371 0.8448559046
6.463604927 -11.22468281 1.68034637
6.10116148 -10.62961197 2.033360958
6.141046524 -10.68055153 2.449833155
6.184505939 -10.73684311 2.876185417
6.533668995 -11.26002312 3.884367228
3.806513071 -7.091125965 0.3051974177
5.095346451 -9.176154137 0.4824694991
8.715513229 -15.03691006 0.845937252
6.306396961 -11.05229664 1.664628744
6.005064487 -10.55119133 2.021677017
5.991547585 -10.51704502 2.419526815
6.079072952 -10.64471626 2.853176594
6.828015804 -11.82617092 3.57203269
6.529043198 -11.33358097 3.900698423
3.761039972 -7.065207481 0.3089028597
5.088372707 -9.22971344 0.4820412397
8.688055992 -15.10305786 0.8476037979
6.13477993 -10.85346985 1.646667361
5.984811306 -10.5940237 2.025526285
6.051482201 -10.6893568 2.446244478
5.864528656 -10.37457657 2.792591572
5.844790936 -10.3264246 3.185594797
6.455441475 -11.29687786 3.88416338
3.744734287 -7.086846352 0.3088985384
5.051029205 -9.233752251 0.4834280014
8.643651962 -15.14181995 0.8491550088
6.085361481 -10.85095501 1.645679235
5.944591045 -10.60462475 2.025268555
5.848395824 -10.43531036 2.400756359
6.063029289 -10.7722702 2.87335372
5.904837608 -10.49816132 3.225090981
6.454390526 -11.3769865 3.902462006
6.690371037 -11.74478436 4.490679741
3.682082653 -7.031463623 0.3148317635
5.029175282 -9.263325691 0.4838759601
8.430885315 -14.90119076 0.8494699597
6.042240143 -10.85845089 1.645564675
5.921936035 -10.64394093 2.028684855
5.830358982 -10.48095703 2.406060457
5.687220097 -10.23358345 2.756327629
5.841513634 -10.47022533 3.213849545
6.436680794 -11.43074512 3.912913561
6.638053894 -11.74498367 4.484025002
3.64642334 -7.020291328 0.3173227906
4.996940613 -9.275679588 0.4849441648
8.547147751 -15.20692921 0.8521963954
47.33634567 -79.62067413 4.346149921
6.026923656 -10.91190052 1.649416327
5.982241631 -10.8211298 2.049649239
5.780356884 -10.47406197 2.402504683
5.736905098 -10.38972092 2.786057711
5.80074358 -10.47874641 3.211905718
6.405595779 -11.4629612 3.916983366
6.129228115 -10.99319458 4.221547604
3.648412466 -7.074858665 0.3148387671
4.945323944 -9.255230904 0.4871844351
8.468625069 -15.18848896 0.8534775376
5.956068993 -10.87290287 1.645317912
5.936229229 -10.82312393 2.048312902
5.738609314 -10.48052311 2.401228666
5.74304533 -10.47542 2.800905228
5.787164211 -10.53233814 3.221389294
6.358379364 -11.46850491 3.91318965
6.067834377 -10.97161579 4.208092213
3.612773418 -7.063467503 0.3173226714
4.904607296 -9.256062508 0.4887174666
8.484620094 -15.33000469 0.8554987311
5.936402798 -10.91932583 1.64857769
5.823611259 -10.71650982 2.033133745
5.694863796 -10.48340702 2.399374485
5.654025078 -10.40229607 2.782381296
5.764576912 -10.57519817 3.227962255
6.28151083 -11.42833805 3.895681858
6.026380539 -10.98269749 4.205802441
3.612384319 -7.112276554 0.3152067661
4.880494118 -9.281772614 0.4892782569
8.404001236 -15.30768299 0.8567506671
6.127225399 -11.34149551 1.259883642
5.89829874 -10.93477917 1.649181724
5.725656033 -10.6287775 2.020478964
5.678639412 -10.53653526 2.405870199
5.598610878 -10.38459969 2.775560379
5.718586445 -10.57496452 3.223891497
6.170345783 -11.32494545 3.859906912
5.989816666 -11.00187588 4.20630312
3.589749575 -7.123132229 0.3159795403
4.851722717 -9.296183586 0.4901629686
8.330640793 -15.29710007 0.8580471873
6.042247772 -11.27538586 1.257007241
5.859144211 -10.94837093 1.649634004
5.702581882 -10.66752911 2.023882389
5.729458332 -10.69704914 2.430610657
5.624958038 -10.50589085 2.797878504
5.68228817 -10.58702946 3.223155022
6.157046795 -11.38199615 3.871763229
6.285223007 -11.58528996 4.397501469
3.518507004 -7.049033642 0.3231623769
4.822443008 -9.313069344 0.4910268784
8.206683159 -15.19771957 0.8588898182
5.921985149 -11.15102959 1.251500845
5.811981201 -10.94799805 1.648897529
5.61822176 -10.59687805 2.0135324
5.748715401 -10.8093586 2.447111368
5.638653755 -10.60706234 2.815947056
5.652131081 -10.61345291 3.225857496
6.144507408 -11.44516373 3.885154486
6.193318367 -11.51413727 4.367286205
3.521723986 -7.1046772 0.3205241561
4.777804852 -9.306360245 0.4927846789
8.138934135 -15.19497776 0.8601962328
5.905021191 -11.2045536 1.254047155
5.779779911 -10.97337055 1.650376797
5.614222527 -10.67250538 2.021548271
5.725779533 -10.8498764 2.451576948
5.634022236 -10.67774963 2.827624321
5.612327099 -10.62722206 3.225214481
5.977463245 -11.245924 3.821323156
6.002907276 -11.27131844 4.279410839
3.471712828 -7.066516399 0.3249404728
4.739648342 -9.307317734 0.4941880703
8.149447441 -15.33615208 0.8623033762
5.855341434 -11.20524502 1.254210353
5.664825916 -10.85749149 1.639738441
5.572088242 -10.6781683 2.020807266
5.687148571 -10.86727524 2.452075005
5.564736843 -10.64014053 2.816574097
6.093671799 -11.54732418 3.45161128
5.872560501 -11.147192 3.787425995
5.931977749 -11.2364769 4.261500359
3.447318077 -7.073380947 0.3259558082
4.737652779 -9.372663498 0.4933429956
5.94332695 -11.5150423 0.8434943557
5.783002377 -11.16117668 1.252341866
5.620160103 -10.85979271 1.639267683
5.475196362 -10.58673477 2.007848978
5.411333561 -10.46154785 2.382128954
5.490720749 -10.58921623 2.802965164
6.060059547 -11.57521343 3.45439887
5.793341637 -11.09166718 3.766308308
5.872707844 -11.21692562 4.249120712
3.431619167 -7.095863342 0.3257968724
4.695499897 -9.366425514 0.494982928
5.912083149 -11.54620171 0.8446219563
5.749073505 -11.18476009 1.253539681
5.60088253 -10.90714931 1.64265728
5.508335114 -10.72537899 2.023890495
5.361304283 -10.45096588 2.378213167
5.313932896 -10.35434246 2.751207352
5.935221672 -11.44122219 3.416826725
5.764091492 -11.1235199 3.770795822
5.823090076 -11.21380615 4.242331505
3.448490143 -7.177777767 0.32121858
4.665971756 -9.382767677 0.495832473
5.911579132 -11.63332558 0.8460534811
5.679190159 -11.14356804 1.251804113
5.573591709 -10.94054508 1.64485836
5.447802544 -10.69757748 2.018985987
5.327780247 -10.46954918 2.379178524
5.311383247 -10.42774487 2.763572931
5.886694431 -11.44128418 3.412794113
5.748890877 -11.1806612 3.78267622
5.719147682 -11.11331654 4.203037739
3.430584192 -7.194447994 0.3214240968
4.632120132 -9.387670517 0.4969976544
5.680689335 -11.22260761 1.255507112
5.541962147 -10.9579649 1.645765662
5.316977501 -10.53358364 1.997141242
5.277451038 -10.44979763 2.374000788
5.463258266 -10.77317619 2.832566261
5.894087315 -11.53755665 3.432935238
5.902562141 -11.53409481 3.881241322
5.809858799 -11.35259724 4.277941704
3.383841038 -7.163098335 0.3253211379
4.592477798 -9.38876915 0.4984222651
5.826034546 -11.65043163 0.8480132222
5.649494648 -11.25560665 1.257146358
5.486817837 -10.9449091 1.643985391
5.308245182 -10.60177422 2.004277945
5.208967209 -10.40825176 2.364925146
5.213843822 -10.40484715 2.753306389
5.883955479 -11.6120615 3.447240591
5.758553505 -11.36533546 3.827116013
3.36297226 -7.176641941 0.3258100748
4.565707684 -9.410037041 0.4990820885
5.734553814 -11.57479858 0.8485762477
5.600068092 -11.25511932 1.257269502
5.421401501 -10.91229057 1.640550733
5.231767654 -10.54596806 1.995877743
5.157870293 -10.39763737 2.361020088
5.156208038 -10.38230991 2.745731354
5.840650082 -11.62212372 3.445756197
5.698487759 -11.3470993 3.816864014
5.800438404 -11.51926517 4.321641922
3.350477457 -7.20597887 0.3251340091
4.525704861 -9.406508446 0.5005739927
5.67940712 -11.561203 0.8494324088
5.553469658 -11.25520325 1.257413745
5.380692482 -10.92056751 1.640643239
5.21774292 -10.60087585 2.001433611
5.128294468 -10.42247963 2.363114357
5.138765335 -10.4296093 2.752744675
5.836360931 -11.70422554 3.46214509
5.716088772 -11.46737099 3.847025156
5.709026814 -11.4397049 4.289601326
3.300600529 -7.164678097 0.3296239078
4.494170666 -9.418721199 0.501525104
5.653392315 -11.60216713 0.8506012559
5.521016598 -11.28155518 1.258752227
5.269674301 -10.79666138 1.62949729
5.239880562 -10.72421074 2.015545607
5.158278942 -10.55895615 2.383671999
5.118272781 -10.47169304 2.758688211
5.835261822 -11.79331303 3.480245829
5.717342377 -11.55885601 3.868808031
5.609152794 -11.34273529 4.251926422
3.298195839 -7.213318348 0.3275254667
4.45241642 -9.411333084 0.5031242371
5.456382751 -11.31711292 0.8498235941
5.162383556 -10.67739487 1.618770003
5.132014751 -10.6035614 1.999171972
5.050273895 -10.43692112 2.361524582
5.101236343 -10.52070332 2.766063929
5.025900841 -10.36219978 3.123034477
5.689804554 -11.597435 3.875289679
5.382780075 -11.00631618 4.135085106
3.271615505 -7.215945244 0.3287803829
4.420890331 -9.423276901 0.5040668845
5.409869671 -11.31655979 0.8507150412
5.086526871 -10.61580658 1.612966895
5.098924637 -10.62312126 2.000337839
4.930311203 -10.28972054 2.335302353
5.04544735 -10.49656582 2.758417606
5.011736393 -10.41588879 3.132909298
5.650304794 -11.61367035 3.875347853
5.361470699 -11.05206108 4.145057678
3.251443863 -7.230888367 0.329131335
4.385677338 -9.427993774 0.5052415729
5.367087841 -11.32291889 0.8516431451
5.480002403 -11.46999073 1.26775372
5.066303253 -10.66000938 1.616162896
5.074933052 -10.66020393 2.003698826
4.894619465 -10.30153561 2.335346699
5.042660236 -10.57335281 2.771518946
5.010825634 -10.49557304 3.149183273
5.634118557 -11.67440796 3.88825345
5.334560394 -11.08757687 4.151662827
3.220334768 -7.224427223 0.3310222626
4.352306366 -9.436128616 0.5062940121
5.367070675 -11.41282749 0.8530873656
5.436649323 -11.4765873 1.268206835
5.027576447 -10.66872406 1.616351485
4.9897089 -10.57885838 1.992322922
4.875247478 -10.34487057 2.340592623
4.969813347 -10.51564789 2.757056475
5.606047153 -11.72749615 3.448678017
5.461451054 -11.4341011 3.8146348
5.311893463 -11.13154316 4.161077023
3.203707933 -7.246330738 0.3308555186
4.32433939 -9.45484066 0.5069913864
5.329460621 -11.42969894 0.8540797234
5.351576328 -11.40110683 1.264930606
4.97524786 -10.65064621 1.614276052
4.842683792 -10.37491035 1.965735912
4.828575134 -10.33533573 2.337159872
4.764613628 -10.19839478 2.68955493
5.567955971 -11.74688244 3.449720383
5.397762299 -11.40126705 3.800811291
5.223963737 -11.04919243 4.128908634
3.183390617 -7.261057377 0.3312012553
4.290928841 -9.46273613 0.5080367327
5.381499767 -11.62518787 0.8562123179
5.225637913 -11.24312019 1.257901669
4.95731926 -10.69994259 1.617921114
4.763648033 -10.30127144 1.955405831
4.808895111 -10.37853527 2.342405081
4.737288475 -10.22541237 2.692595482
5.624628067 -11.95246029 3.496433258
5.369565487 -11.43718147 3.806765795
5.229180813 -11.14757252 4.156301498
3.168333054 -7.286446095 0.3307781816
4.260175705 -9.475873947 0.5089036226
5.295947075 -11.5472002 0.8565991521
5.120555878 -11.12369347 1.252624393
4.924806595 -10.7207098 1.619153619
4.698569775 -10.25384426 1.948362708
4.738284111 -10.32094193 2.331139088
4.710716724 -10.25410748 2.695993185
5.639438629 -12.07831478 3.523534775
5.326325417 -11.44362354 3.804305792
5.195630074 -11.17075729 4.158966541
3.152261972 -7.310012341 0.3304832578
4.229382992 -9.488903046 0.5097674131
5.21630764 -11.47951317 0.8570352197
4.86350441 -10.69581509 1.233307838
4.798976421 -10.55386925 1.604514003
4.711867332 -10.36265945 1.96072042
4.754677773 -10.4365263 2.348263502
4.676978588 -10.26864624 2.69652009
5.583501816 -12.06461239 3.516478062
5.26055479 -11.40484428 3.788967609
5.150794983 -11.17153263 4.154317379
3.090571404 -7.240259647 0.3368236125
4.195924759 -9.496430397 0.5108016729
5.115247726 -11.36647892 0.8571531177
4.874265194 -10.80414391 1.238390684
4.822497368 -10.68678951 1.61525631
4.699824333 -10.42176914 1.966909885
4.703682899 -10.41751289 2.343360424
4.671116352 -10.33949566 2.708529472
4.579102516 -10.13740826 3.042314529
5.252845764 -11.4820261 3.806798458
5.076119423 -11.11197186 4.129971027
3.079782009 -7.274382114 0.3357562423
4.161590099 -9.502031326 0.5118896365
5.066579342 -11.35457325 0.8578848243
4.82561779 -10.79233742 1.238007665
4.82060051 -10.76539898 1.621427178
4.703147411 -10.51305103 1.977082014
4.584957123 -10.25965786 2.315812111
4.603199005 -10.28067303 2.694289207
4.514728546 -10.08835793 3.027363062
5.209729671 -11.48361874 3.80328393
5.476420403 -12.00994873 4.419009686
3.063869238 -7.295370102 0.3355524838
4.120987415 -9.490551949 0.5134512782
5.044899464 -11.39834404 0.8589886427
4.802339554 -10.82804489 1.23978281
4.69908762 -10.59824085 1.606833696
4.732756615 -10.65551186 1.993632674
4.562403202 -10.29254436 2.319544554
4.559839249 -10.27103901 2.690091372
4.450641632 -10.03469276 3.011498928
5.422535419 -12.00914478 3.948934555
5.41559124 -11.97962666 4.40423584
3.042708874 -7.30550766 0.3361115754
4.084796429 -9.487925529 0.5147192478
5.01856041 -11.43754482 0.8601053953
4.867899418 -11.04928684 1.250015497
4.678953648 -10.64330482 1.61016047
4.723544598 -10.71946144 2.000466347
4.604095936 -10.45908546 2.345066071
4.578204632 -10.39313602 2.712525129
5.299041271 -11.86821556 3.454679251
5.126852989 -11.49764919 3.799260616
5.309565544 -11.86014748 4.36022234
3.02209878 -7.319713116 0.3364441395
4.072753906 -9.540107727 0.5143045783
5.024452209 -11.54541588 0.8617013097
4.815264702 -11.03009319 1.249304295
4.625138283 -10.6181221 1.607563019
4.713093758 -10.78606606 2.007572412
4.602096558 -10.54109955 2.35670352
4.607643604 -10.54032612 2.740009308
5.254547596 -11.87419796 3.452697515
5.069415569 -11.47342396 3.788339376
5.311617851 -11.96323013 4.388834953
2.972467899 -7.274683475 0.340987891
4.051934242 -9.574196815 0.5144646764
5.035589695 -11.66613388 0.8633995056
4.76877594 -11.02331257 1.249160528
4.580060005 -10.61072063 1.606476307
4.514543056 -10.45555496 1.96570766
4.56742382 -10.55524445 2.357297897
5.287982464 -12.04414082 3.49052763
5.042982101 -11.51367664 3.795761347
5.16622591 -11.75801659 4.317177773
2.951102018 -7.286845207 0.3414388597
4.018489361 -9.585364342 0.5154043436
5.036687374 -11.76710033 0.8649710417
4.767203331 -11.1122942 1.253386974
4.580694199 -10.70067692 1.613605618
4.427135468 -10.36036587 1.952872634
4.551183224 -10.60868168 2.364290953
4.49971962 -10.48660469 2.724503279
5.244328499 -12.05802059 3.49031353
5.200117111 -11.94915771 3.914886475
4.983058929 -11.46862316 4.218426228
2.932184458 -7.304377556 0.3415086567
3.980703831 -9.582986832 0.5166980624
5.016275883 -11.8227663 0.8662269115
4.685259819 -11.03354263 1.249972105
4.600875378 -10.83417988 1.624403954
4.395657063 -10.37931252 1.954175234
4.527083874 -10.65034676 2.369293928
4.450276852 -10.46827602 2.718533993
5.077217102 -11.80165768 3.424913883
5.086676121 -11.80732918 3.870720625
5.009962559 -11.62314892 4.263922215
2.916476727 -7.329127789 0.3410726488
3.954418659 -9.601603508 0.5172686577
4.725458622 -11.28500652 0.8631673455
4.643276691 -11.0308342 1.250010848
4.531163692 -10.77401829 1.618890762
4.340860367 -10.34758568 1.949256301
4.50451088 -10.68680668 2.373626947
4.432312489 -10.5176115 2.726243496
5.027418137 -11.77477264 3.857755899
4.996331215 -11.69266415 4.281810284
2.881288052 -7.307828426 0.3437616825
3.92161274 -9.609887123 0.5182147622
4.69959116 -11.24890518 1.260142922
4.475212097 -10.7381258 1.615455389
4.325063229 -10.396245 1.95428586
4.595806122 -10.97783184 2.419106007
5.009697914 -11.85173035 3.43069458
5.051246166 -11.92774582 3.896982908
4.925758839 -11.63404274 4.25848341
2.863847256 -7.32879734 0.3435745537
3.87238884 -9.577206612 0.5203557611
4.697947502 -11.41367912 0.8656926751
4.477369785 -10.84713936 1.241957068
4.376040936 -10.61002445 1.604252696
4.308135986 -10.44746304 1.959583402
4.52879858 -10.91902733 2.408004999
4.925505161 -11.76320839 3.406319141
5.050393105 -12.02368832 3.920281172
4.878376961 -11.6300621 4.252676964
2.84839344 -7.357525826 0.3429125845
3.830211878 -9.571899414 0.5218159556
4.68206501 -11.48202229 0.8670535088
4.453753948 -10.89708424 1.244430423
4.336289406 -10.61685276 1.604393244
4.66876173 -11.34865761 2.069103241
4.452954769 -10.85318375 2.395561934
4.265610695 -10.4178381 2.699614763
5.013858795 -12.072402 3.477331161
5.085128307 -12.21601486 3.970081806
2.811515808 -7.334519386 0.3457410336
3.801486492 -9.58455658 0.5225399733
4.690888405 -11.60269451 0.868776381
4.444774628 -10.96660995 1.24777627
4.30228281 -10.63188744 1.605252028
4.621684074 -11.34120464 2.067131758
4.426195145 -10.88229752 2.398734808
4.243350983 -10.45775795 2.705509901
4.972555637 -12.07993412 3.476126194
4.753243446 -11.57262993 3.785588026
5.348664761 -12.89273167 4.65033865
2.7891047 -7.344306946 0.346303165
3.778358221 -9.614283562 0.5227977037
4.667058468 -11.650177 0.8699519634
4.409582138 -10.98203754 1.248660922
4.283420086 -10.68151188 1.609022856
4.610086441 -11.40919781 2.074468851
4.377641678 -10.86682129 2.394647837
4.224832535 -10.50663662 2.713211298
4.911962032 -12.04884624 3.465517759
4.847829342 -11.8885479 3.87057972
4.978357792 -12.16882038 4.412557125
2.760366201 -7.339339733 0.3478657305
3.738564014 -9.609705925 0.5241492987
4.632681847 -11.67374229 0.8709447384
4.432336807 -11.13118839 1.255666614
4.272208691 -10.74941158 1.61433208
4.622890949 -11.54445267 2.089935064
4.333987236 -10.86201477 2.392305613
4.1698699 -10.47255135 2.704302073
4.856730461 -12.03442669 3.458812237
4.667600155 -11.58657932 3.782043219
4.940163136 -12.18949127 4.414677143
2.733262777 -7.33792305 0.3491731584
3.71131897 -9.630066872 0.5246811509
4.507293224 -11.4837532 0.8702675104
4.379817486 -11.11244297 1.255003333
4.210180283 -10.70009995 1.609808087
4.546319485 -11.46917725 2.079699755
4.347386837 -10.99404907 2.411934614
4.110527039 -10.4273634 2.693213224
4.955476284 -12.37036133 3.536279678
4.648435593 -11.64534473 3.794920206
2.706970215 -7.338236809 0.3503518105
3.684729576 -9.647854805 0.5252290368
4.488215446 -11.54179287 0.8715134859
4.321670532 -11.06987762 1.253231645
4.18681097 -10.74038601 1.612810969
3.977952957 -10.23793888 1.928259254
4.342483997 -11.07566643 2.423592329
4.075511932 -10.43795204 2.693316936
4.594264507 -11.63246727 3.356668711
4.751402855 -11.98460293 3.886406898
4.852917671 -12.20576763 4.410996914
2.692991495 -7.367927551 0.3495292366
3.648067951 -9.645905495 0.5264189243
4.438728333 -11.52785587 0.8721901774
4.294650078 -11.10513306 1.255034685
4.146177769 -10.74019718 1.612425685
3.976245403 -10.32060528 1.937518239
4.275204182 -11.01597309 2.412466288
4.614468575 -11.78499508 3.390279531
4.76157093 -12.11688328 3.919732332
4.671937466 -11.89056873 4.305707932
2.675029993 -7.388373852 0.3493314683
3.625197887 -9.681396484 0.5265416503
4.416142941 -11.57838821 0.8733782172
4.265124321 -11.13479042 1.256584406
4.099449635 -10.72512817 1.610800982
4.342329502 -11.294137 2.055366755
4.225197792 -10.99608803 2.407768488
4.95202589 -12.71731949 3.143942118
4.822179317 -12.39244938 3.532371998
4.72084856 -12.13590527 3.921242952
4.704645634 -12.0763998 4.360931873
2.6652596 -7.429100513 0.3477636874
3.608948469 -9.729162216 0.5262444019
4.367146969 -11.57042789 0.8741334677
4.220701218 -11.13369942 1.256736755
4.070196152 -10.7566309 1.613069057
4.304390907 -11.30549908 2.055804968
4.176650524 -10.9840126 2.404276609
4.094508171 -10.77306271 2.754091978
4.745787144 -12.3225193 3.512696266
4.636632919 -12.04488564 3.892307758
4.557750702 -11.84018898 4.281061649
2.633543968 -7.416168213 0.3498057723
3.576661587 -9.738001823 0.5270975232
4.4365592 -11.84879303 0.8771870732
4.181909084 -11.14094353 1.25726366
4.050038338 -10.80580521 1.616840243
4.31765604 -11.44178104 2.071472645
4.142772675 -11.00212002 2.405718803
4.0516119 -10.76719379 2.750946999
4.627582073 -12.14924812 3.468462467
4.600341797 -12.06803322 3.895249128
4.451139927 -11.69096279 4.229381561
2.598981142 -7.395682812 0.3523389399
3.541382074 -9.739300728 0.5281649828
4.533874035 -12.20201206 0.8808942437
4.340866566 -11.63709641 1.280228376
4.021359444 -10.83462715 1.618912339
4.293413639 -11.48803902 2.076172829
4.133387566 -11.08060169 2.416840076
4.011024952 -10.76661587 2.748882294
4.576971054 -12.13808537 3.462953329
4.604904175 -12.1914959 3.926108122
4.398589611 -11.67077065 4.218977928
2.579304457 -7.412148952 0.3523836732
3.522351503 -9.781346321 0.5280325413
4.471525669 -12.16013908 0.8813571334
4.303331375 -11.65215588 1.28112781
3.965076208 -10.7948904 1.615254521
4.239280224 -11.4604845 2.071901321
4.101359844 -11.10407448 2.419162512
3.97784543 -10.7841177 2.750435829
4.481202602 -12.01440907 3.430724621
4.562977314 -12.20197773 3.925562143
4.33472538 -11.62189579 4.199508667
2.560995817 -7.432275772 0.3521797359
3.482614756 -9.771260262 0.5294189453
4.398309708 -12.08369637 0.8814790249
4.235569 -11.59092045 1.278525352
3.908640623 -10.74863911 1.611078382
3.878575563 -10.66070175 1.973784208
4.0779953 -11.14950466 2.425007582
3.952147007 -10.81544495 2.754845858
4.568824291 -12.3472929 3.507075548
4.395937443 -11.89938354 3.838207483
4.278131485 -11.58443642 4.183943272
2.54257822 -7.452353477 0.3519755006
3.445259333 -9.762265205 0.5307082534
4.485510349 -12.42324924 0.88514781
3.926343679 -10.90735149 1.247317553
3.893864155 -10.81228924 1.616084099
3.841463327 -10.66672993 1.973695755
4.115650654 -11.3451128 2.454907417
3.905767679 -10.79982376 2.749866962
4.397035122 -12.02445316 3.427791119
4.347736835 -11.88496685 3.831093311
4.31964016 -11.7988739 4.248259068
2.524055004 -7.472381115 0.351770848
3.427278519 -9.807826996 0.5304656625
4.476919651 -12.52093601 0.8867948055
3.886296511 -10.90793324 1.247543335
3.86350894 -10.83693314 1.617833614
4.137190819 -11.52191925 2.076738596
4.0330019 -11.24138641 2.43695426
3.87028861 -10.81147671 2.750322342
4.320202351 -11.94323063 3.405854464
4.297045231 -11.86929321 3.823517323
4.22306633 -11.66553783 4.202147484
2.494779825 -7.464372158 0.3534177542
3.398931503 -9.831543922 0.5309064388
4.325184822 -12.24496365 0.8852345943
3.892181635 -11.02772331 1.253252864
3.841622591 -10.88381386 1.621447206
4.087396145 -11.50913239 2.074280262
3.994585037 -11.24979305 2.436921835
4.261805058 -11.91334057 3.396023273
4.364269733 -12.16292477 3.901361227
4.196918488 -11.71046448 4.212666512
2.468405485 -7.463709831 0.3545664847
3.368488789 -9.845229149 0.5315776467
4.197501183 -12.0324297 0.8842200637
4.017614841 -11.46960354 1.273798227
3.830474377 -10.96487045 1.627904415
3.739373922 -10.70811272 1.976329565
3.9374125 -11.21438885 2.429863453
4.562296867 -12.83564568 3.146756172
4.202118874 -11.87332821 3.383977175
4.323923111 -12.17615032 3.901784182
4.198158264 -11.83305454 4.247602463
2.455296516 -7.49848938 0.3533715904
3.332411051 -9.843820572 0.5326732993
4.102698803 -11.89710426 0.8838075399
3.973636389 -11.46483326 1.273794413
3.807900429 -11.01172733 1.63152492
3.702907085 -10.71547413 1.976450443
3.887245178 -11.19098759 2.424812555
3.763967276 -10.85185814 2.75279808
4.125464439 -11.78738499 3.361125708
4.64633894 -13.14522362 4.165999889
4.143947601 -11.80626106 4.235455036
2.432314396 -7.507032871 0.3539008498
3.311595678 -9.883541107 0.5325923562
4.059990883 -11.8937521 0.8844977617
3.947160244 -11.50670242 1.275940061
3.806336403 -11.11019802 1.639471769
3.897188902 -11.34080029 2.051398754
3.849070311 -11.19886208 2.424760342
3.74731493 -10.90840816 2.762285709
4.101581097 -11.84000587 3.371076345
4.6264925 -13.21662807 4.182435036
4.095265388 -11.78749371 4.226088524
2.410457134 -7.515073776 0.3544015586
3.292120695 -9.922649384 0.5324768424
4.011851311 -11.87521458 0.8850488067
3.903653622 -11.49720955 1.275711775
3.810363293 -11.22560692 1.648833394
3.683336735 -10.86896324 1.993555546
3.804456234 -11.18367195 2.42112565
3.694102049 -10.86722088 2.752506495
4.019509315 -11.73078346 3.342967987
4.603525639 -13.28077221 4.196875095
4.078887463 -11.85479641 4.243937969
2.384032011 -7.514070988 0.3555400968
3.228752851 -9.845704079 0.5356827974
3.942929029 -11.80450726 0.885163784
3.860248327 -11.48754501 1.275477052
3.78038168 -11.25566101 1.651063919
3.624896049 -10.81201935 1.985962391
3.76202178 -11.17387486 2.418368101
3.638786554 -10.82457733 2.742391586
3.978729725 -11.73730755 3.342106819
4.566625118 -13.31479549 4.202868462
4.120490074 -12.08657646 4.313461781
2.361857176 -7.528418541 0.355720371
3.185244322 -9.827354431 0.5372695327
3.900263309 -11.81133938 0.8860007524
3.935240746 -11.81738091 1.290920734
3.734884739 -11.24877262 1.65020752
3.636414289 -10.9578619 2.00282383
3.442007065 -10.40819836 2.295600176
3.698038578 -11.1021471 2.795259476
3.943383455 -11.76455116 3.346039534
4.502193451 -13.28034496 4.189902306
4.074491978 -12.08883476 4.310426712
2.340932846 -7.546458244 0.3556543887
3.156545162 -9.850286484 0.5376895666
6.962862492 -20.60511971 0.9667122364
3.900540113 -11.8467598 1.292519927
3.686134338 -11.23230362 1.648561358
3.624834776 -11.04217148 2.012246132
3.708848476 -11.25068665 2.822683334
3.889421701 -11.74022007 3.337861061
4.059067726 -12.17571259 4.334063053
2.318598509 -7.56066227 0.3558320403
3.134965181 -9.893892288 0.5375304818
4.055635929 -12.51365376 0.8939720392
3.858374596 -11.85529804 1.293160677
3.884264469 -11.91509819 1.705185652
3.570308685 -11.00661659 2.007203341
3.406887293 -10.53186893 2.312829733
3.668055296 -11.25670338 2.822081804
3.846779585 -11.74693012 3.337026596
4.015395641 -12.18494225 4.333293915
2.291218519 -7.549050808 0.3575181067
3.114566565 -9.926381111 0.5375304818
6.577680588 -19.92620468 0.9630160332
3.818049908 -11.85668755 1.293449998
3.828545094 -11.86696911 1.700942159
3.539953232 -11.02772713 2.00908494
3.661686897 -11.36265373 2.443268299
3.627516031 -11.24582672 2.818438768
3.996168375 -12.24439335 4.348855495
2.272440672 -7.566071987 0.357395798
3.080796242 -9.925308228 0.5385059714
6.334634304 -19.42183876 0.9595298171
3.767342091 -11.82770538 1.292337894
3.835050821 -12.0039463 1.712109327
3.521837711 -11.08442879 2.015266895
3.776352644 -11.80643463 2.512332916
3.593003511 -11.25771523 2.819203854
4.183734894 -12.94441319 3.613909721
3.946191788 -12.22303581 4.338903904
2.25368762 -7.587218761 0.3570546806
3.040371656 -9.909491539 0.5399284959
6.747880936 -20.8571434 0.9741677046
3.712347746 -11.78527069 1.290604711
3.728528738 -11.8191061 1.696473718
3.781281948 -11.9533329 2.11932683
3.748983145 -11.84502316 2.517275333
4.123237133 -12.92186165 3.143790722
3.853412867 -12.12043953 3.418247938
3.915655613 -12.26378632 4.348304749
2.23617363 -7.616281033 0.3562521636
3.009916067 -9.928164482 0.540443182
6.656976223 -20.82860374 0.9752694368
3.700472593 -11.88208771 1.295334697
3.635499954 -11.67585182 1.68430388
3.7145257 -11.88987541 2.110924006
3.710577488 -11.86423206 2.51904726
4.084590435 -12.95354748 3.148045301
3.81324029 -12.13806915 3.420021772
2.210909128 -7.618370533 0.3571264446
2.972800255 -9.921530724 0.5415949225
6.487060547 -20.54785156 0.9739029408
3.781986237 -12.26142979 1.31314218
3.621767521 -11.76030636 1.691107273
3.672211885 -11.8976984 2.111125469
3.660162449 -11.84766388 2.515190601
3.671202421 -11.86007786 2.9322083
3.769383192 -12.13824177 3.417849302
3.856078148 -12.3743782 3.920528889
2.188068867 -7.623777866 0.3577293754
2.960881948 -9.986471176 0.5407442451
6.448591232 -20.65098381 0.9760940075
3.797998667 -12.4370985 1.321515918
3.595036745 -11.80061722 1.694253564
3.62688303 -11.88334465 2.108741283
3.777080059 -12.32351494 2.589144945
3.608043194 -11.79184055 2.917303562
3.722013235 -12.120924 3.41172719
3.825642824 -12.41086292 3.927877188
2.164650917 -7.631387711 0.3582340479
2.920359135 -9.963891983 0.5422683954
6.447805882 -20.88461494 0.9796087742
3.793097258 -12.55219746 1.327094197
3.53031826 -11.73154736 1.688297868
3.589715242 -11.89336586 2.109302998
3.434089184 -11.40344429 2.442979336
3.542874336 -11.72205162 2.902059793
3.676620483 -12.10898304 3.40689826
3.786333561 -12.42769241 3.929752588
2.149067402 -7.663649082 0.3571619689
2.887170553 -9.974539757 0.5429793
6.069422722 -19.9390316 0.9717401266
3.734627247 -12.51017761 1.325413227
3.472851753 -11.6830349 1.684061885
3.556596994 -11.92907906 2.112898111
3.68734479 -12.31304836 2.585193157
3.496399641 -11.7080698 2.897759438
3.653295517 -12.1779871 3.420796871
3.978525877 -13.16509819 4.12779665
2.132690668 -7.69397831 0.3562121987
2.83934021 -9.933069229 0.5450362563
6.532893181 -21.642519 0.9895359278
3.693829536 -12.5294714 1.326588035
3.44358778 -11.72164631 1.687078357
3.516749859 -11.93758202 2.11326766
3.401211023 -11.5613842 2.465656042
3.481196642 -11.79129028 2.912456512
3.908280849 -13.11097527 3.636408567
2.10666275 -7.693768501 0.3571968377
2.821876049 -9.982534409 0.5445969701
6.351140022 -21.31380844 0.9876257777
3.64683795 -12.51494122 1.326170087
3.390175343 -11.68410683 1.683771729
3.472714663 -11.93267155 2.112039566
3.498367548 -11.99317074 2.532588243
3.455982685 -11.84453487 2.921310425
3.876329184 -13.15167522 3.643782616
3.523522377 -12.02153015 3.811395884
2.077751398 -7.679732323 0.3589980602
2.790795565 -9.994245529 0.5452129245
6.165896416 -20.96496773 0.9854681492
3.605647326 -12.52566338 1.326938748
3.354216814 -11.70154476 1.68504262
3.439537764 -11.95545578 2.114180326
3.417101622 -11.86927891 2.512031078
3.409350157 -11.83016396 2.916999817
3.831516981 -13.15941906 3.643387556
3.48321557 -12.02994061 3.811216354
2.05472064 -7.688867569 0.3593721092
2.756182432 -9.994368553 0.5461310148
6.153931141 -21.17771912 0.9888333678
3.575552225 -12.57253647 1.329388022
3.315833569 -11.71124077 1.685677409
3.604526997 -12.63019276 2.194508553
3.610732794 -12.63531017 2.631358624
3.377341032 -11.86257648 2.921828508
3.796476364 -13.19871521 3.650370121
3.469201565 -12.12328625 3.834131002
2.040179968 -7.730797768 0.357721746
2.737091303 -10.04607487 0.5456761718
6.076814651 -21.17798615 0.9900960326
3.640425444 -12.91907215 1.785847545
3.570944071 -12.66735554 2.198328972
3.569570541 -12.64776421 2.632216692
3.527738094 -12.49495506 3.043418884
3.752095938 -13.20803738 3.650401592
3.453437328 -12.21296501 3.856049061
2.006226063 -7.703423023 0.3603791893
2.682078123 -9.983186722 0.5482894778
6.022479057 -21.25466537 0.9921191931
3.484673262 -12.55155468 1.755150199
3.603406191 -12.91012287 2.67231679
3.486455202 -12.50522232 3.043896198
3.703288794 -13.21036148 3.648734808
3.392640352 -12.16238976 3.839831591
1.989228964 -7.733399868 0.3594253063
2.662724972 -10.03472519 0.5478322506
6.183237076 -22.08289146 1.001808167
3.435094595 -12.54125404 1.754127264
3.299901485 -12.06179905 2.124522686
3.449124813 -12.55147266 2.614924669
3.445346117 -12.5234766 3.045876026
3.738944769 -13.48882961 3.711351871
3.348029137 -12.15733814 3.836123943
1.959921241 -7.72112608 0.3611121774
2.620918751 -10.00938416 0.5493883491
6.112054825 -22.11392975 1.003417492
3.461832523 -12.78473568 1.774191737
3.263025045 -12.08082008 2.126237392
3.461526632 -12.7456007 2.644331217
3.305131197 -12.15768623 3.833918095
1.932351112 -7.714495182 0.362434566
2.596805334 -10.0454073 0.5493324399
5.998460293 -21.98210335 1.003292561
3.415714979 -12.77311516 1.773088098
3.223860502 -12.09208202 2.127035141
3.391474724 -12.65872097 2.6296947
3.604302168 -13.37187576 3.207691431
3.653100252 -13.52375507 3.715333462
3.26874876 -12.1801815 3.837740183
