# .PCD v0.7 - Point Cloud Data file format
VERSION 0.7
FIELDS x y z
SIZE 4 4 4
TYPE F F F
COUNT 1 1 1
WIDTH 1316
HEIGHT 1
VIEWPOINT 0 0 0 1 0 0 0
POINTS 1316
DATA ascii
33.81463242 39.73044205 7.461987019
33.80201721 39.73504639 9.344960213
28.35992813 33.19746399 9.5663414
34.04742813 39.69244385 1.895781517
28.2282753 32.77454376 4.785368919
34.03065109 39.70220566 7.478911877
34.02631378 39.71709442 9.368197441
28.48027992 33.1016655 9.568911552
34.2493515 39.64525986 1.899916291
32.06829834 37.08145523 3.567314148
28.36441612 32.69885635 4.789883137
29.92234421 34.54934692 6.648777962
29.36499214 33.9064827 8.164123535
28.61293983 33.02044296 9.575383186
31.83144569 36.54644775 6.999264717
29.4918251 33.81163406 8.167597771
32.59168625 37.16035461 3.593797445
36.65691757 41.91431427 5.922522068
31.6850872 36.11283875 6.947626114
29.69665718 33.80783081 8.190608025
28.91840935 32.90416336 9.600819588
36.79312897 41.75889969 1.97513938
32.6692009 36.98302078 3.591201544
36.79249573 41.7712822 5.923073292
30.36918449 34.33942413 6.671030998
29.92112923 33.82546234 8.218448639
33.51929855 38.00876617 10.96405506
36.72525024 41.38124847 1.970557809
32.87418365 36.95335388 3.599593163
36.79740906 41.49287033 5.906452179
31.67994308 35.60318375 6.902431965
33.64700699 37.89784241 10.96611977
36.75525665 41.11895752 1.969186425
33.81960678 37.78937531 5.475674629
32.20074463 35.94389343 6.980329514
33.78105545 37.78061676 10.96831131
36.74554443 40.81346893 1.966590881
32.66419983 36.20620728 5.299738407
31.95875549 35.41152954 6.911603451
32.41026688 35.94464493 8.748842239
33.88875961 37.63347244 10.96274281
34.43677139 38.26529694 13.03468895
36.61018372 40.3833046 1.960136056
33.8068924 37.2289505 3.652218342
36.65079117 40.44429398 5.832959652
32.10722733 35.33832169 6.919128418
34.53931046 38.12223816 13.02769375
36.59669495 40.07939529 1.957533121
36.69692612 40.22174072 5.822887897
33.44274902 36.58250427 7.151495457
34.96925354 38.3333931 13.13425922
36.52538681 39.71363831 1.953138351
34.13185883 37.08042908 5.455046177
33.71052933 36.61935043 7.179866314
33.29691696 36.18001556 8.879552841
34.69622421 37.75665665 12.99293423
36.71908188 39.64380646 1.957243919
36.72650528 39.67445755 3.8712883
34.3465004 37.05286407 5.468616009
32.73032761 35.27470016 6.972334862
34.81386948 37.61852264 12.98975563
36.93935013 39.61650467 1.962324381
36.95359039 39.64065933 3.88095665
37.02437592 39.7270813 5.816777229
33.37311554 35.74128723 7.07305336
32.70243835 35.013237 8.67875576
33.83727264 36.28159714 10.76745892
34.86407089 37.41986847 12.9654274
37.16930008 39.59850311 1.967734814
37.20084381 39.64165878 3.892785549
37.18387985 39.63223267 5.822608948
32.89973831 34.98282242 6.963681221
33.5834465 35.73737717 8.86434269
34.86076355 37.16384506 12.9227972
37.39955139 39.57940292 1.973176599
37.51893997 39.71775818 3.910511732
37.43235397 39.63332367 5.840499878
32.93575668 34.78488922 6.950434208
33.88056183 35.81767654 8.908855438
34.78883362 36.83527756 12.85681915
37.6327858 39.56216812 1.978735089
37.65302277 39.59331131 3.912931442
37.69612885 39.64927673 5.860432148
32.85333633 34.46064377 6.915278912
34.13544846 35.87255859 10.75451183
35.13095474 36.95570374 12.93461323
38.33351517 39.98563766 1.998711944
38.03055954 39.67224121 3.933734417
35.81784439 37.32091141 5.58987093
34.71386719 36.16508865 7.237370491
33.56393814 34.94662476 8.774999619
34.28144073 35.73577499 10.75718689
37.07912064 38.73724365 13.55657864
38.55925751 39.95438766 2.00406456
38.35770416 39.7508812 3.952150345
34.70518875 35.91149139 7.215429783
33.88481522 35.05098343 8.825356483
34.22678375 35.43670273 10.70873451
36.24269104 37.58844376 13.22733593
35.73023224 36.69335556 1.913123131
35.89936066 36.90393066 5.571887016
34.6401062 35.58755112 7.182260513
33.92958832 34.86144257 8.810221672
34.42516327 35.39431763 10.7321434
36.39949799 37.48767471 13.2380743
35.89007187 36.59886169 1.916504979
35.73318863 36.46772766 5.534867764
34.90769577 35.61445618 7.210635185
36.29502106 37.08973694 9.340854645
35.90804291 36.70761108 13.02794743
39.29081345 39.88098145 2.021799564
36.08383942 36.57257843 5.566618443
36.24259949 36.76114273 7.435758591
36.36345291 36.89777756 9.328584671
34.57475281 35.04941559 10.7080431
35.65350723 36.19582748 12.90197086
39.53297424 39.84702682 2.027681112
33.75388718 33.92172623 5.245009422
35.00481796 35.22275925 7.188107491
34.5733757 34.80060196 8.882774353
34.71178436 34.95472336 10.71579075
35.59183502 35.87585831 12.84026718
39.77256012 39.80903244 2.033509731
33.82181168 33.74978256 5.240409374
35.37655258 35.35343552 7.235506535
34.35230637 34.32675934 8.804783821
34.80544281 34.80290985 10.70962811
35.8531189 35.88996506 12.88814926
40.02359772 39.78125 2.03972435
33.95876312 33.64878464 5.244981766
33.97813416 33.67901611 6.96109581
34.00941849 33.73377609 8.699093819
35.03588486 34.7908287 10.74252129
35.85992813 35.64286804 12.8503027
40.25942612 39.73660278 2.045491457
34.22595215 33.66867065 3.55819869
37.03464508 36.51701355 5.634223938
34.11743927 33.58024979 6.967027664
34.41229248 33.90158463 8.767140388
36.03375626 35.56649017 12.86888123
40.5152092 39.71060181 2.0519104
39.9536972 39.1864357 6.000789642
34.18642807 33.41066742 6.960338593
34.68304825 33.9326973 8.804339409
37.60375214 36.87911224 11.40292358
36.1566925 35.43827057 12.87051105
40.77837372 39.69038391 2.058586836
39.89522552 38.85022736 5.977930546
36.1220932 35.10237885 7.289810181
34.90689087 33.91496277 8.830630302
36.71453094 35.74420547 13.01717949
41.01628494 39.64352417 2.064505339
35.65818405 34.3704834 3.651717186
34.07538223 32.82706833 6.902709961
34.90385818 33.67103958 8.80477047
36.45095444 35.22991562 12.89034843
41.27721405 39.61788177 2.0711689
34.31242371 32.82644272 6.926664352
34.995224 33.521698 8.800822258
36.59833527 35.11179352 11.02085781
36.82930374 35.35292053 12.97697353
41.52270889 39.57556152 2.077381849
36.86659241 35.07349777 5.542724609
34.35681152 32.63608932 6.916213036
37.0627861 35.33084488 13.01543522
41.78420258 39.54733658 2.08412075
35.0147934 33.01763916 3.578940392
37.24304962 35.18877792 5.577756405
35.08970642 33.11418533 7.028385162
35.81082153 33.83806992 8.937411308
37.25745773 35.26959229 13.04107189
42.02581024 39.49837494 2.09027338
35.42617035 33.17777252 3.604818106
34.94878387 32.74278259 6.985050201
37.1110878 34.8641243 11.06791401
37.38768387 35.1452713 13.0456028
42.30519104 39.48411942 2.097625971
35.50698853 33.01823044 3.604413271
35.26415634 32.79849243 5.298093796
35.38218307 32.92385864 7.043622017
38.36104202 35.82819366 13.32587051
42.56613541 39.4505043 2.104436636
40.59000015 37.61891174 5.965102196
35.96686554 33.24438858 7.12863636
36.51603699 33.79135895 9.023334503
38.00514603 35.2359314 13.17146778
42.81448746 39.41756058 2.110949278
36.55832291 33.55178452 5.438206196
39.27015686 36.13471603 7.692179203
38.04277039 35.03404236 13.14790154
49.61856461 45.49977875 2.319879293
36.67763138 33.43606186 5.441492081
36.26067734 33.05907822 7.144950867
37.45288849 34.21681213 11.03949642
40.3992157 36.65734863 5.900088787
40.76295853 37.023983 7.915204048
37.42905045 33.93643951 9.156599998
36.13693619 32.47270584 5.349267006
36.2053833 32.54958725 7.100630283
37.57240677 33.83931732 9.165689468
36.0970726 32.20394135 5.33235836
36.30076981 32.41624069 7.100637436
36.50348663 32.35519791 5.372256756
36.55977631 32.42059326 7.128256321
36.40612793 32.03544998 5.348340988
38.64887619 34.07959366 7.472370625
40.33587646 35.63542938 9.707015038
37.58226395 32.82183075 1.942822814
36.50550461 31.89509964 5.349215508
38.76700592 33.94215012 7.47475481
56.19255829 49.16893768 2.513711452
36.7110672 31.83823204 5.362838268
38.99709702 33.90470886 7.496506214
65.04286194 56.64957047 2.784290075
37.09913635 31.9648037 5.400309086
39.17098618 33.81608963 7.508615017
39.05508804 33.45585632 5.63158083
39.99994659 34.30332947 7.632875443
40.06456375 34.05310822 2.01603961
39.39982224 33.48874283 3.824680567
38.69426346 32.90036011 5.575164318
40.61467743 34.59461212 7.720040798
55.71837616 47.36947632 2.495069981
39.45283508 33.29367447 3.822572708
40.48124695 34.20149231 5.783615589
40.02288055 33.83279037 7.601467609
39.24029541 32.86688614 1.989511132
38.75310516 32.47917557 5.559520245
40.16259766 33.72223663 7.608706474
39.38510132 32.75320053 1.993354678
39.05282211 32.49700165 3.780402899
41.9527092 34.99436951 5.941937923
39.92677689 33.27772903 7.551534653
39.72624588 32.80580902 2.003238916
39.16725922 32.35937119 3.783286333
39.38801193 32.56326294 5.615546227
39.94376755 33.0524292 7.537487984
39.72267914 32.56527328 2.002605915
39.14231491 32.10422134 3.775584221
39.19350815 32.16387939 5.580609798
39.98088837 32.84533691 7.527021408
39.75777435 32.35855103 2.00319171
39.04553604 31.80719566 5.551603794
39.9988327 32.62308502 7.513494015
44.04747772 35.71854401 4.137285233
39.12062073 31.63912201 5.549970627
40.38315201 32.70691299 7.561604977
42.1152153 34.17961884 9.809309006
40.14440155 32.20893097 2.014135122
39.50819778 31.72962761 5.586391449
39.54375839 31.77637482 7.404826164
40.45598221 32.22962189 2.023266792
39.81835175 31.75342751 5.61335659
39.58625031 31.58061028 7.396132469
40.36487579 31.92054558 2.020131826
40.38558197 31.96655655 3.84194994
39.85739136 31.55414009 5.607507229
39.76165771 31.493927 7.409727097
40.61951065 31.90473366 2.027603149
40.8102417 32.0765686 3.868564129
39.98376846 31.42635727 5.612313747
40.27978897 31.69538689 7.481098175
39.69785309 30.93229294 1.999188423
40.03707504 31.22190857 3.804880381
40.1352272 31.3299942 5.620722771
40.56570816 31.69407272 7.512975693
40.20583725 31.1099968 2.014443398
40.16173935 31.10408974 3.809289932
39.76892853 30.80886078 5.566452503
41.47538376 32.18845749 7.647995949
39.84815979 30.59883118 2.003316641
39.75143814 30.55137253 3.773305893
39.83040237 30.63179207 5.563793659
41.15137863 31.69650078 7.578917027
39.92464066 30.43375397 2.005470753
40.06644058 30.59251213 5.582126617
41.78013611 31.95889282 7.667150497
40.5256424 30.67777824 2.023655415
40.44944382 30.64797592 3.815572977
40.34820175 30.58750153 5.605931759
41.64676285 31.62033272 7.629891872
40.45515823 30.39676666 2.021390676
40.33792877 30.33565712 3.80228281
40.7988472 30.71138 5.649854183
41.85484314 31.5492363 7.648886681
40.29598999 30.04966736 2.016455173
40.8420639 30.51806068 5.645232201
42.09278488 31.50006866 7.672800064
40.19691086 29.75131798 2.013385296
40.67485428 30.14575005 3.817737341
40.51099014 30.03957176 5.596290112
42.19219971 31.34366608 7.674115658
40.46925354 29.73647118 2.021673918
40.87168503 30.07131195 3.827635527
40.60228729 29.88622284 5.59766674
42.38425446 31.25769997 7.690629959
40.42071533 29.47863007 2.020210028
40.86429596 29.84222603 3.822400331
40.63892365 29.69189262 5.592663288
42.52870178 31.13496017 7.699453354
40.92053986 29.63161278 2.035500288
40.93897247 29.67571068 3.823331356
41.21697617 29.90294075 5.651659966
42.75380325 31.07220459 7.721436024
40.80450821 29.33517647 2.032037973
40.94242096 29.45672607 3.819049597
41.29488373 29.73778725 5.651609898
43.10240936 31.11153412 7.764155865
41.04006958 29.28864288 2.03933382
41.39183426 29.5670929 3.847815752
41.59124756 29.74504662 5.677789211
43.28490448 31.0141983 7.779259682
41.32584381 29.27741051 2.048194408
43.18135071 30.66463089 3.975725889
41.61058807 29.53648567 5.670992374
44.2354126 31.47827721 7.918220043
41.35466766 29.07793617 2.049250126
41.72888184 29.40067482 5.675899982
44.255867 31.25759506 7.907118797
41.51241684 28.97207832 2.05427146
41.85124207 29.24722099 3.86878562
41.85803223 29.27257729 5.682148933
44.13216782 30.9338932 7.873038292
41.5674324 28.79226685 2.056190729
42.07925797 29.18939972 3.881295204
42.03697968 29.17986488 5.694277763
44.09868622 30.67723656 7.853664875
41.57767487 28.58118629 2.05677557
42.02409363 28.92929649 3.873044729
42.96571732 29.61895752 5.793813705
44.08172607 30.43386269 7.837129116
41.73246765 28.47281837 2.061804533
42.17325974 28.8148365 3.879861593
43.02908325 29.43923378 5.792437077
44.42496109 30.44594383 7.878266811
41.8066864 28.30764198 2.064406157
42.55445099 28.86215782 3.903715372
43.28581238 29.39531708 5.813608646
44.82239914 30.49358368 7.927999496
42.89888 28.84872818 2.098138809
43.42012405 29.26478004 5.820608616
45.04486084 30.41653824 7.949837685
43.33659744 28.92905998 2.111922264
43.54421616 29.12686729 5.82649231
50.24876404 33.77619934 8.762290001
43.3015976 28.68298721 2.111295462
42.92851257 28.46062279 3.919159889
43.82067871 29.09304237 5.850049019
50.57797241 33.74446869 8.799648285
43.13782501 28.36204529 2.106736898
42.97418976 28.27266693 3.918653727
44.7347374 29.49067116 5.947158813
52.03302383 34.48926544 9.015768051
43.07525635 28.11172676 2.105298519
43.2739296 28.26745605 3.936888695
44.77524948 29.30236244 5.943872929
43.14946747 27.94355774 2.108099222
43.65042877 28.31163025 3.960720062
45.58422089 29.629282 6.029037952
51.13914871 33.37655258 8.845952034
43.30634689 27.83046722 2.11346364
44.09761429 28.38905907 3.989505529
45.73298264 29.49894142 6.037818909
51.12874603 33.11258316 8.829992294
44.9741745 28.7117157 2.165142536
45.23923492 28.92080498 4.068654537
46.83529282 29.99723053 6.155962467
51.19161606 32.89825821 8.825724602
45.14567184 28.5995369 2.171046495
46.85392761 29.77607346 6.149815083
47.9354744 30.18467522 2.257261038
45.22114182 28.4589901 4.060080528
48.8181076 30.81999969 6.366101742
52.16584396 33.02308273 8.950407028
45.2324295 28.20819473 2.175102472
45.11652374 28.16819382 4.048997402
48.5631218 30.41448975 6.328626633
45.17687225 27.9613018 2.174104691
45.66464615 28.30800438 4.085311413
48.73313141 30.29652214 6.340191364
50.48693085 31.44634438 8.6616745
45.28721237 27.79887772 2.178306818
46.63737106 28.69040871 4.151899815
49.10022736 30.2791748 6.3734231
50.30295181 31.07004166 8.619293213
45.38341904 27.62754059 2.18211174
46.88697815 28.60884476 4.166311264
49.8552475 30.50362968 6.45072937
50.43894577 30.898592 8.626933098
45.26877975 27.33575439 2.179429054
49.01515198 29.73668098 6.347383976
50.79413986 30.8762989 8.669334412
45.36536789 27.1877346 2.18322587
46.88398361 28.15295601 4.159472466
48.6778717 29.29079628 6.301382542
45.48872375 27.05613136 2.187877893
47.35373306 28.22765541 4.190182686
50.25874329 30.04172134 6.472966194
50.31335068 30.11495781 8.571094513
45.66094208 26.94311142 2.194114447
48.40377045 28.65324211 4.262557507
50.63900375 30.04545784 6.508553505
50.89403152 30.22924614 8.648584366
46.78549576 27.39447212 2.22979331
48.40885162 28.41384697 4.259599686
50.62197495 29.78157616 6.498548985
46.90434265 27.24346924 2.234480619
48.75852203 28.38240242 4.281414509
50.66854095 29.55718422 6.495846748
50.32195282 29.38858795 8.535723686
47.21510696 27.20654678 2.245127916
50.03468704 28.91222954 4.369744778
49.2351532 28.47433853 6.327479362
47.48341751 27.15371132 2.254452705
49.42066193 28.35231209 6.341191769
47.54463577 26.9666996 2.257472038
49.60258484 28.23899841 6.354914188
19.0862751 10.18597603 0.6073563099
47.78141022 26.8821125 2.265956879
51.17557144 28.92402077 6.524278641
19.09713936 10.10333252 0.6092863679
19.10889435 10.12055111 1.379307151
19.11613083 10.13967037 2.151817083
19.15001488 10.16986942 2.931633472
19.16158485 10.18734837 3.716462612
19.16913605 10.20716286 4.509418011
19.14932442 10.04457855 0.6108335257
19.16278267 10.06278419 1.381467104
19.15957642 10.07594776 2.15386343
19.17619896 10.0961504 2.931960583
19.17920303 10.10869694 3.714992762
19.17487526 10.12169266 4.504799366
19.20044327 10.14768791 5.310822487
19.21374321 10.16697025 6.127524376
49.81477356 27.37150764 2.332701206
51.42765808 28.35598564 6.531579971
19.25507736 10.06342602 3.722454309
19.26934814 10.08711624 4.517426491
19.27070808 10.0992775 5.320112705
19.26853561 10.10973644 6.133893967
50.48115158 27.52910042 2.354659557
52.35571289 28.61392784 4.515533924
25.62941551 13.41507244 1.583904982
51.57911682 27.98060799 6.535391331
25.73764801 13.34372902 0.5607745647
25.75781059 13.3692112 1.588618398
51.50720978 27.67628288 4.450089931
53.76369858 28.95861816 6.772004128
25.95628738 13.36112595 1.595536709
51.67615509 27.53504372 4.459623337
51.26726151 27.33906174 6.487726688
52.2749176 27.58654976 2.41628623
51.53634262 27.22468948 4.44728756
51.44169998 27.20226479 6.500812054
52.35269547 27.39267349 2.420278311
51.49114227 26.95606995 4.441635132
55.44286346 28.801054 2.518429518
51.69313812 26.83304214 4.453708649
55.62717056 28.65067863 2.525919437
51.79397583 26.64363861 4.458555698
56.18625259 28.70948601 2.545088053
51.84453583 26.46238327 4.460224152
56.42013168 28.58189011 2.554231167
53.47787094 27.08676529 4.573803425
56.43216324 28.35062218 2.556376219
53.56414795 26.89464378 4.577854156
88.87734222 35.72538757 0.30611673
88.68351746 35.30207443 0.3157423437
88.56828308 34.89504242 0.3253643215
88.41416168 34.47434998 0.3351578116
88.20982361 34.03606415 0.3451658487
88.10636139 33.62218475 0.3550805151
87.9704895 33.23304367 0.3642301261
87.87251282 32.84276581 0.3736165762
74.97732544 26.1656456 3.262620687
75.19152069 25.94700813 3.273815632
74.71897125 25.48494339 3.262328386
74.85935974 25.24132156 3.271165609
75.08481598 24.7340641 3.287163973
75.45317841 24.58112717 3.303550243
74.73123932 23.40734673 0.5485962629
73.44852448 22.70701981 0.5601219535
73.0386734 22.29445457 0.5687721372
82.42643738 25.32882881 3.560685396
72.98941803 21.99876213 0.5762965083
72.97706604 21.72948837 0.5833380818
72.71520233 21.37050247 0.5914194584
82.56500244 24.44077682 3.580271244
57.08347702 16.36491394 0.6393626332
57.14530563 16.16621399 0.6449786425
57.1719017 15.95713711 0.6506915092
57.07100677 15.71116352 0.6567035913
57.61494064 15.65172195 0.6612808108
57.6762085 15.45169353 0.6669801474
57.65203476 15.22772598 0.6728631258
58.18644333 15.41535854 2.781733274
58.06655121 15.12548256 0.6779130697
57.93454361 15.12709999 2.776926994
57.97161102 14.88180733 0.6839600205
57.8876915 14.89705658 2.779173851
57.97505569 14.7039032 2.786072254
58.70288849 14.64179516 0.6945392489
59.06253052 14.51670456 0.6999524832
58.84092712 14.23979092 0.706243515
59.32765579 14.14453697 0.7115850449
78.40460968 18.40154266 0.7030477524
78.39373016 18.10905647 0.7110157609
52.64941025 11.67156029 0.7415117621
52.71469498 11.5282259 2.637860537
52.79412842 11.59221268 4.539526939
52.82009506 11.63421917 6.451151371
52.89002228 11.68719292 8.385532379
78.58843231 17.28755951 0.7347774506
78.65804291 17.37093163 3.553874731
52.90559769 11.50622368 8.387005806
52.83948898 11.30658436 8.376842499
79.46834564 16.93707085 0.7495456338
79.31034851 16.95499802 3.588145256
52.78049469 11.09961987 8.367769241
52.77096176 10.90445518 8.365904808
90.8172226 18.82009125 0.7626084685
90.98326874 18.52403641 0.7718362808
65.68198395 4.92121172 1.014005661
116.2020569 5.325593472 1.311862707
97.69605255 1.619940281 1.312252283
95.92203522 0.2016910166 1.345650554
85.81214142 -1.082162499 1.323634148
80.73378754 -2.198201418 1.3276968
65.32781982 -1.901110053 3.506398678
65.7959137 -2.187923193 1.235090494
65.63930511 -2.134851933 3.52681756
65.49906158 -2.410732269 1.240381241
64.73763275 -2.619151831 1.2423563
65.05319977 -2.577775478 3.517263651
64.53295135 -2.850304842 1.248512149
65.23405457 -2.821458101 3.532768011
64.5916748 -3.077618122 1.256185055
65.24862671 -3.049659729 3.540966511
57.00108719 -3.021055937 1.207533956
65.16854858 -3.274538517 3.545205593
56.61362076 -3.204432726 1.211064339
65.05775452 -3.497691154 3.548166037
56.66114426 -3.404394388 1.217824578
64.85234833 -3.716029644 3.547118902
56.7698822 -3.607640505 1.225080729
56.83390808 -3.566711187 3.212687254
56.67416382 -3.801253796 1.230776787
56.92178345 -3.769815445 3.223245382
56.74353409 -4.003316402 1.237776041
56.21282196 -3.930647373 3.199670792
55.55035782 -4.132493019 1.234644413
56.2181778 -4.117744923 3.206360102
55.25783539 -4.299252033 1.238289833
56.05078125 -4.304328918 3.205975533
55.61280823 -4.515866756 1.247555733
56.23571777 -4.512418747 3.220832825
55.66964722 -4.714639664 1.254417777
56.36006165 -4.71781683 3.233146667
55.53028107 -4.899753094 1.259639263
56.25445938 -4.907805443 3.235523939
47.36743927 -4.47824049 1.195714712
47.66192245 -4.463009357 2.867546797
47.85106277 -4.682666779 1.205414176
47.65097046 -4.629350662 2.873031139
46.74330139 -4.759257793 1.201159
47.61155701 -4.793358803 2.877296686
47.09144974 -4.961715698 1.20998466
47.38842392 -4.941547394 2.873500109
46.92032242 -5.103649139 1.213641286
47.51511383 -5.119318485 2.88512373
47.21996307 -5.296590328 1.221875429
47.31363678 -5.259436131 2.881979942
40.09238052 -4.767322063 1.16078198
47.26410294 -5.421169281 2.885868788
40.06654739 -4.92709589 1.165947437
40.11766434 -4.900299072 2.574578762
40.16402054 -4.865695477 3.990276337
40.21144867 -4.837966919 5.417264462
40.27345657 -4.811178684 6.861021042
40.28264236 -4.771627426 8.313892365
47.08398819 -5.798047543 1.237753272
47.50463104 -5.803880215 2.909806013
46.62712479 -5.915027618 1.23888588
47.34684753 -5.946178436 2.908646584
46.91830444 -6.103642941 1.246973991
47.35745239 -6.106059074 2.9150455
46.7696228 -6.244130611 1.250785708
47.59883881 -6.300667763 2.932191133
46.52422333 -6.380592823 1.253885031
47.20243073 -6.42250061 2.920614481
46.45018387 -6.544439316 1.258954763
47.0973587 -6.576769829 2.922171116
47.10280991 -6.744169235 2.928760767
101.0176849 -16.32176018 5.491901875
99.92356873 -17.24429321 5.484383106
91.38877869 -16.83194733 5.12295866
91.33216095 -17.15052795 5.133664131
35.63981247 -7.651395798 1.232231975
35.61223602 -7.616341114 2.497792959
35.43418121 -7.717237949 2.494820833
89.41389465 -18.49830246 1.926261187
89.268013 -18.39448929 5.102002144
89.057724 -18.75111961 1.93302989
89.01006317 -18.66656303 5.103037357
89.4202652 -19.47365189 1.96050179
88.67974091 -19.53521919 5.126461983
88.00419617 -19.71404266 5.107058525
87.93419647 -20.03608894 5.118024349
87.91168213 -20.76584435 1.997399092
87.74424744 -21.0500164 2.006521463
86.97208405 -20.78214264 5.11181879
87.03611755 -21.19128227 2.007484674
87.62947845 -21.25427055 5.158489227
86.29914093 -21.33714104 2.008464098
87.17249298 -21.46888542 5.149690151
86.18051147 -21.62683868 2.018118382
86.6377182 -21.98178101 5.150984287
86.72068787 -22.39783096 2.048749685
83.85176086 -21.59850502 5.023682594
86.57124329 -22.66560173 2.057500124
84.16611481 -21.98785019 5.053384304
87.12931061 -23.48580551 2.090113163
87.16202545 -23.81906128 2.102300167
80.22847748 -22.22520828 4.908626556
84.066185 -23.08075333 11.21757507
78.7588501 -22.42398643 4.859852314
79.27404785 -22.47974205 7.765417099
87.28785706 -25.15931702 2.151473284
78.69824982 -22.70271111 4.870181561
81.34088898 -23.27457428 10.93789673
78.63278961 -22.98022842 4.880317211
78.70861816 -23.28319931 4.897204399
81.94107056 -24.05566406 11.0528698
86.45427704 -26.63864136 11.70496559
91.37358856 -28.73273849 2.304276466
77.92868805 -24.56769562 4.926484108
83.44858551 -26.63737488 2.1844275
77.69288635 -24.70733261 7.775510311
83.19396973 -26.87705231 2.191870213
90.70046234 -29.55097389 2.330741405
80.49986267 -26.09393692 11.03647423
90.7191391 -29.88790703 2.343272924
77.64720917 -25.64085197 4.966293335
90.76952362 -30.2533226 2.357044935
78.55706787 -26.16126823 7.922278404
90.79802704 -30.63042259 2.371153831
79.3128891 -26.79777145 5.085855961
90.81510162 -30.98713303 2.384468079
78.20884705 -26.73958397 5.040547371
77.30305481 -26.65372658 7.861294746
77.81911469 -27.14268875 7.92743206
85.90438843 -30.3783493 2.335978746
76.89710236 -27.20197296 5.012565136
79.33305359 -27.88790894 11.03950405
85.23926544 -30.46627426 2.33578372
77.99736023 -27.88254929 5.087847233
78.49897003 -27.98335648 8.026554108
84.54669189 -30.55688667 2.335564375
77.36686707 -27.96704483 5.067887306
78.69021606 -28.34152794 8.061875343
77.64810181 -28.36981964 5.098387241
83.00514221 -30.68454552 2.332368851
83.18409729 -30.67143631 5.422639847
82.28022766 -30.74884033 2.331054211
82.39933777 -30.71530724 5.394967079
81.54982758 -30.79012489 2.328864813
80.88235474 -30.86597061 2.328314781
81.0358429 -30.84703445 5.349789619
80.44380951 -31.02310371 2.332011223
80.48137665 -30.96161079 5.334530354
76.86691284 -29.98989105 2.274898767
76.91876221 -29.93720055 5.148602962
76.19937134 -30.05689049 2.274070024
76.29777527 -30.00729179 5.128708363
75.56497955 -30.10162354 2.272582769
75.65113831 -30.06338882 5.107195377
74.91114044 -30.14972115 2.271142006
75.072052 -30.1414299 5.089383602
74.29738617 -30.22418404 2.2709198
74.40645599 -30.19654846 5.067215919
73.68782806 -30.29606628 2.270638943
73.83425903 -30.28410721 5.050255299
73.07276154 -30.34661484 2.269536495
73.20087433 -30.32832718 5.028845787
72.43231201 -30.38271332 2.26777482
72.62730408 -30.3924942 5.010742664
72.3140564 -30.62910461 2.276615143
72.35166931 -30.57506943 5.00988245
72.3759613 -30.95013618 2.289204359
72.39117432 -30.88669205 5.027452469
72.3664093 -31.24261475 2.300369978
72.40357208 -31.18823433 5.043543816
72.39439392 -31.55169487 2.3123703
72.44048309 -31.50110817 5.061182499
72.42842865 -31.86455345 2.324561596
72.48529053 -31.81848526 5.079398632
11.69951057 -5.8667593 2.374263763
72.43728638 -32.16771698 2.336276293
72.52325439 -32.13422012 5.097325325
11.78227139 -5.950474262 2.389388323
72.49442291 -32.49285507 2.349083662
11.23875618 -5.777513981 1.887479663
11.7461977 -5.983603001 2.388403416
72.51164246 -32.81692123 2.361679077
11.23615646 -5.823040485 1.89034307
11.67276287 -6.00269413 2.382519007
60.52189255 -27.79227638 2.111170053
12.02541924 -6.233169079 1.510245681
11.17507267 -5.842837811 1.887471914
11.67469501 -6.052130699 2.386741877
11.77989006 -6.086689472 2.858952761
60.55527496 -28.06049538 2.1217134
12.00943279 -6.273780346 1.511813998
11.15036869 -5.878506184 1.888180017
11.76603413 -6.127231121 2.861016273
60.2498436 -28.16368294 2.124298811
12.0141983 -6.326303005 1.514781356
11.15642834 -5.927966118 1.891941905
11.74570274 -6.167354584 2.862200499
60.31245041 -28.44594002 2.135550022
11.96881676 -6.353651047 1.514586568
11.05436707 -5.926133633 1.884838223
11.76035404 -6.220819473 2.869359255
72.04180145 -34.09163284 2.408935785
11.9315052 -6.386994839 1.515013814
11.05656528 -5.97376442 1.888237
11.82120323 -6.310130119 2.422750473
11.81873131 -6.296991825 2.884568691
72.04062653 -34.42681885 2.421985388
11.94565868 -6.446617126 1.518728018
11.05766773 -6.023391724 1.891711354
11.87221241 -6.388683796 2.434412003
11.6121645 -6.254206657 2.852990627
72.04839325 -34.72142792 2.433511972
11.80500603 -6.431468487 1.51281929
11.03960991 -6.061896324 1.893131733
11.88796329 -6.44386673 2.440611839
11.58782196 -6.292108536 2.853523731
58.89339066 -28.79759598 2.142800093
11.77653599 -6.468327045 1.513781548
11.12502289 -6.146831036 1.904793143
10.86647511 -6.013920784 2.302468061
11.53655052 -6.317317486 2.849263906
58.48164749 -28.85281754 2.143113613
11.72632599 -6.494732857 1.513401985
11.1307869 -6.199482918 1.908833623
10.88246632 -6.067904472 2.308627129
11.54947662 -6.372665882 2.856501818
58.10137558 -28.93298531 2.144558907
11.50596237 -6.441473007 1.502580166
11.15520668 -6.258928776 1.914622307
10.84182072 -6.097383976 2.307090759
11.61461449 -6.455728054 2.873417854
57.90598297 -29.08821297 2.149782419
11.4649334 -6.471078873 1.502721786
10.84236813 -6.155337811 1.886275291
10.87526703 -6.160161018 2.315769434
57.93995667 -29.35524178 2.160421371
11.45790768 -6.517168522 1.504990578
10.78806591 -6.175597668 1.884040117
10.85846996 -6.198881626 2.317426443
11.4757185 -6.488079071 2.858476639
56.46774292 -28.87719536 2.135173559
11.46501637 -6.570357323 1.508162022
10.77926731 -6.220319271 1.886598945
11.2830286 -6.454826832 2.381448984
11.48074055 -6.540179253 2.864448786
11.55263805 -6.563289165 3.340208292
56.20198822 -29.0024147 2.138950586
11.43873501 -6.609609604 1.509384751
10.76765919 -6.261396408 1.888725519
11.34417057 -6.536652088 2.39456296
11.47038078 -6.587373257 2.867935181
11.5395689 -6.606938839 3.343262434
56.21592712 -29.25500488 2.148974895
11.4418602 -6.661120892 1.512338638
10.81463051 -6.331954002 1.896878362
11.0972147 -6.462361336 2.363785744
11.47849941 -6.641396999 2.874559641
11.46314049 -6.619042397 3.332288504
12.06341076 -7.039183617 1.08182776
11.30689716 -6.64024353 1.506394148
10.81148815 -6.377707481 1.899929166
11.13069534 -6.527832031 2.372792959
11.38868713 -6.643785 2.863126516
11.29564667 -6.584845543 3.301023722
12.05898666 -7.087329388 1.083713412
11.36671257 -6.720572948 1.512970448
11.69494629 -6.876527786 1.994498253
10.83252525 -6.422297955 2.334289789
11.42114449 -6.710242271 2.874251604
11.21700954 -6.591982841 3.289154291
58.44255066 -31.13651848 2.232899904
11.3870697 -6.781235695 1.517066479
11.30314255 -6.723704338 1.957463741
10.80420685 -6.455461979 2.334437847
11.40585041 -6.752675056 2.876704216
11.18982983 -6.627411842 3.289053202
12.09524345 -7.212918758 1.088844419
10.78551579 -6.5184021 1.481196404
11.33388519 -6.789683342 1.964259505
11.39401627 -6.808998585 2.423336029
10.8714571 -6.526586533 2.783866882
11.16951275 -6.666313171 3.290511608
12.07666016 -7.256924152 1.090514421
10.72511959 -6.534617901 1.479981422
11.23552704 -6.788472652 1.95765698
11.2799778 -6.799930573 2.41141057
10.92505169 -6.602745533 2.798816681
11.1821146 -6.722355843 3.299395084
12.07734108 -7.311193466 1.092675567
11.1750164 -6.809068203 1.955153465
11.33637142 -6.879891396 2.424031496
10.87168407 -6.623282433 2.794119835
12.11192036 -7.386519432 1.095818162
10.33042908 -6.42197752 1.459824324
11.11906624 -6.829234123 1.952933669
11.29668999 -6.911999702 2.423055172
10.92538548 -6.702783585 2.809487104
11.36322403 -6.920395374 3.352865696
12.01353073 -7.387879848 1.095469475
10.3602562 -6.484469891 1.464394927
11.11397743 -6.876432419 1.956052303
11.2177887 -6.920351505 2.416161299
11.21110535 -6.904761791 2.867741823
11.22596836 -6.897988796 3.328123808
11.1574831 -7.020636559 0.6328347921
11.97850609 -7.423045158 1.096731305
10.33011627 -6.514836311 1.465066195
11.13495731 -6.937897205 1.961943626
11.09708786 -6.905583382 2.403155327
11.00924587 -6.8462286 2.835612774
11.27549839 -6.975143909 3.345657825
11.200387 -6.922241211 3.792330503
11.09058189 -7.03437233 0.6349316239
11.15989208 -7.027967453 1.07762754
10.32966042 -6.561364651 1.467693567
11.11370182 -6.976663589 1.963408351
11.11769581 -6.966995239 2.410716534
10.93447781 -6.855264664 2.827037573
11.11953449 -6.941329002 3.316566229
11.10882568 -6.923136711 3.774935484
11.08485889 -7.081794262 0.6361804008
11.12617207 -7.06007719 1.078778148
10.34123611 -6.614721298 1.471134067
11.05219936 -6.993241787 1.9606148
10.80775738 -6.846972466 2.36993742
10.9220686 -6.898041725 2.830094576
11.00867176 -6.93100214 3.297635317
11.02594185 -6.928132534 3.759822845
20.36397362 -12.34819984 0.511580348
11.10109901 -7.096892357 1.080154538
10.36303043 -6.674057961 1.475276709
10.8869524 -6.954298496 1.946946979
10.80412292 -6.894202232 2.373909473
10.93539238 -6.955147266 2.838009596
10.98965836 -6.973077774 3.299943209
11.05969143 -6.999368668 3.776548147
10.38003445 -6.733463764 1.479266167
10.84306145 -6.979536057 1.945972323
10.69016361 -6.882341385 2.361895084
10.96460533 -7.023940563 2.849245071
10.96470547 -7.009375572 3.300607681
11.07714939 -7.059542656 3.788606167
20.09587097 -12.38738632 0.5195803642
56.79339218 -33.13005066 2.305803299
10.40993404 -6.798146725 1.484009862
10.77898788 -6.995650291 1.943018675
10.63796043 -6.901999474 2.358715296
11.43824863 -7.340891838 2.944073677
10.81374359 -6.977353573 3.272661924
11.07623672 -7.112329483 3.796136379
56.74986267 -33.36765671 2.315199375
10.33200455 -6.80173111 1.481546283
10.79494762 -7.051995277 1.948281527
10.68749046 -6.979212284 2.370595455
10.75811768 -7.00758791 2.821318865
10.8291235 -7.033358574 3.282276392
10.91126251 -7.067518234 3.758318663
19.84237099 -12.42690086 0.5271815062
11.89740562 -7.763514996 1.110081196
10.32339382 -6.844688416 1.483733892
10.77847862 -7.092545509 1.950271964
10.78995132 -7.087429523 2.390418053
10.74166489 -7.047945499 2.823718786
10.775033 -7.05253458 3.276237726
10.8842907 -7.10253191 3.758378744
19.73994827 -12.45967388 0.5306299329
10.84833431 -7.209038258 1.083686113
10.32497597 -6.893660545 1.486624956
10.83251095 -7.173969269 1.959909201
10.94159222 -7.225205898 2.417692184
10.6652298 -7.053751945 2.814747334
10.66826153 -7.041080952 3.25798893
10.90613842 -7.165548801 3.771827698
19.63752747 -12.49189281 0.5340608358
11.64388943 -7.726035595 1.107601166
10.28152752 -6.916513443 1.486475825
10.78525543 -7.199500561 1.958807468
10.9347105 -7.272264004 2.421451569
10.67760086 -7.110679626 2.82266736
10.72172832 -7.124314785 3.277198315
10.9114027 -7.221910954 3.781202078
19.56606483 -12.54194069 0.5370772481
11.04042149 -7.426822186 1.093220234
10.22257042 -6.930006504 1.485263348
10.49881649 -7.081497192 1.931451321
10.98465157 -7.355409622 2.434002161
10.71693707 -7.183738232 2.835801601
10.8841629 -7.269499302 3.321573019
10.93545723 -7.284412861 3.795059919
11.58046246 -7.797874928 1.110272408
10.34664249 -7.04949522 1.496436596
10.45589542 -7.103009701 1.930348039
10.80770683 -7.299776077 2.412047863
10.84366894 -7.306450367 2.865484476
10.84415054 -7.294491291 3.318614006
10.75962257 -7.229757309 3.753902197
11.47006798 -7.783747673 1.109290361
10.49634075 -7.188102722 1.50960052
10.47447777 -7.161079884 1.935984731
10.86974525 -7.385282516 2.42599988
10.85663795 -7.365355015 2.873773336
10.56529331 -7.179945946 3.260102034
10.69531155 -7.242329597 3.743771076
19.44496155 -12.74714756 0.5448929071
10.62868309 -7.320401669 1.521818399
10.70205688 -7.350419521 1.965038061
10.8916235 -7.452592373 2.434464455
10.81065273 -7.391792774 2.871057987
10.61257935 -7.260826588 3.278161526
10.66833019 -7.279349327 3.744345188
19.42021179 -12.8298254 0.5474005342
65.9125824 -41.10756302 2.663007498
10.53339386 -7.315655708 1.518344879
10.57782936 -7.328530312 1.955457926
10.8911047 -7.50677824 2.439596653
10.75449181 -7.41185236 2.866377592
10.78809357 -7.417319298 3.326182365
19.42612267 -12.92698288 0.5494259596
11.19898891 -7.786928177 1.108433008
10.88693047 -7.583111763 1.545952916
10.58917427 -7.386146069 1.960638642
10.93381405 -7.58500576 2.451097965
10.7853899 -7.482133389 2.878267288
10.81191158 -7.483356476 3.338691473
19.42140198 -13.01798248 0.5515863895
10.87196064 -7.626275539 1.548009396
10.6036396 -7.446006298 1.966204047
10.87985325 -7.604322433 2.447927475
10.74869251 -7.511366367 2.877100706
10.8504343 -7.558872223 3.354771137
11.16963768 -7.741640091 3.908150196
19.42307091 -13.11333656 0.5536726117
64.06298828 -40.90543747 2.648151636
10.83988476 -7.658845425 1.548876762
10.6600771 -7.53234005 1.976492643
10.85117149 -7.639027119 2.448616028
10.83353519 -7.600699902 3.357810736
19.44794846 -13.22385216 0.5554871559
63.63176346 -40.9454689 2.648274899
10.84490108 -7.714648247 1.552363992
10.63843632 -7.570503712 1.978117108
11.06111431 -7.823004723 2.48595953
19.43857765 -13.3131628 0.5577164888
10.81591988 -7.749209881 1.553468823
10.62171364 -7.611775875 1.980307579
19.4612751 -13.41864395 0.5594663024
10.78130817 -7.777468681 1.554019094
10.37808228 -7.50867939 1.956950903
19.45444679 -13.51038647 0.5616739988
10.669837 -7.758888721 1.549243689
10.58778191 -7.694229603 1.984691143
19.45055008 -13.60443687 0.5638516545
10.73457718 -7.853556156 1.557055354
10.68883133 -7.809200287 2.000090122
19.45960426 -13.70740128 0.5658854842
10.65830803 -7.845005512 2.001042843
18.05472946 -12.87339401 0.5838804841
10.66562653 -7.915063858 1.558520198
10.73708248 -7.949831963 2.014279842
10.74351692 -7.941730499 2.468419075
17.85988235 -12.83410931 0.5880505443
10.82573986 -8.074588776 1.573379636
10.87835217 -8.097028732 2.034778118
10.71498394 -7.97396183 2.469027758
17.70867157 -12.82263851 0.5916990638
10.74078846 -8.072381973 1.57049799
10.8592844 -8.136309624 2.036757708
10.69006252 -8.011232376 2.470486641
17.5974884 -12.83720303 0.5948805213
10.68912029 -8.091947556 1.570023417
10.74662113 -8.118273735 2.028389692
10.71937466 -8.084840775 2.480529785
17.55366707 -12.90159702 0.5974096656
10.62957191 -8.108620644 1.56912756
10.81852818 -8.221496582 2.041130304
51.44978714 -36.10585785 2.40850544
10.67186642 -8.191793442 1.575572491
10.62702084 -8.148859024 2.023554802
10.50979233 -8.135010719 1.566914201
10.59953022 -8.181741714 2.024554968
10.5693779 -8.218200684 2.025698662
51.31742096 -36.82310104 2.437901497
51.71702194 -37.04256058 4.65623188
10.51425743 -8.234484673 2.023695469
51.10993958 -36.94420242 2.442322731
51.65874481 -37.2708931 4.668503284
10.42658424 -8.227576256 2.017838955
10.45607281 -8.302965164 2.025818348
10.41578484 -8.331914902 2.02579236
56.17004776 -41.33325958 5.062468052
10.38319683 -8.3635149 2.026460886
16.87890434 -13.2397337 0.6219238639
56.22858429 -41.67410278 5.085564137
16.87443161 -13.32700634 0.623893857
16.89525414 -13.43346024 0.6256257892
16.80658722 -13.4588213 0.6284053922
62.90734482 -47.62228012 2.922992229
15.76875496 -12.7693634 0.6400516033
62.76795959 -47.84240341 2.931869745
15.74480629 -12.83759689 0.6420936584
62.63550568 -48.08507919 2.941730976
57.44267273 -44.75111771 5.316767216
15.18841743 -12.75738621 0.6543929577
59.5541954 -47.09755325 2.892065525
59.58359146 -47.04730988 5.527711391
59.44916534 -47.34925842 2.902461529
59.41226196 -47.24736404 5.535337448
59.31795883 -47.5810051 2.911963224
59.30306625 -47.49607468 5.547989368
14.75082874 -12.66631413 0.6634371281
59.20151138 -47.8248558 2.92203021
59.1599617 -47.71860886 5.557997227
59.09147644 -48.09119415 2.933084488
59.03631592 -47.95689011 5.569644451
58.97502899 -48.31928635 2.942513943
58.908638 -48.19234848 5.581038475
58.8711586 -48.57496643 2.953161955
58.77126694 -48.4034462 5.590620518
14.38326263 -12.70104885 0.6732918024
48.36524582 -40.33362961 2.578051329
58.65419006 -48.64834213 5.603031158
14.35691929 -12.76767349 0.6753100753
58.51847076 -48.89557266 5.615098
14.35387325 -12.84968281 0.6770626903
46.2238884 -39.14155197 2.522423744
47.23040009 -39.9143486 4.701872826
47.39586639 -40.33018112 4.733778
46.06520081 -39.5687027 2.540365696
46.72904205 -40.06617737 4.697245598
46.33826447 -40.08821869 2.563200474
46.92944717 -40.52794647 4.733245373
14.23624134 -13.10062695 0.6850621104
46.34109116 -40.36883545 2.575248957
34.94766235 -30.62046623 3.739614725
14.13909531 -13.10318756 0.6874963641
46.01474762 -40.36882019 2.574599743
34.5478363 -30.48894501 3.719547272
34.81138611 -30.97118378 2.148608208
34.41537094 -30.58440208 3.72206831
34.05150604 -30.52296638 2.127861023
34.42501068 -30.79239464 3.73607254
33.90940094 -30.59741211 2.130804062
34.35324478 -30.9411068 3.743885517
33.51008606 -30.45497894 2.123928308
33.51846313 -30.41831589 3.685780048
14.66974258 -14.01438713 0.6928400397
33.31476212 -30.50047493 2.125544071
33.30527878 -30.44805908 3.681794167
14.55177116 -14.00513649 0.6955201626
33.0838089 -30.51294327 2.12567997
33.19649506 -30.56973457 3.686866283
14.43634415 -13.99268913 0.6980705857
32.92374802 -30.57724571 2.128190517
32.63705063 -30.27538872 3.651724577
14.3684454 -14.02274323 0.7003101707
33.64583588 -31.44159698 2.16684413
33.00579071 -30.81649017 3.698071957
32.92215347 -30.99497795 2.146297693
32.54859924 -30.60980034 3.671668053
32.80800247 -31.10146713 2.1507411
32.47905731 -30.74440002 3.678800583
32.81610107 -31.31052208 2.159839869
32.2756424 -30.75556564 3.674012423
15.29554462 -15.25580406 0.702305913
33.44881058 -32.10359573 2.195293903
32.2615242 -30.95219612 3.686878204
15.0888195 -15.16610146 0.7055057287
32.08567047 -31.05267143 2.147535086
32.05192184 -30.97720146 3.682911396
15.03318119 -15.21313667 0.7077594995
31.90951729 -31.10811234 2.149702787
31.96389771 -31.10516167 3.689204931
15.24737358 -15.51878357 0.7086097002
32.96971893 -32.31966782 2.204034328
31.84788513 -31.20675659 3.692991018
15.30103683 -15.66784096 0.7102347016
32.00011826 -31.60951424 2.171718597
32.08420181 -31.63505363 3.728365421
14.67571449 -15.1636095 0.7153264284
31.65648842 -31.4820118 2.165699482
32.13015747 -31.89491844 3.747264385
31.52977943 -31.58376694 2.16999507
32.09334564 -32.08739471 3.759417295
31.54231834 -31.81105232 2.179969072
31.96263695 -32.1781044 3.762187243
42.00445938 -41.93069077 6.756975651
12.62686157 -13.43652916 0.730527699
31.30607224 -31.79449081 2.178968191
31.65257263 -32.09182358 3.74819231
41.91713333 -42.13256454 6.771316051
12.60569 -13.50313282 0.7323123813
32.56203842 -33.25894165 2.244670153
32.09145737 -32.74588394 3.804439068
41.80471039 -42.32479095 6.783542156
32.21991348 -33.15449524 2.239711523
31.63973236 -32.52877045 3.777853727
41.71844864 -42.52915573 6.798298359
32.07746506 -33.23685455 2.243187666
32.04222107 -33.15555954 3.831345081
43.65974808 -44.70850372 9.291834831
31.86045647 -33.25437164 2.24374485
31.85904312 -33.20724487 3.830227613
39.35159683 -40.73402023 6.510500431
43.09666443 -44.46215439 9.22016716
39.21337891 -40.99983215 2.59210062
39.2155838 -40.9455452 4.55205965
39.25912094 -40.91912842 6.523323059
42.56582642 -44.22747421 9.152405739
39.09255981 -41.15638351 2.598899364
39.11975861 -41.12773132 4.562248707
39.18250275 -41.12118912 6.5385952
41.94862747 -43.89887238 9.067044258
39.01828384 -41.36152649 2.60789609
39.04254532 -41.32983398 4.574323654
39.12294769 -41.34177399 6.556527615
38.9154129 -41.53774643 2.61560297
38.94779587 -41.51461792 4.584792614
39.01132202 -41.50933838 6.56691885
41.75291061 -44.30121994 9.100988388
38.84760284 -41.75139999 2.625005245
38.88250732 -41.73102951 4.598232746
38.91380692 -41.70645142 6.58087492
41.66875076 -44.51792908 9.120978355
38.73862839 -41.93698502 2.633146524
38.7970047 -41.92716599 4.609793663
38.8608551 -41.93708038 6.600271225
41.57318497 -44.7389183 9.140746117
38.67062378 -42.13796234 2.642010927
38.69282913 -42.1043129 4.619603634
38.75228119 -42.10982513 6.611489296
41.56263351 -45.02036285 9.174145699
38.58352661 -42.33399963 2.650654793
38.60833359 -42.3030777 4.631445885
38.67191696 -42.29888916 6.625695705
38.95654678 -42.54470062 8.683662415
38.43310547 -42.4624176 2.656270266
38.4849205 -42.46080399 4.639497757
38.53472519 -42.44208145 6.632814407
38.61734009 -42.47249985 8.650333405
12.63176727 -14.73945427 0.7551589012
37.95240021 -42.23101425 2.645720243
38.05833054 -42.28916168 4.6171031
38.13285828 -42.29799652 6.599657536
37.99032593 -42.08538055 8.55786705
37.49617386 -42.03585052 2.63680768
37.81994247 -42.3338089 4.614500999
37.63389587 -42.05840683 6.552718639
37.52258682 -41.87913513 8.499072075
37.04729462 -41.84380341 2.628050327
37.19073868 -41.87461853 6.513889313
37.10750198 -41.72574997 8.450621605
36.5954361 -41.62926483 2.61830163
36.71131516 -41.63150406 6.467665195
36.70917892 -41.57230759 8.403443336
36.156147 -41.42402267 2.608984232
36.18716049 -41.40320587 4.509887218
36.26586914 -41.42114639 6.426278591
36.3057785 -41.40921783 8.35479641
11.13307476 -13.54219627 0.7672742605
35.72008896 -41.21769333 2.599631071
35.80288696 -41.25593185 4.490403175
35.84880066 -41.23791122 6.388916969
35.86576462 -41.2009201 8.298063278
35.30044174 -41.0253334 2.590918303
35.37129211 -41.05108261 4.465758801
35.44399643 -41.06420135 6.353113174
35.46045685 -41.02716446 8.248126984
9.817142487 -12.20617199 0.7725936174
35.08113098 -41.05786133 2.592324972
35.10055161 -41.0254097 4.457633972
35.16406631 -41.02880859 6.33666563
35.19140244 -41.00442505 8.22654438
9.722146034 -12.17201138 0.7741225958
35.02232742 -41.25990295 2.60136342
35.05599976 -41.24379349 4.472158909
35.09037018 -41.21395111 6.351370335
35.13822556 -41.21312714 8.248859406
9.65154171 -12.16940975 0.7756751776
34.89158249 -41.39385605 2.607350588
34.91984177 -41.37175369 4.47815752
35.00426102 -41.41423035 6.367042065
35.00302887 -41.34266663 8.25569725
9.584296227 -12.17421341 0.7772841454
34.51411819 -41.25400162 2.601043463
34.72162628 -41.44165039 4.478622437
34.63671112 -41.2732048 6.33638525
34.76731873 -41.36963654 8.242869377
9.516526222 -12.17396355 0.7788091898
34.11935425 -41.07546616 2.593010664
34.21196365 -41.07548141 6.297605991
34.1391716 -40.92078781 8.143588066
9.441170692 -12.16417885 0.7803280354
33.73724747 -40.92198944 2.586115837
33.80891418 -40.93873215 4.421919823
33.86291504 -40.94831467 6.269271374
33.8251152 -40.84875488 8.11315155
9.368555069 -12.15708447 0.7818312049
33.35275269 -40.73312378 2.577640772
33.4199295 -40.75970078 4.400333405
33.42056274 -40.70645523 6.225459099
33.44952774 -40.67237473 8.065478325
9.306294441 -12.16195297 0.783316195
32.94503021 -40.52641678 2.568374872
33.03518295 -40.58150101 4.378935337
33.06875229 -40.55405807 6.194613934
33.07872009 -40.51184464 8.02020359
9.239619255 -12.16504097 0.7848644853
32.55773544 -40.35383987 2.560655594
32.65151978 -40.41450119 4.358402252
32.65123367 -40.34679413 6.155451775
32.68481827 -40.33358765 7.971216202
9.180063248 -12.17239285 0.7863274813
32.20000076 -40.21299744 2.554373741
32.27010345 -40.23188019 4.336826324
32.31648636 -40.23538208 6.129546642
32.31031799 -40.17438126 7.926025391
9.102408409 -12.15299892 0.7877084017
24.30397797 -30.7747879 2.130228281
24.34357262 -30.77282143 3.479601383
31.9323349 -39.97886658 7.876068115
9.040553093 -12.15662289 0.7891494036
24.07154846 -30.69031715 2.126479626
24.09458542 -30.67910957 3.467405081
24.133461 -30.67646599 4.816854
31.62842941 -39.87046051 7.8421731
8.976289749 -12.15682316 0.7905792594
23.80596924 -30.57295227 2.121262074
23.83157158 -30.56534195 3.453476667
23.85440254 -30.54339027 4.791379929
31.53501129 -40.03424835 7.856937885
8.914624214 -12.15984535 0.7919991612
23.52157593 -30.4290905 2.114860773
23.55844116 -30.43609047 3.438230753
23.58402634 -30.41805649 4.76709938
31.45442772 -40.21489334 7.874773502
8.850568771 -12.15943432 0.793407321
23.26329231 -30.31495285 2.109802723
23.29889297 -30.3209343 3.424324036
23.31978035 -30.29742432 4.7435956
31.36310387 -40.3830452 7.890384197
8.779252052 -12.14924526 0.7947980165
23.00731468 -30.20095634 2.104757786
23.03800201 -30.20117188 3.41007781
23.05911827 -30.17845535 4.720452785
31.28328896 -40.56655884 7.908790112
8.708587646 -12.1433897 0.796248436
22.75224876 -30.09579849 2.100121975
22.78784561 -30.102808 3.397643089
22.81163025 -30.08392143 4.70037508
31.20040512 -40.76170349 7.928573132
8.652724266 -12.15618706 0.7977021933
21.53342628 -28.74176216 2.039340734
21.56629562 -28.74750519 3.273084641
21.55691719 -28.6883831 4.506314278
23.38114357 -30.99936104 6.168238163
8.510375977 -12.06597805 0.3088269532
8.589139938 -12.15450668 0.7990649343
21.30455399 -28.64546776 2.035108328
21.33376694 -28.64692116 3.260904551
21.34413528 -28.61358643 4.489782333
21.50239372 -28.78165817 5.761836052
8.44006443 -12.0541811 0.3119704127
8.528089523 -12.15570831 0.8004203439
21.06692314 -28.5351963 2.030253649
21.08646965 -28.52444267 3.246837854
21.10073471 -28.4965744 4.467727661
21.22266579 -28.61888313 5.723022461
8.387208939 -12.06905842 0.3140841424
8.462320328 -12.15023232 0.8017576933
20.83516312 -28.42997932 2.025632143
20.84630203 -28.40853882 3.233422279
20.87645912 -28.41192436 4.449793339
20.75618553 -28.20700455 5.6401577
8.329130173 -12.07263184 0.3165280521
8.400714874 -12.1539135 0.8031628132
20.60680771 -28.33666039 2.021557808
20.61681747 -28.31401253 3.221818209
20.63992882 -28.29859924 4.42847538
20.41337395 -27.96172714 5.586767673
8.271136284 -12.07593346 0.3189623356
8.345928192 -12.16226196 0.8044987321
20.37581635 -28.22728157 2.016761303
20.39547729 -28.21782494 3.210279226
20.39850807 -28.17598534 4.406046391
20.21267891 -27.89151764 5.565108299
8.207295418 -12.07091618 0.3217234313
8.288814545 -12.16714382 0.8058212399
20.14823532 -28.11983299 2.012057066
20.17860794 -28.12524796 3.199118137
20.17954063 -28.08077049 4.387369633
20.00444412 -27.80912971 5.541442394
8.151847839 -12.07688618 0.3240039051
8.236481667 -12.17822838 0.8071460724
19.93467331 -28.02884865 2.008099079
