# .PCD v0.7 - Point Cloud Data file format
VERSION 0.7
FIELDS x y z
SIZE 4 4 4
TYPE F F F
COUNT 1 1 1
WIDTH 1332
HEIGHT 1
VIEWPOINT 0 0 0 1 0 0 0
POINTS 1332
DATA ascii
11.50515461 28.43759155 1.791277409
2.526089668 11.80753422 2.686128616
2.214039087 11.19771385 3.018193245
2.973703146 12.51088619 3.743749619
2.619429111 11.82245636 4.046791553
2.55395627 11.96799088 0.49492535
11.38756466 28.12468529 0.6973383427
11.53367138 28.27396774 1.783556461
2.576627016 11.81381702 2.687981606
2.230590582 11.14365578 3.009851456
2.986217499 12.43917656 3.730283499
2.850780964 12.14852715 4.13827467
2.59539628 11.95195389 0.4925743639
11.71218967 28.50076866 0.6861369014
30.07161903 61.52726364 2.605512857
2.616546154 11.79634285 2.686453104
2.342977047 11.26426983 3.034032106
3.101700068 12.55467701 3.759401798
2.929386616 12.19629192 4.154942989
2.628061771 11.92004967 0.4910942912
11.87921524 28.57510948 0.6790537834
29.87721252 60.68389893 2.576285601
2.326194763 11.14710903 3.01405549
2.990486383 12.26635456 3.69652319
2.980300426 12.1946764 4.15832901
2.658584833 11.88000202 0.4899077415
29.97800446 60.35258484 2.5594666
2.724684 11.80641651 2.690088511
3.67265439 13.40904427 3.438911915
3.055493832 12.28385925 3.703635454
2.704689264 11.87226486 0.4870868027
30.24027824 60.33320618 2.550777912
6.771155357 18.75209808 3.70452857
3.733958721 13.4151926 3.442343712
3.098047256 12.26654053 3.702684402
3.061724901 12.15098953 4.154485226
2.739013672 11.84807587 0.4853419662
6.65004158 18.40776825 3.656013966
3.782278061 13.40354729 3.442370653
3.081142664 12.09954834 4.144284725
2.775150299 11.82268238 0.4835010171
30.36365891 59.61807251 2.517531872
6.878154755 18.65888405 3.694558859
3.118106842 12.07378387 4.141292095
2.827205896 11.82482529 0.4800967276
30.18014336 58.83270645 2.490598917
38.21256256 72.0333252 8.580136299
6.967142105 18.66927528 3.698008776
7.055478096 18.74504471 4.4496665
3.868961573 13.30104923 3.949562788
3.15397048 12.0462265 4.137850285
2.865250826 11.80258751 0.4780661166
30.44856453 58.82910156 2.482549429
6.842564106 18.31924057 3.648771286
7.003306866 18.51716232 4.410343647
3.741715431 12.99136353 3.881810904
3.184702396 12.01021099 4.132138252
2.912336111 11.79571056 0.4751518369
5.357182503 15.9607935 0.8479280472
30.51598358 58.48344803 2.466395378
6.959221363 18.37723732 3.659250975
7.176463604 18.66726303 4.442091942
3.766533852 12.9380331 3.872988462
3.236467361 12.00908375 4.135993004
2.941252708 11.76227665 0.4739223719
5.296430588 15.73883438 0.8483685255
30.63075447 58.24360657 2.453235149
7.039535522 18.38037109 3.661648273
7.150307655 18.48534393 4.411444187
4.090909004 13.37754154 3.977858067
3.204129696 11.87426281 4.103108406
2.984203577 11.74821091 0.4714088738
5.201953411 15.46922112 0.8498774171
30.91267776 58.26174164 2.445808649
7.13848877 18.40677834 3.667608261
7.013016224 18.13032913 4.347973824
4.143420696 13.3712759 3.979909897
3.258630514 11.87795258 4.108345509
3.016828537 11.71687031 0.4698937535
5.288780212 15.49872303 0.8461306095
31.19099426 58.27176666 2.438197851
7.097828865 18.20424461 3.640017033
7.137087822 18.19850731 4.364459515
4.24454689 13.43861771 3.999216557
3.281404495 11.83008766 4.099498272
3.092857361 11.75714111 0.4641874433
5.373842716 15.52437401 0.8424283862
31.38031197 58.13369751 2.427159309
7.128849983 18.12041283 3.629862309
7.141093254 18.07132339 4.344129086
6.252309322 16.56763268 4.727480888
4.095942497 13.0489521 4.43879652
3.1277349 11.73343086 0.4623747766
5.389288902 15.43529987 0.8407506347
31.6051693 58.07608414 2.418412924
7.198349476 18.1058197 3.629804373
7.515683174 18.53892326 4.436306953
6.292203903 16.5109787 4.719182968
4.153728008 13.05237293 4.44437027
3.175943136 11.7271452 0.4593603909
5.399604797 15.34445 0.8392966986
32.08409882 58.40594482 2.418182373
7.232921124 18.02855873 3.620677233
6.53083086 16.84480667 4.119222164
7.375342846 18.11171532 5.095411301
4.481989384 13.47692013 4.566322327
3.215755701 11.70708179 0.4571520686
5.519521713 15.42542076 0.8345708251
32.26311111 58.2478981 2.406754732
7.358216763 18.09558105 3.63283062
6.582068443 16.80366516 4.115005493
7.460502148 18.11421776 5.101461411
4.198272705 12.93766689 4.422663212
3.240666389 11.66316891 0.4563649297
5.475680351 15.24297237 0.8346709609
32.44146729 58.08930206 2.395366192
7.12929678 17.60434914 3.562746763
6.658655643 16.80230331 4.11838007
7.529911041 18.09156227 5.101737499
4.221138477 12.88193417 4.412287712
3.285609484 11.65130997 0.4536610544
13.31366444 27.44785309 1.697717071
7.087784767 17.4122982 3.536725998
9.222205162 20.57897758 5.687179089
4.257498264 12.84742737 4.407810211
3.317687035 11.61904335 0.4521803558
5.40597105 14.91329479 0.8344195485
13.39962006 27.37909508 1.69257772
7.032135487 17.20072937 3.507816076
7.735361576 18.2218895 4.395941257
9.394565582 20.69494438 5.720780849
4.300110817 12.82259083 4.40605402
3.368234396 11.61983681 0.4488659203
5.451524734 14.87706661 0.8319235444
13.50233078 27.34665298 1.688447714
7.068693638 17.13959503 3.501017332
5.095431328 14.05175114 3.605619192
5.778505325 15.04187202 4.405693054
7.026988983 16.87587929 5.536606312
3.393949747 11.58181381 0.4479043186
5.43162775 14.74479675 0.8314557076
13.55609894 27.23829079 1.682650208
13.60439587 27.20287895 2.777739763
7.122369766 17.10495758 3.498166084
5.160614491 14.05667686 3.60960412
5.800343513 14.97401905 4.394394398
8.685046196 19.2606163 6.206548691
3.42711091 11.55545998 0.4462334514
5.463257313 14.69330025 0.8294513226
13.63774014 27.1734066 1.677840352
12.90019226 25.93850708 2.696121693
7.345901966 17.38998604 2.843985558
7.20327425 17.11155319 3.501456499
5.20627737 14.03168583 3.607923985
5.83052969 14.91924477 4.386179447
7.934735775 18.00780678 5.865363121
3.456890106 11.52398968 0.4448777139
5.439883709 14.5580883 0.8291199207
7.273763657 17.29813576 1.458546042
7.360710144 17.3623085 2.148795605
7.325599194 17.24136353 2.829141378
8.070191383 18.29958153 3.67997241
5.305613518 14.08702755 3.621640444
5.498673916 14.32469749 4.251285553
6.593061924 15.89366817 5.282907009
3.503083467 11.50543404 0.4422020018
5.456770897 14.47515297 0.8274758458
7.315560818 17.22511482 1.454526901
7.330180168 17.18629646 2.136921406
7.344364166 17.14068794 2.819482803
8.066022873 18.15013313 3.6607759
5.543428421 14.28101349 4.246265888
6.502678394 15.63809776 5.219032288
3.526734591 11.46088028 0.4414878786
5.495175838 14.4304781 0.8252394199
7.374604225 17.19071579 1.451584578
7.369674206 17.11690712 2.131864786
7.381973743 17.07502747 2.813508511
7.757131577 17.56412315 3.576438427
7.738154888 17.46753883 4.27701807
5.605550289 14.26794243 4.248260498
6.637514114 15.72619915 5.250538826
3.561282635 11.4328804 0.4397464991
5.560218334 14.42066956 0.8221390843
7.424616814 17.14282799 1.448364377
7.428348541 17.08243561 2.129082918
7.348259449 16.89858055 2.795867682
7.792767048 17.4924469 3.568482161
8.746479988 18.82002449 4.541095734
5.888644218 14.58153152 4.327123165
7.445203781 16.78927803 5.555617332
3.580072165 11.38159561 0.4394717813
5.595991135 14.37728786 0.8200442195
7.477787971 17.09975815 1.445262194
7.472307682 17.02628517 2.124943972
7.378673077 16.82998085 2.789574623
7.90437603 17.53205299 3.577127218
8.279335976 18.01521111 4.390902519
5.69498682 14.20533085 4.243079185
3.615444899 11.35507774 0.43764323
5.629415035 14.32560635 0.8179753423
7.583790779 17.13413239 1.443813682
7.526753426 16.99170303 2.122223854
7.412647724 16.76111031 2.783328295
8.218357086 17.8634491 3.629344463
5.4247365 13.77176952 3.578471422
6.020584106 14.57502747 4.335556507
7.501969814 16.6376667 5.528198242
3.67105031 11.35808849 0.4339322448
5.678415775 14.29695129 0.8154299259
7.643694401 17.10041046 1.44092536
7.603181362 16.98296165 2.121136665
7.465564251 16.72003365 2.780058146
8.573338509 18.24827003 3.689702988
5.610909939 13.94350815 3.615136623
5.805459023 14.16785717 4.244279385
6.691500664 15.37155342 5.179019928
3.689756632 11.31115818 0.4335740209
5.570566654 14.04100895 0.8177679181
7.72118187 17.09800911 1.438811421
7.697926044 17.00011253 2.121711731
7.532020092 16.69838333 2.778880358
8.612444878 18.18266678 3.682781219
5.566467285 13.78452969 3.588088036
6.758469582 15.36550808 5.184120178
3.732852221 11.29574203 0.4310231209
5.627726555 14.03055477 0.8150404096
7.805028915 17.09822655 1.436646104
7.588825703 16.66860199 2.776810408
8.700048447 18.17977333 3.685423851
5.612469673 13.75973701 3.586770773
5.699543953 13.83032131 4.174101353
5.719993591 13.80637741 4.750392437
3.746611595 11.24217319 0.4311086833
5.600021362 13.89378071 0.814922452
13.32631016 24.84012032 1.594501257
14.01620674 25.72344971 2.673830509
7.692068577 16.69846916 2.781175137
7.552724361 16.44572067 3.428646803
5.752466679 13.86184597 3.610251904
5.778824806 13.84665871 4.183125496
5.801323891 13.83024883 4.763379097
3.799898148 11.24119854 0.4276137948
5.622252464 13.83411217 0.8133020997
13.37497234 24.73247147 1.589090586
14.1060648 25.66744041 2.66957283
7.719990253 16.62757492 2.774786711
7.923548698 16.8497982 3.492114305
5.817205906 13.86208153 3.613898993
5.803212643 13.79095936 4.174787521
6.681177139 14.95068169 5.088038445
3.838734865 11.22336102 0.4253807068
5.697391033 13.8445673 0.8099728227
13.49441433 24.73354149 1.586087823
13.74964619 24.997015 2.626458883
7.761921406 16.57090187 2.769998312
7.984391212 16.82360458 3.491021156
5.756846905 13.6843996 3.583231211
5.920781136 13.85912037 4.196327209
6.544911385 14.66725922 5.014398098
3.879329205 11.20408249 0.4230555296
5.693659782 13.74894142 0.8091832399
13.5388689 24.62066841 1.580619454
13.19329834 24.04924202 2.565813065
7.826570511 16.55159378 2.769155502
8.088795662 16.851408 3.498237371
5.754859447 13.59347248 3.569198608
5.987952709 13.86170483 4.202029228
6.34804821 14.29993439 4.917015553
3.905858994 11.16521263 0.4220170677
5.757098198 13.74271965 0.806227386
13.61556816 24.5531311 1.576096654
13.33320522 24.08139229 2.56729579
7.90450573 16.54455185 2.769716978
8.995531082 17.97458076 3.670415163
5.782634258 13.53932571 3.562523842
6.029526711 13.82442093 4.198513031
6.435228825 14.32110786 4.930205822
3.94629693 11.14566994 0.4197016954
5.827653408 13.74591827 0.803044498
13.71320724 24.51443672 1.572171092
13.89854431 24.68545914 2.604961395
7.986061573 16.54197502 2.770789862
8.972462654 17.81955528 3.650417328
5.798390388 13.46925545 3.552764893
6.136528969 13.87529087 4.216208935
6.35953331 14.12305069 4.880823612
4.002024651 11.14691544 0.4159913361
5.867648602 13.70681858 0.8008357882
13.93150425 24.63976097 1.571516395
13.99434662 24.64265633 2.601712942
13.64660454 24.08137703 3.57815814
9.215967178 18.02515793 3.684847116
5.849189281 13.44675541 3.552316427
6.209879875 13.87997532 4.222909451
6.396140575 14.07687187 4.874825954
4.024662495 11.10289669 0.4152965248
5.943070412 13.71588993 0.7974964976
13.93564796 24.47284126 1.565065026
14.0722065 24.57541656 2.596950054
14.65588856 25.26834106 3.707259655
8.611964226 17.09402657 3.547609806
5.755237103 13.23125553 3.514126778
6.278652668 13.87803268 4.228090286
6.352562428 13.92486954 4.838493347
4.063758373 11.08128452 0.4130997658
5.9948349 13.69247627 0.7949147224
14.06667519 24.47777367 1.562028408
13.75750828 23.98319626 2.559035778
14.81721783 25.30742645 3.713714123
9.155745506 17.69922829 3.642570019
5.800506115 13.20254421 3.51248455
6.595671654 14.20274734 4.312222481
6.390753746 13.88187313 4.833430767
4.087240696 11.03873825 0.4123167098
6.01541853 13.62721634 0.7933397889
14.20515156 24.49166679 1.559167385
13.87267876 23.96946716 2.557727098
15.46210575 25.98472595 3.788637877
9.442227364 17.95604897 3.685040474
5.937861443 13.29472542 3.534625769
6.115924835 13.47996902 4.143312931
6.407399178 13.81092739 4.820355892
4.129190922 11.02460003 0.4097894132
6.065736294 13.60190105 0.7908117771
13.89855862 23.9240551 1.545217037
14.04590607 24.03160286 2.561239958
15.60732174 25.99511147 3.792205811
6.707928181 14.2609396 3.127727509
6.155338287 13.48959255 3.57709074
6.230555058 13.54357147 4.164134502
6.416665077 13.73553944 4.805638313
4.154230595 10.98801899 0.4087896049
6.147614479 13.62268448 0.7873077989
13.9056673 23.77568817 1.539465904
14.15268421 24.01333809 2.559720278
15.09496975 25.15568542 3.704459429
7.33684206 14.98761463 3.240928411
6.044760227 13.26093769 3.536062002
5.810353756 12.91564846 4.017188549
6.423142433 13.65715027 4.79005146
4.19662714 10.97066689 0.4062858522
6.173915386 13.56995296 0.785605967
13.96216869 23.68481445 1.534700632
14.25953674 23.99462128 2.55819869
15.50999737 25.52828407 3.74686408
7.373680115 14.93448067 3.23596096
6.056491852 13.19227409 3.526521683
6.510781288 13.67846394 4.803734303
4.235342979 10.94839478 0.4041130543
6.220454693 13.5392704 0.7832064629
14.02191639 23.59857368 1.530049324
14.25215149 23.81134605 2.546284437
15.03180885 24.73710632 3.664331913
8.330162048 16.06006241 3.410678625
6.124528408 13.18727493 3.530006647
5.878881931 12.82836914 4.007420063
6.706182957 13.8355732 4.856974125
4.27329731 10.92145634 0.4020721912
6.232353687 13.4592905 0.7818983197
14.48668957 24.0253067 1.534920931
14.34293556 23.76379204 2.542987347
15.02548122 24.55041885 3.646914005
6.302737713 13.36805058 3.003360271
6.156242371 13.14016724 3.524993896
5.924016476 12.80079365 4.006367683
7.169596672 14.32249355 5.006893635
4.318021774 10.90675545 0.3993574679
6.301907063 13.45833778 0.7787538767
14.24035645 23.54539108 1.522900581
15.72782707 25.35369492 2.643031597
14.87076378 24.18580246 3.610206604
6.384318829 13.38244247 3.008460283
6.293159485 13.22127819 3.545677185
6.348461151 13.2443819 4.12095499
7.229664326 14.30272961 5.009326458
4.338272095 10.86793423 0.3987042606
6.307607174 13.38016033 0.7777492404
14.59236431 23.84618187 1.525788426
15.3841877 24.76252556 2.605506897
14.90062428 24.06601524 3.599764824
6.307060719 13.20572948 2.984057188
8.542755127 15.95499802 4.093196869
6.380944729 13.20629883 4.117048264
7.544438362 14.60834122 5.106088638
4.406449318 10.88268566 0.393892765
6.425802708 13.44478226 0.7730481029
14.42970848 23.47768974 1.5159688
14.89822578 23.98298073 2.556114197
14.85396862 23.85133934 3.579100609
6.249175549 13.04640007 2.962574005
6.451670647 13.25727367 3.561139822
6.437648296 13.19393444 4.119792461
7.56137228 14.53268433 5.092499256
4.433242798 10.84851551 0.3927150071
6.476947784 13.41943073 0.7705090046
14.50685501 23.42140388 1.51210773
14.89451694 23.82249641 2.545819998
15.0600729 23.9444809 3.591861725
6.321764469 13.0545578 2.966634989
6.350225925 13.04493237 3.523355007
6.379930973 13.03640747 4.087175369
7.623666763 14.51786804 5.096342564
4.466626644 10.81911087 0.3910095394
6.523352623 13.39250755 0.7681711316
15.14964962 24.05949402 1.520728707
15.02449894 23.8206768 2.545555115
15.16510677 23.91896629 3.591720104
6.361532211 13.01753712 2.963943481
6.38035059 13.000453 3.518801928
6.515907764 13.12118149 4.113926411
7.666046143 14.47377205 5.092087269
4.504926205 10.79580402 0.3888643086
6.537929535 13.32166195 0.7668501139
14.67220688 23.3063736 1.504092932
15.04227161 23.68820763 2.537086964
15.25148487 23.86198044 3.588357449
6.404938221 12.98499107 2.961970091
6.426194668 12.970994 3.517512798
6.745984077 13.31406593 4.16786623
6.920635223 13.4788084 4.807613373
4.551990032 10.78318882 0.3859403431
6.533200264 13.22760677 0.7661796212
14.73120403 23.21974564 1.499589801
15.65335083 24.27266312 2.573852539
15.49213982 23.99246025 3.605380058
6.550635815 13.07635212 2.97914958
6.609364033 13.10729408 3.549525023
6.364666939 12.76819229 4.039133072
6.976856232 13.45811176 4.809746265
4.590195179 10.75955868 0.3838017285
6.588786602 13.20796204 0.7635084987
14.75043678 23.08510971 1.494257689
15.00734901 23.32477951 2.514021873
6.888026714 13.44169331 2.46228981
6.683123589 13.15004921 2.993693352
6.702451706 13.13318062 3.559508801
6.408451557 12.73732281 4.037719727
7.021760941 13.42373657 4.807902336
4.633423805 10.74193764 0.3812176883
6.634170055 13.17574501 0.761179924
15.20273781 23.47419167 1.498201132
15.0841589 23.25104713 2.509344578
6.927823544 13.40108395 2.459506035
6.724454403 13.11333084 2.991226912
6.71023941 13.05238056 3.5483284
8.257826805 14.84350395 4.568225384
7.07915163 13.40408993 4.810483456
4.714949608 10.77017784 0.3752548993
6.698209763 13.16156769 0.7581888437
14.56894112 22.55521011 1.479141831
15.62362671 23.73779488 2.540041924
6.9811759 13.37227535 2.458113194
6.644033909 12.93221855 2.966392279
6.762711048 13.02926731 3.548553705
8.663682938 15.22396755 4.6705966
7.117553234 13.36192894 4.806442738
4.709544659 10.69390678 0.3769598305
6.746458054 13.13686848 0.7558087707
14.9736557 22.88411903 1.482009768
15.74300957 23.71862793 2.538869858
7.102205276 13.43209553 2.466241837
6.684597015 12.89563942 2.9639678
7.253960133 13.52536678 3.653592825
8.657370567 15.12154675 4.652452469
7.216755867 13.39071083 4.823596478
4.750950813 10.6772213 0.3744736016
6.808382511 13.12394524 0.7529304624
15.07863045 22.86107445 1.478867412
15.36592102 23.12204742 2.501314163
7.113483906 13.35740471 2.459822178
6.67261219 12.8018074 2.952495337
7.526460648 13.7131319 4.307374954
7.286055088 13.38832664 4.831143379
4.806558132 10.6771059 0.3707406819
6.834569454 13.07291698 0.7512978315
14.91005707 22.51632881 1.470222116
15.37577534 22.98530579 2.492782116
7.100153446 13.25890636 2.450725794
6.792254925 12.86174774 2.964993954
9.044816971 15.42791843 4.050178051
7.362921238 13.43951702 4.245553017
7.43225193 13.47395515 4.865136147
4.803851604 10.60844326 0.3721232414
6.899503231 13.06744862 0.748360157
15.0114584 22.490242 1.467082143
15.65333939 23.16069412 2.503963232
7.096707344 13.17269707 2.442979097
7.271318436 13.335392 3.042182684
7.491147518 13.54428959 3.67276144
7.286376476 13.26448059 4.208652496
7.611248493 13.59546471 4.91010952
4.838949203 10.58081627 0.3702447712
6.952778816 13.04804039 0.7458171248
14.92059994 22.23343086 1.459915519
15.95580196 23.35376549 2.516298532
7.1385746 13.13929844 2.441026211
7.322399139 13.30713749 3.041329861
7.540729046 13.51723099 3.672400236
7.314245701 13.21450996 4.202799797
7.691494465 13.59838581 4.920134544
4.887042522 10.56814289 0.3672286272
7.004227161 13.02204418 0.7432987094
15.41475201 22.65208435 1.46412456
16.08779907 23.35572624 2.516603708
7.187709332 13.1099062 2.439626932
7.33932972 13.23987484 3.034399033
9.37249279 15.50303745 4.083935261
7.471613884 13.30689335 4.233281612
7.705841541 13.52648544 4.907710552
4.968365192 10.58985806 0.3613744378
7.055094719 12.99098206 0.7407640219
15.41251945 22.48952866 1.45843029
16.11311722 23.2196579 2.508253336
7.250756264 13.09191799 2.439600706
7.39228344 13.20944595 3.033450842
7.538190842 13.33070278 3.645803928
7.550882339 13.30545139 4.240578651
7.750614166 13.48471642 4.904867172
5.011329174 10.57063198 0.3588118851
7.144173145 13.00325298 0.7369287014
15.34211731 22.25858498 1.451795816
16.25820351 23.21982193 2.508533478
7.293955803 13.05127716 2.437114954
8.712943077 14.60584354 3.256897449
7.572186947 13.28233624 3.641433239
7.667491913 13.34939671 4.259119034
8.736854553 14.49313354 5.219909191
5.049932957 10.54973412 0.3565696478
7.176238537 12.95889378 0.7351147532
15.57340431 22.37708282 1.451073527
16.27349472 23.08891678 2.500546455
17.21023941 24.06013107 3.651998281
8.763530731 14.57164383 3.255470037
7.66863966 13.30779457 3.65199542
7.849540234 13.46901226 4.296670437
8.501356125 14.1438961 5.123570442
5.088490486 10.52868652 0.3543306589
7.264004707 12.9771471 0.7313975096
16.26553535 23.00864029 1.458645105
16.08535576 22.73211479 2.478324652
23.41065216 30.79488373 4.398667336
11.50713539 17.51976776 3.725145102
9.560196877 15.31355476 4.070810795
7.815221786 13.34420872 4.272523403
8.576643944 14.13942814 5.131828785
5.118003845 10.49409294 0.3529329002
7.293254852 12.9294672 0.7296847105
16.39464951 22.99765396 1.455572248
16.28184128 22.79740906 2.482795715
23.44117165 30.63089561 4.3852005
11.5368681 17.4370079 3.717251539
9.182782173 14.8048048 3.97208333
9.220458031 14.79764175 4.651215076
8.829890251 14.32366467 5.198316574
5.174170494 10.48902607 0.3492244482
7.328415871 12.88428783 0.7277363539
16.50780487 22.96825218 1.452209234
16.45905685 22.84733772 2.486311436
11.55402851 17.3973217 2.925670385
11.57827568 17.36743164 3.711471319
10.05498981 15.6580658 4.155265331
7.863480568 13.22920418 4.258144379
8.778494835 14.17539692 5.163441181
5.2277174 10.48073006 0.3457456827
7.362051964 12.83753014 0.7258448005
16.83135223 23.16872787 1.45249331
17.07498169 23.35926437 2.519094467
24.98022842 31.89383507 4.535187721
11.4954958 17.16340446 3.684357405
9.117904663 14.53792477 3.930192471
7.883069038 13.16081333 4.248775959
7.982772827 13.22938919 4.883645535
5.243830681 10.42797756 0.345556587
7.396212101 12.78730583 0.7239035368
17.27958298 23.49315262 1.454523683
16.41888618 22.49180222 2.464728355
24.90653992 31.58823776 4.506892204
7.691113472 12.94900036 3.018800259
8.620806694 13.90995598 3.806157112
7.921658039 13.11737251 4.245452404
8.054460526 13.21652126 4.890066147
5.276994228 10.39729977 0.3438338041
7.440292358 12.75212479 0.7216601968
17.21007156 23.26072884 1.447950363
17.12743568 23.09664154 2.503474474
24.2195034 30.63812637 4.406657696
7.730294228 12.90739441 3.016160488
8.706180573 13.90643787 3.812108278
7.906951904 13.0131731 4.226882458
8.136125565 13.21805573 4.90053606
5.304031849 10.36666584 0.3425227106
7.483562469 12.72016048 0.7194834948
17.25964928 23.17377663 1.443974376
17.1478138 22.97954178 2.496542215
17.21941948 22.98173523 3.559087038
7.814169884 12.92163086 3.02207303
8.711585045 13.83118439 3.802184105
8.758767128 13.83681679 4.447147846
8.159869194 13.16660309 4.893723488
5.380655289 10.382411 0.3370607495
7.529474258 12.69096088 0.7172176838
17.4822197 23.25592804 1.442318559
23.99357605 30.09575844 2.947384119
17.25131989 22.8699894 3.550450802
7.85324049 12.87961483 3.019441366
8.703886986 13.73815346 3.788861275
8.843547821 13.84087086 4.456367016
8.248373985 13.17456532 4.906376839
5.410920143 10.34834766 0.3355838954
7.630825996 12.71641159 0.7129915953
17.82100105 23.4588871 1.442475557
23.94299698 29.84976387 2.932557344
23.85769081 29.66352844 4.313514709
7.852377415 12.79579544 3.010126591
8.767662048 13.71606541 3.790744781
8.96750164 13.88065243 4.475415707
8.526686668 13.37879944 4.980195045
5.467179775 10.34169483 0.331876874
7.638922215 12.64265728 0.7120094895
23.93011665 29.7209034 1.53377223
24.44790077 30.17773056 2.954151869
23.98530197 29.59742165 4.311551094
7.804263592 12.66342068 2.9929986
8.216641426 13.05585384 3.658387899
9.141078949 13.97060299 4.507706165
8.249268532 13.00701714 4.874884129
5.458644867 10.26695061 0.3337152004
7.624543667 12.54585743 0.7118192315
23.95981789 29.55157852 1.527477145
24.54143524 30.07186699 2.948326349
23.91488647 29.32559204 4.286593914
7.816154003 12.5943346 2.986043453
8.282309532 13.03956604 3.661288261
9.093243599 13.83136177 4.480319023
8.326804161 13.00302601 4.884052753
5.506481171 10.25134087 0.3307256699
7.663682938 12.50549984 0.7097684741
23.90395737 29.29461288 1.519929886
23.95368385 29.26228714 2.897933483
24.7248497 29.96270752 4.36370039
7.856813908 12.55519199 2.983937502
8.312072754 12.98619938 3.656410217
9.428609848 14.08421803 4.555616856
8.375706673 12.9694252 4.884055614
5.522116661 10.20555973 0.3304291368
7.734673023 12.49803638 0.7066059113
23.93091965 29.13495255 1.514061451
24.19598007 29.31414223 2.902172804
7.920358658 12.54340553 2.986080408
8.313860893 12.90458012 3.645567894
9.266368866 13.83350849 4.498583317
8.482853889 12.99869442 4.903356075
5.566831589 10.1897831 0.3276495337
7.789766788 12.47788239 0.7040343881
24.07598686 29.09695435 1.51000154
24.27868652 29.21121407 2.896590233
8.296625137 12.84801579 3.039633036
9.407060623 13.92940712 3.869587421
9.306303978 13.78900719 4.495639324
8.537956238 12.9748621 4.90608263
5.603363514 10.16224575 0.325620681
7.805635452 12.41753578 0.7028419971
25.27144623 30.11504173 1.520985126
24.37505341 29.12225342 2.891932249
8.413807869 12.8832922 3.049865007
9.462659836 13.89971542 3.870048046
9.324676514 13.71854877 4.486347198
8.604804993 12.95837116 4.911752224
5.620151997 10.11470509 0.3252671659
7.890690327 12.42349052 0.6991877556
25.38435936 30.02602768 1.515893817
24.5028038 29.05503464 2.888748884
8.400651932 12.78731823 3.038780689
9.425173759 13.77266216 3.850121975
9.409691811 13.71460152 4.49468565
8.498217583 12.76995373 4.863017559
5.653633595 10.08412552 0.3234913051
7.951947212 12.40489483 0.696370542
54.36537933 58.8443985 1.919817448
10.36178112 14.65053844 3.347982883
8.356282234 12.62661648 3.611875772
9.42202282 13.63844395 4.483952045
8.508824348 12.69869995 4.851318359
5.68842411 10.05483437 0.3216019273
7.983485699 12.3563633 0.6946035028
54.77968216 58.85404587 1.912374973
8.685574532 12.9042263 3.067196131
8.590345383 12.77557659 3.650549412
9.396045685 13.52521706 4.463346481
8.544230461 12.65205097 4.847463608
5.731466293 10.0368576 0.3189598918
8.02050972 12.31337929 0.6926468611
55.14765549 58.83520889 1.904911995
8.442638397 12.58762455 3.019725323
8.633038521 12.73524475 3.648717642
9.434280396 13.47536564 4.459618092
9.063819885 13.07886791 4.994498253
5.770383835 10.01147461 0.316718936
8.065365791 12.28211021 0.6904486418
8.383528709 12.44936466 3.001668692
9.84104538 13.8282299 3.89126873
10.2790966 14.20898438 4.665329456
9.134264946 13.06284237 5.001002312
5.809237003 9.985929489 0.3144822419
8.150729179 12.28637028 0.6867842674
8.784905434 12.7952137 2.458221912
8.350768089 12.33787441 2.987983227
9.467000008 13.37898731 3.801658869
10.31825352 14.1547699 4.661118507
9.486977577 13.31630898 5.094309807
5.865228653 9.976896286 0.3108001351
8.217607498 12.27207375 0.6837750673
8.480066299 12.45667171 1.837299466
8.824832916 12.7512064 2.455933332
8.336021423 12.24462128 2.977289677
8.682483673 12.54301167 3.627651691
10.391366 14.13299179 4.665689945
9.511710167 13.25427341 5.086449146
5.893939495 9.941278458 0.3094165623
8.242778778 12.21721077 0.6822502017
8.488517761 12.38458347 1.83328855
8.444996834 12.30638504 2.407716751
8.277589798 12.11050987 2.959804773
9.087342262 12.84682369 3.700861692
10.48734665 14.1324873 4.676105022
9.5929842 13.24578953 5.095945835
5.932622433 9.915225983 0.3071915209
8.296603203 12.18995762 0.6797093153
8.594161987 12.40137005 1.83500278
8.329558372 12.08204079 2.959843159
8.783997536 12.4743166 3.627241135
11.48165131 14.97043133 4.914491177
9.724236488 13.28360653 5.120604515
5.97413063 9.891762733 0.3047279716
8.359584808 12.16728306 0.6768128872
8.706161499 12.39073563 2.42305541
8.37422657 12.04654503 2.958751678
9.41350174 12.98331642 3.74591279
11.49503231 14.89060211 4.903714657
9.801573753 13.27013683 5.128786564
6.015481472 9.871153831 0.3022263348
8.436090469 12.16492844 0.6734958887
8.639968872 12.28911209 1.829075098
8.717909813 12.32598972 2.418276548
8.649380684 12.22977161 2.994015217
9.640293121 13.11471176 3.782008171
9.823758125 13.20954895 5.121062279
6.019012928 9.811859131 0.3029417694
8.487914085 12.13894463 0.6710613966
8.676136017 12.24762917 1.827055216
8.741046906 12.27214622 2.414769173
8.846227646 12.33355141 3.016434908
10.68915462 14.00295734 3.984995365
9.890982628 13.18626022 5.126220703
8.522627831 12.09292221 0.6692114472
8.862249374 12.34098148 1.833733439
8.793778419 12.24183846 2.414149761
9.05125618 12.44282818 3.039941549
12.24796867 15.34173965 4.289110184
8.561570168 12.0508709 0.667213738
54.14735031 54.0279808 1.768908739
8.952057838 12.3439436 1.834643483
8.822922707 12.18974972 2.411031961
9.028285027 12.34176636 3.028172493
9.579332352 12.81135082 3.738140583
8.603310585 12.01138687 0.6651189923
54.27609253 53.77556992 1.758795619
9.100441933 12.32778072 3.031096935
9.648603439 12.79141903 3.741619349
8.666628838 11.99542046 0.6622804999
8.992515564 12.22577667 1.828515291
10.04133415 13.13835812 2.527504921
9.665266037 12.76122952 3.10962081
8.721533775 11.96762466 0.6597165465
22.18601799 24.02479172 2.589068413
8.864096642 11.99662209 2.39733696
9.585051537 12.60700989 3.089048862
8.773418427 11.93691063 0.6572635174
60.92399979 58.67444229 1.797839046
22.38560677 24.04196548 2.591821671
8.890766144 11.94309998 2.394119024
9.396442413 12.3619976 3.052659988
8.868048668 11.94807434 0.6532976031
61.26425934 58.59399414 1.789665699
22.4979229 23.98824883 2.589967012
9.249718666 12.18775272 2.425786495
9.447704315 12.3314352 3.052746534
8.926998138 11.92688656 0.6506201029
23.21307945 24.53042412 1.379368067
22.62215233 23.94462585 2.588801622
9.451708794 12.29057407 2.440933704
9.485944748 12.28530979 3.05049181
8.968360901 11.88606262 0.6485520005
22.56201744 23.79314041 1.367640495
22.70229149 23.85372925 2.584708929
9.202945709 11.99379349 2.409192324
9.550999641 12.26254559 3.05228281
9.014102936 11.84903717 0.6463284492
22.56930161 23.63911438 1.362846732
22.55445862 23.56453133 2.567810535
9.244527817 11.95231915 2.40753293
9.685211182 12.29925823 3.064378738
9.061245918 11.81313515 0.6440569162
22.29010773 23.2378521 1.35526669
22.13659859 23.0370636 2.535557985
9.474847794 12.07334423 2.425172329
9.59967041 12.14616585 3.043786049
9.138957977 11.79964256 0.6406493783
22.34202194 23.12571526 1.351056218
22.19234085 22.92965317 2.530452013
9.524723053 12.03383064 2.424018383
9.703793526 12.15626526 3.051405907
9.158280373 11.74334526 0.6394219995
17.66980743 18.97938919 1.301835895
22.45303726 22.99699593 2.536741972
9.607097626 12.02961063 2.42676115
9.662517548 12.04249859 3.037578344
9.173158646 11.67964268 0.6383339167
17.87290382 19.03084755 1.30013752
18.11360359 19.17944717 2.290072203
9.499433517 11.86072063 2.41004324
9.231693268 11.65689373 0.6356860399
17.2476387 18.37648773 1.290606141
17.14273071 18.23553848 2.23020339
9.477544785 11.76920891 2.402371645
24.2492981 24.0076561 6.429991722
9.19406414 11.54940224 0.6365237832
17.1519413 18.17323112 1.286106348
17.153965 18.12890244 2.224785328
9.515329361 11.72416592 2.400451183
24.24725151 23.84375 6.410152435
9.244931221 11.51652241 0.6341365576
17.06892776 17.98235321 1.281789899
17.09526634 17.95275688 2.215007544
9.706718445 11.80596828 2.413836718
22.77925873 22.53543091 4.908987045
24.17341805 23.61384201 6.375869274
9.322223663 11.50156498 0.6307585835
17.23325729 17.9971199 1.279683709
17.12985802 17.86078835 2.210668564
24.18863678 23.53513336 5.097806931
24.33362389 23.58453751 6.387306213
9.398975372 11.49322319 0.6274529099
17.2633152 17.90071869 1.276417732
17.13929367 17.74856377 2.205025196
17.1449852 17.70859146 3.136147261
23.3043251 22.65760994 4.955311298
24.5300045 23.59159279 6.406509399
9.440469742 11.45190144 0.6254145503
17.09916306 17.65272713 1.271733165
17.22444153 17.70425034 2.203774691
17.33057785 17.73974037 3.145674467
23.2663002 22.48087502 4.935925484
24.58570671 23.47620201 6.39814949
9.47068119 11.40513611 0.6238190532
17.02204704 17.4715538 1.267676115
17.1910305 17.55819893 2.195950985
17.26490402 17.57366562 3.130994797
23.55077744 22.5559082 4.962034225
24.39735222 23.17417717 6.344952106
9.527477264 11.37606144 0.6212248206
17.16728783 17.4761219 1.265629649
17.24293709 17.48730659 2.19300127
17.35560608 17.52769852 3.13125062
18.31077385 18.24336624 4.202801228
24.47163773 23.07537651 6.340455055
9.566783905 11.33652401 0.6193011403
17.10446739 17.30809212 1.261768103
17.0016861 17.1777916 2.174419165
17.40582466 17.45521355 3.128018618
18.44124603 18.22327805 4.209703445
24.48576164 22.93708992 6.325721741
9.637545586 11.31815434 0.6161970496
17.1928997 17.26101875 1.259125233
18.09577942 17.93042374 2.225940943
17.53862 17.44181442 3.132379532
17.6707592 17.49611664 4.089365959
24.43604088 22.74171066 6.298355579
9.697341919 11.29076099 0.6134982109
17.28754807 17.21847343 1.256536126
17.81827354 17.59163857 2.205490351
17.15281296 17.02271843 3.086829662
18.45941353 17.99176788 4.189290524
9.714582443 11.22983265 0.6123715043
17.21809959 17.04759979 1.252741814
17.58127213 17.2881031 2.187344313
17.25298309 16.98523521 3.088230133
18.48734665 17.89142418 4.181883812
18.32577896 17.72226906 5.133519173
9.764725685 11.19465065 0.6100343466
17.26634026 16.96920395 1.249853015
17.68728638 17.25259399 2.186987162
17.34049988 16.93752289 3.088427305
18.0827198 17.45953178 4.114152908
18.41093254 17.66732979 5.135493279
18.16607475 17.4302063 6.062207222
9.806660652 11.15668869 0.6080272794
17.13113022 16.76139259 1.246005416
17.53828812 17.02693558 2.173902988
17.35226059 16.83731461 3.081843376
18.06969833 17.34287262 4.102520943
18.45997047 17.59064484 5.131548405
9.845316887 11.11612892 0.6061441302
17.10043526 16.62389183 1.242633581
17.64523888 16.99245262 2.173663855
17.48431396 16.82884216 3.086713076
18.17914009 17.30776787 4.106899261
17.98750687 17.12035751 5.032232761
9.861746788 11.05494308 0.6050636768
17.20930481 16.59309769 1.240249634
17.80360794 17.00208282 2.176305771
17.53648567 16.75359726 3.083627462
18.19800949 17.20403481 4.098760128
18.33998871 17.26807976 5.083411694
9.925790787 11.02989006 0.6022228003
17.27026367 16.52566338 1.23754859
16.9229126 16.22507858 2.126416206
17.62671471 16.70685577 3.084157228
17.83081055 16.81271744 4.037543297
18.49687576 17.26706505 5.098738194
9.972220421 10.99132729 0.6000372171
17.29144096 16.43408775 1.234758019
17.48740959 16.53485107 2.149299622
17.66563797 16.62162209 3.079900265
17.87695122 16.73781204 4.034027576
18.68266869 17.28632927 5.119245052
18.86873627 17.33125877 7.146021843
10.03123188 10.96566677 0.597409904
17.23139763 16.27696609 1.231324553
17.19791794 16.20752144 2.129469633
17.74483299 16.57194901 3.079837322
17.98322487 16.70147705 4.038275242
18.47344971 17.0203743 5.068972588
18.95723152 17.32646179 6.148703098
10.10000706 10.94329071 0.5943985581
17.42175865 16.3054409 1.229489923
17.155056 16.07048416 2.1223104
17.81377792 16.50880241 3.078450441
18.89547348 17.25311089 4.152374268
18.49904633 16.92232513 5.06069231
18.99994278 17.23867035 6.142631054
10.14460659 10.90282249 0.5922881365
17.31708717 16.11679459 1.225849271
17.20395851 15.99029732 2.119218111
17.60666466 16.20011711 3.966761112
18.53662109 16.82745171 5.054023266
19.07227898 17.16645622 6.142500401
10.21669292 10.87859249 0.5891346931
17.35866547 16.03594971 1.223132968
17.27745438 15.93347836 2.117622852
17.79853249 16.26589775 3.06127739
17.67111206 16.13515472 3.965629101
18.90551949 16.97631836 5.107339382
10.26748753 10.84590435 0.586820662
17.78777313 16.23438644 1.22266984
17.43034172 15.93345356 2.119912624
17.80873299 16.16661644 3.055020809
17.87448692 16.16930008 3.983275414
19.22291756 17.0911541 5.151823521
10.33456707 10.82106209 0.5838794112
17.8677063 16.18478584 1.220302701
17.47673607 15.86193657 2.117273092
17.90566635 16.12384987 3.056380272
17.96055603 16.12429047 3.985553741
19.14018631 16.91435242 5.124311924
10.34617615 10.76003075 0.5830324292
17.67461014 15.93540192 1.216295958
17.42924881 15.71849346 2.109875202
17.91031265 16.02103806 3.049715996
18.13373375 16.13467216 3.999031544
18.53544807 16.37814903 5.00513649
10.39352417 10.72084427 0.5808331966
17.6458168 15.80991173 1.213396788
17.51414871 15.67459011 2.109160662
17.58886337 15.68451691 3.013166189
18.78521729 16.48391151 4.076830387
18.49178696 16.23409081 4.985243797
19.15899277 16.6531086 6.087539196
10.44560623 10.68847561 0.5784808993
17.62228012 15.68339157 1.210418224
17.67202377 15.67579842 2.111690521
18.24497414 16.03773689 3.065629482
18.58946991 16.23327065 4.040863514
18.63026237 16.22275734 4.998200893
19.21743965 16.583395 6.086371422
10.49768353 10.65228271 0.5761100054
17.7696476 15.68187714 1.208488226
17.97706032 15.78338623 2.121447086
18.19091606 15.88854027 3.053404331
18.62370491 16.14931679 4.036170483
18.79276657 16.22140503 5.014743805
10.55949497 10.6262579 0.5733978152
17.80786133 15.59859943 1.205865145
18.43219757 15.98612213 2.137964249
17.97231865 15.63306713 3.026885509
18.30583763 15.81896305 3.984479427
19.76053047 16.77418709 5.172828197
10.57353973 10.56351662 0.5724570751
17.80120087 15.48472214 1.203044772
18.62723541 16.01280785 2.142328501
18.06966782 15.58995342 3.02846694
18.40206718 15.77359962 3.987758398
19.88121223 16.73822212 5.181530952
10.64348412 10.5390749 0.5694240332
17.79235077 15.36994457 1.20024538
18.24139023 15.63862705 2.119169712
18.94693375 16.07357407 3.099530458
18.45208359 15.69661999 3.9849751
19.12471962 16.11182976 5.037569046
10.67865658 10.49074078 0.5676980615
17.67269707 15.18639946 1.197105169
18.14006424 15.46032238 2.109510899
19.09572029 16.06009102 3.105439901
18.66945076 15.73719025 4.004633904
19.22693825 16.06661415 5.043518543
10.7352314 10.46036053 0.5651915669
19.23191071 16.12921906 1.201517463
18.18315506 15.38544941 2.106895447
18.47844315 15.54102707 3.043936014
19.36921883 16.09670639 4.087214947
10.80506897 10.43858814 0.5621883273
19.04335785 15.88935089 1.197846413
18.20266914 15.29499054 2.103217125
18.43360901 15.40691662 3.033329725
18.93567657 15.69674969 4.021277428
10.90991688 10.43600178 0.5578494668
18.3209095 15.29959202 1.1920017
18.26771927 15.22934246 2.101432085
18.31391907 15.21912003 3.015897274
19.08023262 15.68001556 4.030826569
10.99654007 10.42073727 0.5541965961
18.36929131 15.2223711 1.189519644
18.23385239 15.09893703 2.095139503
18.30350113 15.10417747 3.008171797
19.75683784 16.00798416 4.109192371
11.08490562 10.4060688 0.5504789352
18.44422531 15.16243458 1.187160134
18.32847404 15.05264664 2.094765186
18.34279442 15.02197933 3.004858255
19.73410797 15.87894249 4.096900463
11.17164135 10.38616562 0.5468042493
18.50892448 15.09564114 1.184771657
18.51625252 15.06045055 2.098391533
19.85335732 15.87813759 3.129088879
19.65548134 15.71487808 4.077535152
11.25512695 10.37090778 0.5432915092
18.8690815 15.22330475 1.183631539
18.50404739 14.95001793 2.093425035
18.32118416 14.79405975 2.989686728
19.68086624 15.62375355 4.07211256
11.31169891 10.33801174 0.5407956243
18.81589508 15.07984447 1.180806518
18.72767258 14.9896183 2.099107265
18.65199089 14.90219879 3.012023211
11.27523804 10.24242783 0.5417979956
18.9446888 15.05213165 1.178660154
18.77155495 14.9090662 2.09647131
18.63303947 14.78288555 3.003816366
11.32634354 10.2024498 0.5394971967
19.42711258 15.25045967 1.17784214
18.82023048 14.83155346 2.094078779
18.7862587 14.77138424 3.010447025
11.38421535 10.17011642 0.5369613767
19.38524246 15.1135025 1.175091863
19.16257477 14.9359293 2.104733944
18.9084053 14.74505329 3.014724255
11.41644192 10.11807632 0.5353804231
19.34024239 14.9809885 1.172497869
19.36384392 14.9562521 2.109300613
20.11800194 15.37932777 3.111278772
11.47244835 10.08421135 0.5329202414
19.71256828 15.10469627 1.17121923
19.76168633 15.09512329 2.12247467
19.41259766 14.84308243 3.045001268
11.49595165 10.03032303 0.5316940546
19.8986969 15.10676098 1.169207215
19.68204498 14.94159222 2.114644527
19.42104721 14.74481392 3.039570332
11.54480076 9.988229752 0.5294930935
20.14679337 15.14485168 1.167359233
19.77022743 14.88458633 2.11397624
31.95295143 22.14667511 4.090106487
11.8867321 10.12162304 0.5161745548
20.41089058 15.19061756 1.16552937
19.93039322 14.87012672 2.116443872
34.06712723 23.23674393 4.258025169
12.03733921 10.13832092 0.5101095438
20.35560989 15.04498672 1.162830353
20.49745369 15.089674 2.136244774
32.98323441 22.42115021 4.156921387
12.18814087 10.15031624 0.5040184259
20.60030556 15.07114506 1.160802841
20.65363121 15.06885147 2.138437986
20.247715 14.79210567 3.083061934
12.26687813 10.12272167 0.5006825924
20.63918114 14.98103523 1.158381224
20.52147102 14.87923241 2.128278255
12.17272186 9.994360924 0.503924191
31.74603081 21.30386925 1.181785941
20.71369743 14.87856483 2.132040977
31.9650631 21.31733322 4.042615414
33.60160446 22.20871925 5.681556225
12.21488094 9.949291229 0.5020042658
31.64690781 21.09142876 1.178144693
20.79104614 14.81639862 2.131126165
31.50933075 20.90148735 3.996073008
32.96352386 21.68287659 5.590901375
12.2482357 9.899082184 0.5004225373
31.04980469 20.58858109 1.173325777
31.93604088 21.04613686 2.59813571
32.91502762 21.54555511 4.103366375
33.39920807 21.76207542 5.632053375
12.23082066 9.816425323 0.5007620454
31.17219162 20.4985733 1.170120835
31.91200638 20.86978912 2.590788603
32.88238907 21.36042595 4.0913167
33.38490295 21.58559036 5.617923737
12.3018856 9.783961296 0.4977350533
31.12524986 20.32106209 1.166775107
32.4628067 21.01583099 2.607614994
33.32277679 21.44010544 4.118152618
12.36089611 9.748039246 0.4951857328
31.3727417 20.30042839 1.163843989
34.52507019 21.99603271 2.687414885
33.1762886 21.14394569 5.568747044
12.42487812 9.710972786 0.492433548
31.95856667 20.47290039 1.161660552
31.77571487 20.31852341 2.566836357
32.56958008 20.70092201 4.038793087
33.76633453 21.30981255 5.629122257
33.75571442 21.24734116 7.129001617
12.48025513 9.672517776 0.4900277555
31.5160656 20.06972313 1.15754354
32.28171921 20.43519211 2.581747293
32.59635544 20.56093788 4.032513618
33.88959885 21.20917511 5.632062912
12.54058456 9.632897377 0.4874202609
31.60394287 19.96706581 1.15453577
32.3567276 20.3225975 2.57907939
32.67514801 20.44128418 4.030081272
32.84662247 20.48792839 5.494636536
33.88250732 20.99034882 7.120706081
12.54831505 9.568227768 0.4868400991
31.73533249 19.87970924 1.151446104
26.82857704 17.19194412 2.345958233
33.4851532 20.72150421 4.087198257
33.55656815 20.70508766 5.568784714
12.63809013 9.540450096 0.4830985963
26.06796455 16.69425583 1.140439034
32.47356033 20.06336784 2.571897268
34.13139343 20.84491539 5.626358509
12.71075058 9.510297775 0.4800427854
26.12186241 16.59721184 1.13794148
26.26352882 16.62918472 2.313166618
26.83463669 16.88709641 3.535620928
34.36262894 20.80805016 5.643060207
12.8187561 9.498392105 0.4756367207
26.11442566 16.46132469 1.135256648
25.77906036 16.24958611 2.288901806
26.82018471 16.75189781 3.527717352
34.70683289 20.82029152 5.672678947
12.87520504 9.455230713 0.473190695
26.01948929 16.28039742 1.13250792
25.84832191 16.15598297 2.286998987
26.89646721 16.65761757 3.52678299
12.97947788 9.436595917 0.468916297
25.91744804 16.10361671 1.129928589
25.85155296 16.02818871 2.282465219
25.65590286 15.88628292 3.421057701
34.31028748 20.28964233 5.603030682
13.0005455 9.378219604 0.4678449333
25.68546867 15.85507298 1.127145648
25.95391655 15.95150471 2.281960964
25.77464676 15.82543468 3.424204588
34.31373978 20.12618065 5.59224081
13.02822304 9.319630623 0.4665103257
25.61437988 15.69076729 1.124568462
25.8752079 15.78905773 2.274464607
25.97601318 15.79937553 3.433578968
13.09672928 9.281674385 0.4636142254
25.44425583 15.47765541 1.121958137
25.95448494 15.69425774 2.272880316
26.04020882 15.70326233 3.432106733
13.13266182 9.223436356 0.4619571865
25.53961945 15.39902878 1.119584799
25.97364616 15.57570362 2.269165039
25.97800446 15.53786659 3.420404196
27.18054581 16.09994125 4.718140125
13.16909027 9.172644615 0.4603112042
25.97102165 15.49272251 1.117545366
25.90915489 15.42249966 2.26240778
26.14261246 15.49790192 3.427250624
26.36666107 15.57443714 4.614108562
27.00839424 15.84851646 5.891237736
13.17487717 9.10669899 0.4598448277
26.03426933 15.39609337 1.115153313
25.93552017 15.31471443 2.259292364
26.4112587 15.50779629 3.442239761
26.41042328 15.46745777 4.610860348
27.03449821 15.73705387 5.885278225
13.29141235 9.091349602 0.4551168978
25.95152283 15.22833252 1.11271739
25.82014084 15.13196564 2.25043726
25.97351074 15.16747189 3.40170002
26.37677383 15.32316303 4.59861517
27.06276131 15.62030411 5.879221439
13.27668095 9.011775017 0.4554335177
25.70403862 14.98226357 1.110265136
25.9199791 15.05417919 2.250078201
26.07159233 15.08841133 3.403147697
26.45192719 15.23165512 4.599190235
27.13525963 15.5248661 5.880160332
13.41481209 9.005821228 0.4498801231
25.90632248 14.95371056 1.108003974
25.84101295 14.89070702 2.242775202
26.16226387 15.00542355 3.404048681
26.45312691 15.10484409 4.591193676
27.04454613 15.35202026 5.855752945
27.3722744 15.46669769 7.125529766
13.54227257 8.993855476 0.4447378218
25.86774635 14.81601906 1.105806708
25.88957596 14.78858376 2.240492105
26.18233871 14.88879681 3.399510384
26.39194489 14.95545483 4.576433182
26.72886467 15.07487392 5.796564579
13.60515594 8.954294205 0.4420924783
26.33963203 14.87448311 2.253766537
25.88864136 14.6320858 3.371085882
26.58853722 14.92076206 4.591300011
26.75401115 14.96555519 5.791031837
27.50613022 15.27541161 7.127871513
13.60777283 8.882669449 0.4417569339
26.17921829 14.71740437 1.101412892
26.69754219 14.92059803 2.263622761
26.01052094 14.56439018 3.3745749
26.33500862 14.68323517 4.554429531
26.76140785 14.84188747 5.782345772
13.54704094 8.785579681 0.4438757002
25.97294426 14.49659061 1.099175453
26.71896744 14.80296326 2.260300398
25.92139053 14.4054327 3.362150908
26.33941078 14.55997181 4.547179699
27.18566322 14.91527557 5.838620663
13.62530422 8.749314308 0.4406376481
25.92556381 14.3505497 1.096980572
25.43543816 14.0967474 2.207287312
26.14441109 14.38337612 3.373473167
26.43388557 14.4779253 4.550396919
13.70898533 8.715069771 0.4371935129
26.5552597 14.51195908 1.094700813
25.5613842 14.03225136 2.208208323
26.44585037 14.39518261 3.390774012
26.68417549 14.46550941 4.571573257
27.57344055 14.833354 5.878853321
13.79445648 8.681162834 0.4336830378
27.02711487 14.60403633 1.092506647
25.75655174 13.99808121 2.211772919
26.58740616 14.33347607 3.395824671
26.91057014 14.44708633 4.590348721
13.87306976 8.647343636 0.4304501116
26.33044434 14.17279434 1.090639234
25.81070518 13.90621185 2.21018219
26.70101547 14.26489449 3.399046659
26.80235672 14.27947807 4.570768356
13.94799614 8.611470222 0.4273616672
25.95150566 13.88752937 1.08877039
25.87189293 13.81734467 2.208884478
26.22249794 13.93605709 3.357317209
27.03232002 14.26105595 4.589971542
14.02104473 8.574383736 0.4243482053
26.16477585 13.86444283 1.086711645
26.0610714 13.78411865 2.21243
26.36427689 13.88094139 3.362816334
27.06904221 14.15737057 4.587102413
14.07051849 8.515755653 0.4222165346
26.23445129 13.75934982 1.084415436
26.21668053 13.71684551 2.214150906
26.42662048 13.77235794 3.361499786
27.24388885 14.09417057 4.5989151
14.08646488 8.453469276 0.421412468
26.26255035 13.64854622 1.082367539
26.31262016 13.63540173 2.214024782
26.82695389 13.82616901 3.386530161
27.13220215 13.92070198 4.578927517
14.1770668 8.419381142 0.4177211821
27.00602913 13.84764576 1.079973221
26.34356689 13.53215599 2.21168232
26.79642296 13.68902493 3.378799677
27.16043282 13.81367397 4.575292587
14.24976349 8.380868912 0.4147333503
27.35518837 13.86910439 1.077690244
26.55145454 13.49706078 2.215762615
26.72628784 13.54210377 3.368439198
27.12809181 13.67525959 4.564517021
14.3974762 8.36964035 0.4088419974
26.59481812 13.43242264 1.076361656
26.33639526 13.2911377 2.204362869
26.74985313 13.42872238 3.364913225
27.42019844 13.67774105 4.590817451
14.45905972 8.325488091 0.4062883556
26.47745132 13.26111603 1.074510098
26.32577705 13.16524601 2.200420141
26.66377449 13.27665806 3.353511333
27.69646835 13.66550064 4.614929676
14.52183437 8.277860641 0.4036828279
26.52747154 13.16557884 1.072642088
26.37546158 13.07039928 2.198916674
26.75659752 13.19217491 3.355274439
27.71639252 13.55382156 4.610524654
14.60729694 8.242808342 0.4002125561
27.21897697 13.32328701 1.070072532
26.56227493 13.0247345 2.202297449
27.35795403 13.31804848 3.395146847
27.68271446 13.41451263 4.59982729
14.70327187 8.207816124 0.396329999
27.29892921 13.23712063 1.06817174
26.6022377 12.92533398 2.200482845
27.29721642 13.16951942 3.38548851
28.49662971 13.61900139 4.684519768
14.81652641 8.182821274 0.3917905986
26.99965477 12.99405098 1.066606402
26.62722015 12.8139534 2.197983265
27.53808975 13.14699745 3.398501873
28.4037323 13.45420456 4.667207718
39.20840836 17.57540131 10.79382992
14.8287878 8.113681793 0.391151011
27.57567406 13.10354042 1.064185739
26.70929337 12.73110771 2.197764158
27.34823418 12.94845963 3.379416466
28.47843552 13.36217117 4.669063091
39.31435394 17.45545387 10.80293465
