# .PCD v0.7 - Point Cloud Data file format
VERSION 0.7
FIELDS x y z
SIZE 4 4 4
TYPE F F F
COUNT 1 1 1
WIDTH 1283
HEIGHT 1
VIEWPOINT 0 0 0 1 0 0 0
POINTS 1283
DATA ascii
17.1216774 8.44753933 0.3013317287
49.46785355 20.23340225 1.01785624
50.30835724 20.49722672 3.015864611
37.07175827 15.63602066 4.054513454
22.85787582 10.42600155 4.996320724
18.43723297 8.806349754 5.175670624
21.64327431 9.936485291 6.73696661
50.44400406 20.33435059 3.015259743
37.07378387 15.43747425 5.56309557
19.29261589 9.048451424 4.463819027
18.51470566 8.748497963 5.183754444
19.52088165 9.084241867 6.253465652
49.34517288 19.77222633 1.012378693
38.04203033 15.66270256 4.113022327
37.66416931 15.48822594 5.620173454
19.31335449 8.966983795 4.461473465
18.38950539 8.61879158 5.154336452
19.29257393 8.914728165 6.19485569
49.67841721 19.68250084 1.009038448
48.86253738 19.35398293 2.94877553
37.92496109 15.41926003 5.641000271
19.2590065 8.859303474 4.448141098
18.76223564 8.663917542 5.217154026
21.3110199 9.528547287 6.637979031
48.83272552 19.14927292 2.942917347
25.22016716 10.88772011 3.175082207
38.28100204 15.3897562 5.672639847
19.22902679 8.765091896 4.438742638
18.84549522 8.610847473 5.226696968
19.48516846 8.80933094 6.223430157
50.22449112 19.46564102 1.002737164
48.9980278 19.00231361 2.943732738
25.12457657 10.74319553 3.164179564
33.41584015 13.55935955 5.13339901
19.36496353 8.72367382 4.453495979
18.20649338 8.306589127 5.102776051
19.54957771 8.742779732 6.230482578
48.95482254 18.78347206 2.937284231
24.98109818 10.58339119 3.149910927
33.41981506 13.42502403 5.127472401
19.40893555 8.650299072 4.454788685
17.91848564 8.125863075 5.043908596
19.61244202 8.679855347 6.237605095
50.10311127 19.01682091 0.9977641702
48.68721771 18.48981667 2.923074961
24.71225739 10.38829422 3.126920462
33.26702881 13.23126698 5.104223251
19.47387505 8.588238716 4.459450245
16.94422722 7.72258234 4.859358788
21.67640495 9.278148651 6.688621998
24.74134254 10.28903866 3.125224352
19.80141449 8.608322144 4.502236843
16.76200867 7.584124088 4.820544243
21.80989456 9.23065567 6.710920334
49.68947601 18.47511673 0.9935593605
24.91251564 10.24198246 3.133930922
32.63908005 12.74956512 5.023471832
22.27447891 9.332578659 4.858030319
16.79334641 7.520743847 4.821313381
21.89824867 9.16286087 6.72286272
49.78463364 18.30077362 0.9908648729
35.30451202 13.50970364 3.872789145
32.53626251 12.57770252 5.006115913
18.97476387 8.167047501 4.372118473
16.78248978 7.439822197 4.814147472
22.97391891 9.412057877 6.953140259
35.26459122 13.34807968 3.864953279
21.28816223 8.837877274 3.782686472
18.63003731 7.971125603 4.317268372
20.27814865 8.476426125 5.448291302
23.11338997 9.355849266 6.976178646
50.50372314 18.08266068 2.963046074
26.38220024 10.36078453 4.329240322
18.5619278 7.86536026 4.302784443
19.93410873 8.27779007 5.379558563
23.26813126 9.308657646 7.00299263
51.73466492 18.31115532 0.9794629216
43.40953827 15.6139698 4.43439579
26.36937714 10.24294758 4.322929382
18.61697388 7.802901268 4.306470871
15.4017601 6.782802105 4.547459126
15.38850403 6.762016296 5.259964466
50.55047989 17.69460869 2.955775976
43.5405426 15.47584438 4.437913895
21.20488167 8.533639908 3.761661053
15.38267612 6.721849442 3.833753109
15.40326405 6.711774826 4.543166637
15.41437531 6.698675632 5.260341167
15.5503006 6.746724129 1.752506137
15.40127754 6.684838772 2.438907862
15.41239357 6.672075272 3.134558439
15.39144039 6.65307188 3.831258535
15.44032383 6.651679039 4.545404434
22.11989594 8.657968521 6.728158474
15.37911701 6.638369083 1.0563941
15.4079504 6.631135464 1.746096969
15.40793324 6.615151405 2.437119484
15.42756367 6.608651638 3.133350611
18.02378654 7.37344265 4.207607746
19.75012589 7.87288332 5.323933601
21.17595482 8.284050941 6.514379501
15.40651989 6.590651035 0.3661187291
15.39325523 6.57080698 1.055573463
15.42205429 6.563607216 1.745068669
15.45541573 6.561329842 2.438356161
21.04933167 8.211484909 3.733464003
17.58168602 7.165016651 4.139899254
19.80514526 7.806159973 5.328802109
22.04987144 8.449755669 6.699239731
15.41858578 6.52229929 0.3655916452
15.42918491 6.513330936 1.054751992
21.14207649 8.150866508 3.739821196
17.66418266 7.109940529 4.147755623
19.74012947 7.699717522 5.311698914
19.98163223 7.755127907 6.240051746
15.44669533 6.462306976 0.3644485474
51.378479 16.96597481 0.9666105509
52.52830124 17.25666809 3.001535892
42.3646698 14.26062393 4.3279953
32.54641724 11.37097168 4.956079483
17.97952843 7.125889778 4.189328671
19.45390511 7.534331322 5.254920959
24.24258423 8.895432472 7.165483475
51.4456749 16.77791786 0.964276135
17.62962341 6.945319176 4.13508606
19.37261391 7.425369263 5.235131741
18.484972 7.154139519 5.900988579
51.38913345 16.55448151 0.9622878432
53.88780594 17.23187637 3.039228678
21.61079597 8.005970955 3.778815031
17.63145447 6.86685276 4.131489754
19.73277473 7.44147253 5.295167446
20.20633888 7.555629253 6.270856857
51.75138855 16.4497509 0.9592780471
21.62770462 7.916789532 3.776991129
17.63490105 6.788971901 4.128183842
19.47248459 7.282684803 5.24322176
18.63918877 7.033442974 5.923474312
52.94070053 16.53866577 2.998980522
21.57140923 7.807497978 3.767430544
17.51197815 6.676478386 4.106850624
19.04984474 7.081487656 5.162215233
18.63204002 6.949439049 5.916448116
54.05534744 16.63209915 3.03238821
21.56722832 7.71763134 3.763652802
17.52429008 6.601727009 4.104947567
19.06442833 7.005998611 5.160366058
18.63109398 6.871418476 5.911125183
43.86487198 13.64223385 4.403077602
21.59923553 7.637669086 3.763767958
18.11143112 6.684790611 4.185342312
19.31672478 6.994038582 5.201305866
18.66202927 6.802022457 5.912799835
53.22328568 16.00243378 2.996974468
43.37443924 13.34462833 4.364323616
19.0269165 6.867717743 3.487865448
18.09786034 6.60517168 4.179935455
19.78259468 7.036745071 5.280563354
18.82715225 6.767811298 5.943645954
59.03821564 17.32949257 3.187422514
42.21466064 12.87543201 4.279188633
19.72024155 6.969647408 3.558411121
17.78299522 6.447250366 4.131668091
19.22106552 6.809122086 5.175427437
18.51671028 6.609259129 5.87142992
43.63389969 13.08997154 2.66980958
42.27564621 12.70475197 4.27845192
21.92061424 7.44138813 3.787700176
17.89809418 6.390393734 4.144209385
18.97050476 6.652955055 5.125631809
18.5383625 6.525826454 5.87057066
43.91860199 13.031353 0.9678063393
43.62749863 12.92227554 2.666679621
43.81902313 12.93643284 4.381251812
22.01923561 7.377261639 3.794997692
17.921875 6.321536541 4.144317627
18.94543266 6.568170071 5.117022038
18.55490494 6.453230858 5.869432449
43.74726868 12.81221294 0.9667564631
43.57397079 12.74305153 2.662038088
42.37595367 12.40838528 4.277023315
18.00118256 6.266489506 4.152351379
18.9783783 6.494021416 5.118648052
19.23329353 6.540841579 6.011097431
43.78850174 12.647439 0.9651448131
43.67314529 12.59365082 2.662365437
18.76628685 6.403577805 2.63990593
18.18517494 6.232811451 4.17509222
19.31347275 6.493864536 5.174293041
23.75918198 7.56425333 6.982887268
43.95349121 12.51295948 0.9632074833
44.08255386 12.51958561 2.672991991
18.68836594 6.302636147 2.632472277
18.04183197 6.118613243 4.15146637
19.45728111 6.445181847 5.19575882
23.84496117 7.485478401 6.995537758
57.62129593 15.58932781 3.116681337
44.13918304 12.32457829 4.385960102
18.12048531 6.054619789 4.159192085
20.52796936 6.611712456 5.382225037
23.53816223 7.313129425 6.923695087
57.95448685 15.48601151 0.9191786647
18.82303238 6.140582085 4.255300522
20.71843719 6.568746567 5.411876678
23.67844772 7.247590542 6.948281765
19.09733009 6.15349102 2.654697418
19.07958412 6.122588158 4.288449287
33.86363602 9.516469002 7.746076584
23.6545372 7.143438339 6.937609673
58.15866852 15.05075073 3.123856783
19.00265694 6.049182892 2.646260262
19.15942383 6.058556557 4.296491146
33.95100021 9.400576591 7.755203724
23.75898361 7.0736022 6.954884052
19.09158516 5.991176605 2.650571585
21.68390274 6.55855608 3.735672474
19.20727158 5.991028309 4.300219059
24.01143837 7.031229019 7.003700733
58.02994537 14.62312603 0.9122902751
58.05822754 14.58875275 3.113940001
21.66361237 6.467033386 3.730921745
19.33318138 5.936386108 4.314823151
35.23373032 9.417993546 7.970562935
24.08886909 6.953784466 7.015256405
58.12429047 14.41884804 0.9103956223
21.73726082 6.391655445 3.735900402
19.23351288 5.836126804 4.297873974
19.96306229 5.979195118 5.258245945
24.1518116 6.867829323 7.023508072
19.25634575 5.758728504 4.298070431
19.98249054 5.898609638 5.257949829
35.07010651 9.085272789 9.355223656
58.14268875 13.97311878 0.9072517753
37.21866989 9.4911623 3.881879807
21.07780266 6.070008755 3.661877394
19.46313095 5.719899654 4.324146748
20.02285576 5.822390556 5.261422634
36.06218719 9.153503418 9.560337067
37.25223541 9.350558281 3.881083727
20.00364113 5.763312817 3.547643661
19.71842575 5.68970871 4.357034206
20.0737133 5.752400398 5.266987801
37.06877899 9.173032761 3.865703106
19.92209435 5.666081905 3.536935091
19.74576569 5.615772724 4.358111382
36.69095993 9.03561306 8.198581696
34.50194931 8.568806648 9.213868141
58.3775444 13.3706646 0.9023258686
59.20624542 13.51056194 3.132933617
37.06851959 9.033686638 3.862883806
19.90731239 5.578649998 3.533112764
19.84864807 5.5568223 4.369814873
34.8421669 8.523690224 7.866392136
34.59170151 8.450454712 9.226462364
58.65606689 13.20148945 0.900066793
58.76165009 13.1846838 3.115471125
19.91563225 5.495988846 3.531741142
19.8499279 5.468971252 4.367053509
34.75171661 8.361703873 7.844631672
34.11807251 8.221982002 9.11906147
37.34496689 8.787106514 3.875825882
19.99477959 5.422800541 3.537656784
19.8831749 5.391564846 4.368961811
34.68642044 8.21223259 7.82772398
34.05218887 8.06829834 9.098497391
59.52823257 12.9067173 0.8945494294
37.54470825 8.67794323 3.886615992
19.97126007 5.333981991 3.533074379
19.94147873 5.318752766 4.374420643
36.25910568 8.371208191 8.099303246
33.80745316 7.88847208 9.040329933
59.84680939 12.75014973 0.8923082948
61.04430389 12.93660641 3.180780172
37.44203949 8.511314392 3.876932859
19.97795677 5.255243778 3.531777382
19.70145226 5.19046402 4.338286877
36.25960159 8.229310036 8.094010353
33.77636719 7.756462097 9.028100967
60.39525986 12.62237453 0.8892753124
61.28246307 12.74794769 3.185733795
37.3138504 8.348284721 3.865730047
19.99687386 5.174570084 3.531685829
19.6764946 5.107142448 4.332384586
36.27580261 8.097515106 8.091856956
34.00413513 7.664889812 9.070726395
20.02261925 5.099301815 3.532444
19.74754333 5.037042618 4.339796543
33.53928757 7.470386982 7.60602951
34.24019241 7.580025196 9.115451813
66.76817322 13.29846573 0.8657459617
37.71331406 8.133196831 3.887785196
20.33106804 5.069196224 3.562355518
19.82352829 4.971551418 4.348060131
33.78596878 7.388106346 7.644873142
34.51774216 7.494171143 9.16875267
66.18610382 12.95794296 0.8665369153
37.55335999 7.95827198 3.874499559
19.80823708 4.885860443 4.343539715
37.46837616 7.883284569 8.286180496
38.3972168 8.025918007 9.98634243
45.85316086 9.21773243 4.432678699
32.90530014 7.015790939 4.855892658
19.82321358 4.809592247 4.343404293
32.59664536 6.931137562 7.427494526
37.88676453 7.792499542 9.872203827
65.90341949 12.42370033 0.8652649522
37.97441483 7.741872311 3.898284912
20.50932121 4.852145672 3.575249672
19.9383297 4.745595932 4.357121944
32.67765427 6.816388607 7.437422276
38.28214645 7.717901707 9.950507164
20.49541283 4.764489651 3.572005749
20.38128853 4.737738132 4.41651535
32.18321991 6.615458488 7.346903801
33.48218155 6.803956985 8.928751945
65.98206329 11.93957901 0.8629026413
38.77679062 7.580524445 3.947911978
20.6403904 4.702058792 3.585169315
36.51986313 7.189317226 6.65404129
30.78149223 6.269645691 7.097657204
33.40377426 6.66114378 8.90728569
38.86299515 7.465215683 2.451652765
38.61833191 7.405665398 3.935030699
20.56889343 4.605372429 3.576090813
30.83498192 6.156676769 7.103255272
33.39835739 6.530173302 8.901395798
38.98737717 7.347198486 0.9538484216
38.72154999 7.292963505 2.445779562
38.73542786 7.273670197 3.940764904
20.62491608 4.528457642 3.58017993
34.11316299 6.544770718 6.31332016
30.88224602 6.042521 7.107854843
33.47380066 6.411427498 8.912717819
38.86714935 7.177945614 0.95372051
38.73366547 7.144574165 2.444851637
39.033741 7.167726994 3.958733082
33.87765884 6.37732029 6.277479172
31.05393219 5.946320534 7.134271622
33.64765549 6.306619167 8.944927216
38.86196518 7.033891201 0.9532501101
38.92530823 7.022156239 2.449680567
36.72068024 6.671638489 5.229703903
32.85292053 6.098789692 6.132511139
31.14450455 5.843587399 7.146768093
33.63423157 6.180634499 8.937909126
38.95531464 6.903932095 0.9524626732
36.71586609 6.535885334 5.226780891
33.80006027 6.109237671 6.260765076
31.17036247 5.731330872 7.148048401
31.25272942 5.726004124 8.431434631
65.72118378 10.45538807 0.8587313294
39.81842422 6.838325977 4.00565815
37.88160324 6.560407639 5.343978882
31.77081108 5.69096756 7.24943018
34.72352982 6.080551147 9.159557343
35.65245438 6.105875969 6.511305809
31.80788803 5.578145504 7.252789497
33.1865921 5.74361515 8.831486702
54.37162018 8.477895737 0.8971405029
54.47633743 8.474994659 2.938302755
39.21258163 6.460902214 3.961474895
38.30273438 6.323145866 5.382255077
33.80344009 5.728785992 6.252997875
31.54829216 5.42070961 7.204405308
33.28857803 5.628210545 8.849089622
54.33816528 8.268548965 0.8967399597
54.40449142 8.250569344 2.934524059
39.27521133 6.318089485 3.963947773
35.19698715 5.766370773 6.442599297
31.80308342 5.323554516 7.24556303
34.71699905 5.678050041 9.146054268
54.42303467 8.074259758 0.8959609866
41.11298752 6.385682106 4.085177422
32.81407547 5.33918047 6.111106396
31.94144821 5.216705799 7.266674042
34.39709091 5.505524158 9.074942589
65.85336304 9.244639397 0.85516572
32.76947403 5.212829113 6.102658272
31.41333199 5.036247253 7.172093391
33.86257553 5.310022354 8.958879471
40.77251434 6.039775372 4.059249401
32.67595291 5.074865818 6.087435246
31.51751518 4.926078796 7.187466145
33.85353088 5.185069084 8.953686714
40.31729126 5.840493202 4.027395248
40.41063309 5.832314491 5.586895943
32.66588211 4.953349113 6.083920002
32.38259125 4.906368256 7.335272789
33.94984436 5.06548357 8.970585823
67.18795776 8.66867733 0.8491244316
41.77655411 5.826922417 5.724380016
32.66789246 4.826962948 6.082043171
32.54711914 4.798817635 7.361235142
33.1854248 4.852579594 8.806769371
67.15493011 8.4158535 0.8488815427
40.93800735 5.598185062 4.066020012
38.73015594 5.347406387 5.411366463
32.43495941 4.675971985 6.04790163
32.76817322 4.696135521 7.397089481
33.18913651 4.725185394 8.804503441
67.20728302 8.184714317 0.84839499
40.45775223 5.393126011 4.032657623
38.66145325 5.199876785 5.402658939
32.97418594 4.605138779 6.120149136
32.51049805 4.543548107 7.349929333
33.05735397 4.590559483 8.774059296
38.90582275 5.076367855 5.425884247
32.83828354 4.470748425 6.099632263
32.716465 4.444457054 7.383457184
32.94907379 4.452851772 8.74853611
41.19243622 5.162665367 4.079274178
38.85200882 4.930331707 5.418845177
34.49761963 4.501170158 6.32602644
32.78148651 4.324437141 7.392496109
33.2743454 4.363117218 8.814225197
42.46615219 5.131190777 4.163075924
34.3809967 4.364575863 6.308264256
33.17919922 4.240668774 7.459414959
33.02091599 4.212379932 8.758495331
42.4812851 4.963577271 4.16293335
38.72434998 4.623071194 5.402816772
34.11896896 4.202903748 6.270440578
33.10609818 4.106664658 7.444680691
33.04772949 4.087927818 8.761665344
73.76169586 7.528486252 0.8240889311
45.37369537 5.056762218 4.354567051
38.70070648 4.481015205 5.399091721
34.31917953 4.095300198 6.296408176
32.95539474 3.97304368 7.416704178
32.90190887 3.955218315 8.728886604
73.88288116 7.280810833 0.8236034513
39.06924438 4.371181965 5.435382843
33.88114929 3.934628248 6.234769821
32.82435608 3.8357687 7.392149925
33.08345032 3.849933863 8.764817238
38.28752518 4.161695957 5.354554653
33.35160446 3.76979351 6.160676479
36.37068558 3.990829945 8.004627228
38.19191742 4.117366314 9.832716942
39.29071045 4.090847015 5.455530167
33.13999176 3.625869036 6.130284309
42.49173355 4.305688381 9.062551498
38.08755493 3.965241194 9.808590889
37.1766243 3.82618022 0.9547767639
37.27225494 3.812213421 3.812106848
33.09582901 3.495347023 6.122975826
40.43109512 4.000683784 8.703918457
38.04903793 3.818547249 9.798394203
38.31916809 3.727103949 5.354608536
33.10853577 3.369022369 6.123559952
40.54378128 3.855900764 8.72166729
34.85914612 3.461737156 9.128738403
37.29148865 3.528995514 3.812219381
38.52727509 3.594897509 5.374880791
33.93947601 3.295029879 6.236485958
37.06056595 3.481537104 8.117401123
36.48160553 3.431789637 9.466532707
38.31346512 3.442993164 5.352356911
34.03454971 3.170794249 6.248517513
37.09282303 3.342944384 8.1215868
34.6995697 3.193470955 9.092108727
74.71355438 5.444977283 0.8216146827
40.23703766 3.388273478 8.66414547
34.32215118 3.040089846 9.011685371
75.12758636 5.207835674 0.8204630613
39.14826202 3.204620838 5.43585825
33.16451645 2.870080233 6.127493382
34.24681854 2.911935091 8.994652748
39.28315735 3.063242912 5.448975086
33.32513428 2.757388592 6.148812771
39.66222382 3.064221621 8.562409401
34.23588943 2.781033993 8.991146088
33.35902023 2.631327152 6.152800083
39.53946686 2.909166574 8.540171623
34.25188065 2.651494503 8.993387222
39.96500397 2.795802832 5.517322063
34.2298584 2.541474819 6.271591663
39.56579208 2.761461258 8.543826103
34.12659454 2.515809298 8.96621418
40.2493248 2.663917542 5.545872688
34.37387085 2.416522741 6.290831566
35.73970413 2.460412025 7.881788731
33.75017548 2.377552509 8.88670826
40.05630112 2.504969597 5.525977612
34.24990082 2.287346363 6.273448944
33.84302521 2.252413034 8.905380249
40.22438431 2.367037296 5.542868137
34.39900589 2.16159749 6.293553352
36.35984039 2.21643734 7.987880707
33.87067032 2.130979061 8.91056633
40.22916794 2.215502024 5.543235779
34.64453888 2.044318914 6.326969147
36.22796631 2.081685543 7.964715004
34.09183884 2.008660316 8.956280708
40.85778427 2.088261604 5.607071877
34.73339081 1.914646983 6.33898735
35.31760025 1.920519948 7.807127476
34.18130493 1.88789916 8.974602699
46.55141449 2.09560585 0.925348103
46.61924744 2.084775209 2.675654411
41.3071785 1.944937468 5.652778625
35.25565338 1.791735053 7.796255112
33.83602142 1.750164747 8.902170181
35.29595184 1.667787433 6.416019917
36.38552094 1.680010676 7.991398335
33.74860764 1.619814634 8.883747101
35.28643036 1.533401847 6.414821148
39.95853424 1.599836469 8.608778
33.67052078 1.490239263 8.86739254
39.80337906 1.459509134 5.500605106
33.71516037 1.379012704 6.199701309
40.12220001 1.451865077 8.6372118
34.06375504 1.367066026 8.94964695
39.57419968 1.307267904 5.477686405
33.6907692 1.250057101 6.196634293
40.07841873 1.300888181 8.629922867
35.93263245 1.254452586 9.34039402
39.47970963 1.17231524 5.468485355
35.16386795 1.136877775 6.398861885
40.13655853 1.158331275 8.640342712
38.14169693 1.145218134 9.80234623
39.40869904 1.023174882 5.461792946
34.01511765 1.006577134 6.241848946
40.40510178 1.015961409 8.687232018
38.09519196 1.001664639 9.793100357
39.15014267 0.8746199608 5.436111927
40.41695023 0.8643980622 8.689907074
38.23025131 0.8582607508 9.8219347
35.85557175 0.7395870686 6.495306969
38.25321579 0.7144066095 9.827476501
40.05218506 0.5797665119 5.529257774
35.8963089 0.6031612158 6.501630306
38.34622192 0.5770609379 9.847744942
40.10255432 0.4358464777 5.535195827
36.80051041 0.4639231861 6.626411438
40.07275391 0.2851417661 5.533103466
36.72744751 0.3325189054 6.617280483
36.32680893 0.1935018599 6.563402176
41.03805542 -0.03726666048 5.633487701
36.26657486 0.05698453635 6.55625248
40.88726044 -0.1879867613 5.619347572
36.16049194 -0.07114843279 6.542836189
40.99871445 -0.3373154998 5.631926537
36.10528564 -0.2068703622 6.536548138
36.86381149 -0.3608088195 6.642003059
36.64547729 -0.486035645 6.613436222
29.75375557 -0.2522491813 6.856556416
29.90233421 -0.2614399493 8.091732025
38.0421524 -0.6781136394 6.806882858
29.91487503 -0.3733213842 6.885920525
29.84321213 -0.3743939102 8.080988884
29.50847244 -0.4719516337 6.817095757
28.3248291 -0.4206708074 7.764663696
27.46414375 -0.4854640663 5.356301308
29.58636475 -0.5838787556 6.83214283
28.10091209 -0.5204376578 7.719515324
36.7435379 -1.030167341 0.9735040069
27.47489929 -0.5933073163 5.359210968
30.26226234 -0.7251414657 6.950913906
28.19371223 -0.6285505891 7.740710258
27.47764397 -0.6954769492 5.361014366
24.78336716 -0.5543906093 6.002907276
28.34478569 -0.7403083444 7.77422142
27.03292274 -0.7731776237 5.3013134
24.77412033 -0.6517853737 6.002930641
24.04252815 -0.6138396859 6.874304771
24.65095139 -0.74520123 4.975123405
24.77998543 -0.7549331784 6.005739212
23.99596596 -0.7063026428 6.86640358
24.56786537 -0.8377751112 4.965242863
24.65202713 -0.8449710608 5.985321522
23.90415001 -0.7956804633 6.84909153
57.28038406 -3.067306519 0.9164742827
27.05708885 -1.092699528 5.309711456
24.5890007 -0.9335470796 5.976142883
23.77688217 -0.8821542859 6.824414253
57.57818604 -3.289911985 0.9171370268
29.26226425 -1.348320603 4.452530384
24.29833221 -1.009364247 4.931319237
24.93625069 -1.054810762 6.038375854
23.31181526 -0.9399062991 6.728782177
58.03398895 -3.536723614 0.9174678326
29.23433304 -1.460406423 4.451425552
23.4104023 -1.037233949 4.810534477
25.25780106 -1.171684861 6.096166611
23.27782631 -1.030267239 6.723799706
29.21879196 -1.561881781 4.451464653
23.30698013 -1.118348479 4.797918797
24.21709824 -1.188096881 5.917311192
23.03147125 -1.095205545 6.674055099
29.10682297 -1.667134523 4.441861153
23.33763123 -1.209361076 4.803851128
24.18442726 -1.276957631 5.913649559
23.03403664 -1.187345624 6.676889896
27.07899284 -1.61413455 4.23583889
23.30241585 -1.299892545 4.800845146
24.93863297 -1.435063004 6.047045231
23.17673874 -1.291068316 6.709278584
26.94511032 -1.70938015 4.223969936
23.55314064 -1.414698839 4.83739996
24.53168106 -1.499082923 5.97855711
23.06354141 -1.373921752 6.687948227
26.87681007 -1.804298759 4.218779564
23.89614105 -1.539530873 4.886810303
24.62754822 -1.600227952 5.997511864
23.61732674 -1.510749459 6.806921005
25.36162376 -1.76562655 5.091464996
24.86236763 -1.714871645 6.04075861
23.39860535 -1.580043435 6.763428211
25.4078083 -1.865717292 5.100008488
24.79808807 -1.807487845 6.032117844
22.80170441 -1.611850381 6.640311241
24.81088448 -1.902514577 5.019584179
24.43788719 -1.865509152 5.971809864
22.90958405 -1.713992476 6.665822983
24.87578773 -2.008079767 5.030927658
24.48877907 -1.968140483 5.983367443
23.24489021 -1.840249777 6.739399433
27.69073677 -2.405622721 5.423552036
24.41191864 -2.057655096 5.97271204
22.60443115 -1.865534425 6.607280254
23.59621429 -2.066495657 4.858365059
22.65410614 -1.962719083 5.668498993
22.68261909 -1.960498095 6.626643658
23.67478943 -2.165493011 4.871593475
22.5053997 -2.032775879 5.64510107
22.76382828 -2.060957909 6.64689827
22.52822876 -2.126377583 5.651878834
22.86074257 -2.159285784 6.670414925
22.34191513 -2.190637589 5.621994019
27.74160385 -2.834853172 7.705717087
22.32310104 -2.278835297 5.621611118
22.68320847 -2.321666002 6.639529705
22.25119972 -2.360268354 5.611997128
22.7649498 -2.42361021 6.660278797
22.22652626 -2.442900658 5.610566139
22.69549751 -2.501963854 6.64893055
22.73833847 -2.594888687 6.661444664
22.79442215 -2.689982653 6.676858425
22.76810265 -2.778617382 6.675069809
22.55355835 -2.84013629 6.633385181
22.39118576 -2.907910824 6.60281229
22.39896774 -3.000259638 6.608468056
46.36750793 -9.982049942 2.819859266
46.33703995 -10.14808083 2.822779655
46.29430389 -10.32049274 2.825538158
46.23931885 -10.48096657 2.827708006
-5.156381607 -75.54404449 2.849533796
-5.42531395 -75.6374054 2.86668539
-6.386480331 -88.9309082 3.208850145
-7.235888958 -80.45236969 3.073225021
-5.04816103 -26.36868668 0.8231958151
-7.252668381 -72.22803497 5.460843086
-5.146787167 -26.42306519 0.8278803229
-5.255244255 -26.62478256 0.831143856
-5.357327938 -26.71033859 0.8355926275
-8.029319763 -72.3775177 5.515097618
-5.456852913 -26.88796043 0.8386760354
-8.276790619 -72.63311768 5.544240475
-5.55662632 -26.92091179 0.8436844945
-5.652639389 -26.90165901 0.8491732478
-5.752750874 -26.93390465 0.854197681
-9.107751846 -73.40065765 5.637243271
-5.880699158 -27.29261398 0.8564099669
-9.45945549 -74.55393219 5.723559856
-5.948104382 -26.93355751 0.8648216724
-9.732288361 -74.65118408 5.74548769
-6.232339859 -27.91983223 0.8671998382
-5.028685093 -14.39977741 0.4427067339
-6.367983341 -28.26844215 0.869939208
-5.0858922 -14.43224907 0.4440443218
-6.50000906 -28.55676079 0.8732729554
-5.139313698 -14.42675495 0.4470034242
-5.198412895 -14.47271538 0.4477692544
-6.726904869 -28.73403931 0.8831855059
-5.257407188 -14.51447868 0.448721379
-6.852514267 -28.92139816 0.8874861002
-5.31670475 -14.55601788 0.4496893883
-5.376792908 -14.60129738 0.4505075812
-7.116052628 -29.36405373 0.8958360553
-5.436484814 -14.64039516 0.4515922964
-5.493422985 -14.65548038 0.4536807239
-5.556629658 -14.7380724 0.4528373778
-7.507909298 -29.94814301 0.9091797471
-5.615920544 -14.76658058 0.4543795586
-5.679831982 -14.82653522 0.4546339512
-7.771699905 -30.27619362 0.9189864993
-5.744460583 -14.88821602 0.4548307657
-7.878649235 -30.24926758 0.9250536561
-5.803781509 -14.91008568 0.456661284
-5.866240025 -14.95149803 0.4577004313
-5.930222034 -15.00056744 0.4584373534
-5.165586472 -9.641505241 0.302929312
-5.993022919 -15.03951168 0.4595901966
-8.451365471 -31.08262825 0.9446430802
-5.206755638 -9.663356781 0.3028748333
-6.055492878 -15.07426453 0.4609165788
-8.522447586 -30.81038284 0.9519805312
-5.25330162 -9.716533661 0.300458312
-6.114694118 -15.08707905 0.4631218314
-8.581765175 -30.47683525 0.9594882727
-5.290277958 -9.710515022 0.3024972081
-6.177309513 -15.11938763 0.4645508528
-8.668215752 -30.32084274 0.9661079645
-5.329947948 -9.720089912 0.3033551574
-6.246899605 -15.19085026 0.4644366801
-8.778562546 -30.3449955 0.9716348052
-5.369355202 -9.727554321 0.3043641448
-6.310433388 -15.24085236 0.4650477171
-5.413676739 -9.772498131 0.3024873734
-6.375757217 -15.28224277 0.4661418796
-5.454077244 -9.783577919 0.3032177687
-6.437116623 -15.29977417 0.468172878
-9.53723526 -32.69361496 0.9811026454
-5.497137547 -9.808231354 0.3029313684
-6.50662756 -15.36031246 0.4685325623
-9.685299873 -32.84157562 0.9869811535
-5.535927296 -9.809199333 0.3044025004
-6.574752331 -15.41073895 0.4692967832
-9.794764519 -32.77658463 0.9935886264
-5.579674244 -9.835484505 0.3039866388
-6.646281242 -15.47659016 0.4694768488
-9.903477669 -32.70927429 1.00017941
-5.625178337 -9.869421959 0.3030027151
-6.711771011 -15.5087986 0.4709612429
-5.668187141 -9.889485359 0.3030434847
-6.780649662 -15.55642891 0.4718605876
-5.7038908 -9.882393837 0.3050068319
-6.848619461 -15.61218929 0.4723240137
-5.742001057 -9.886903763 0.3061056137
-6.909719467 -15.63244724 0.474142313
-5.788649082 -9.92211628 0.3050162494
-6.905323029 -15.32522392 0.4884402454
-6.958827019 -16.16103363 2.279128313
-5.022285938 -6.117935658 0.3328541219
-5.834945679 -9.945034027 0.3049032688
-7.024856567 -15.60852051 0.480469346
-5.045866489 -6.108852386 0.334620595
-5.881248474 -9.975959778 0.3041258752
-7.098824501 -15.65813637 0.4814513922
-7.071136951 -16.10480499 2.283484697
-5.071059704 -6.101364136 0.3362396955
-5.920864105 -9.9755373 0.3056372404
-7.187983036 -15.78808022 0.4793197215
-7.134198189 -16.0952816 2.287174702
-5.098534107 -6.109568596 0.3360989094
-5.95609808 -9.955514908 0.3085676432
-7.255746841 -15.81814575 0.4809220731
-7.292422295 -16.1021595 1.078419328
-5.125762939 -6.121815681 0.3354731202
-6.001060009 -9.978149414 0.3083790839
-7.309092522 -15.78364086 0.4849086106
-7.33543539 -16.03100014 1.081571221
-7.250932217 -16.07558632 2.29392314
-5.147625923 -6.110728264 0.3373794556
-6.044305325 -10.00104141 0.3080956936
-7.364297867 -15.77105236 0.4879375696
-7.382949352 -15.98117733 1.084679127
-7.307137489 -16.06285095 2.297007322
-5.171740055 -6.109244823 0.3382311463
-6.087729931 -10.02376556 0.307821542
-7.421759129 -15.76800632 0.4906082749
-7.461555958 -16.06561279 1.08767283
-7.362406254 -16.0460453 2.299812555
-5.196332932 -6.109611034 0.3388731182
-6.122943401 -10.01140404 0.3100846112
-7.483411312 -15.78226089 0.4926418662
-7.417613506 -16.02905083 2.302613497
-5.224195004 -6.096838474 0.3411073387
-6.173275948 -10.02811146 0.3105201125
-7.562507629 -15.81679344 0.4944761395
-7.490024567 -16.0323658 2.307718039
-5.254574299 -6.120177269 0.3392391205
-6.226724148 -10.08084297 0.3081378937
-7.632653713 -15.86352539 0.4953376651
-7.554142475 -16.03946304 2.312479973
-5.284397125 -6.135376453 0.3382822573
-6.281567574 -10.14542198 0.3048357069
-7.608335495 -16.01796913 2.314996004
-5.310645103 -6.141129017 0.338306874
-7.856588364 -16.2692585 0.4860545099
-7.700953007 -16.02989578 1.710510015
-7.665855408 -15.99750233 2.317806721
-5.332650661 -6.125299931 0.3406895697
-6.34954834 -10.09952164 0.3108825386
-7.940309048 -16.34700394 0.4860214889
-7.762378216 -16.02472687 1.714092135
-7.725711346 -15.98651218 2.321311474
-5.364238739 -6.145940304 0.3391216397
-6.395961761 -10.12055492 0.3107681572
-8.01654911 -16.3934269 0.4871171415
-7.821845531 -16.01158333 1.71739161
-7.787015438 -15.98111153 2.325235128
-5.381039143 -6.110729218 0.3435738087
-6.438454628 -10.12597179 0.3117662072
-8.084970474 -16.40861702 0.489322871
-7.853297234 -15.99481201 2.330565214
-5.414329529 -6.136909008 0.3413918018
-6.487261772 -10.15434074 0.3111178875
-8.149929047 -16.41002083 0.4920113683
-5.439885139 -6.134178638 0.3423186839
-6.543511868 -10.20122242 0.3092167377
-8.235955238 -16.48833084 0.4920046031
-5.464379787 -6.127521992 0.3436581492
-6.575224876 -10.16571045 0.313107878
-8.320845604 -16.54807663 0.4928002059
-5.497669697 -6.147235394 0.3421813846
-6.620796204 -10.18004608 0.3134422302
-8.409643173 -16.63137627 0.4926545322
-5.530993938 -6.17097187 0.3402351439
-6.673623562 -10.21914101 0.3120157719
-8.483254433 -16.65850639 0.494466126
-5.557718754 -6.175810337 0.3402825296
-6.723430157 -10.24650383 0.3114190698
-8.560987473 -16.69878006 0.4958290756
-5.57381916 -6.144288063 0.3442228138
-6.769276142 -10.26655769 0.3112689257
-8.643245697 -16.76456642 0.4961884916
-5.59891367 -6.139071941 0.3453576863
-6.807355881 -10.2596426 0.3130164444
-8.719212532 -16.80699158 0.4973568916
-5.066082954 -4.716398239 2.565470219
-5.634927273 -6.169952393 0.3426150084
-6.843921185 -10.24055672 0.3156760335
-8.809480667 -16.88458061 0.497479111
-5.009386063 -4.473690033 2.712858438
-5.666527271 -6.185447693 0.3415144384
-6.897432804 -10.27040672 0.3149473667
-8.900352478 -16.96175385 0.4976333082
-5.021817684 -4.445908546 2.707214594
-5.700610638 -6.208412647 0.3396073282
-6.962165833 -10.34256649 0.3111814559
-8.980891228 -16.99168968 0.4995288253
-5.016876698 -4.293198586 2.26401782
-5.726595879 -6.200467587 0.3410246074
-7.001318932 -10.33058357 0.3133169115
-9.066295624 -17.04706001 0.5004395843
-5.039977074 -4.304525852 2.268794775
-5.010406494 -4.264623642 2.658121109
-5.753125668 -6.198500633 0.3417649865
-7.040430546 -10.31846523 0.3154494464
-9.143777847 -17.07534599 0.5022624135
-5.045336246 -4.316121578 2.676358461
-5.790593624 -6.234715939 0.33839342
-7.091638088 -10.34423065 0.3149241805
-9.217889786 -17.09187508 0.5044769049
-5.046721458 -4.195932388 2.248841286
-5.036133289 -4.222369194 2.650566816
-5.826485157 -6.265082836 0.3356418014
-7.133741856 -10.34761429 0.3158921301
-9.311675072 -17.1795311 0.5042086244
-5.09459877 -4.291484356 2.272553682
-5.835906506 -6.214001179 0.3415685296
-7.180871487 -10.36601639 0.3158067167
-9.402394295 -17.25535583 0.5043485761
-5.090326309 -4.216888428 2.257860899
-5.869471073 -6.236582756 0.339630872
-7.220017433 -10.35959816 0.3174412847
-9.493679047 -17.33077621 0.5045183897
-5.167087555 -4.40158844 2.301905394
-5.907536507 -6.25130558 0.3386438489
-7.273976803 -10.37126637 0.3180581331
-9.592603683 -17.38449669 0.5059673786
-5.205563068 -4.448603153 2.315334558
-5.929909706 -6.239666939 0.3403322995
-7.325387478 -10.39411068 0.3177064955
-9.678635597 -17.44011307 0.5068094134
-5.198076725 -4.364571095 2.298511505
-5.962538242 -6.253882885 0.339283824
-7.374390125 -10.41551399 0.3173891008
-9.768941879 -17.49616241 0.5077870488
-5.198237419 -4.302644253 2.286794662
-5.989468575 -6.255228519 0.3395721912
-7.425549984 -10.43603897 0.3171884716
-9.853242874 -17.54345894 0.5089169741
-5.232625961 -4.348741055 2.299609423
-6.018344879 -6.257919312 0.3397306502
-7.519104958 -10.57690048 0.3086850047
-9.963517189 -17.65346527 0.5081950426
-5.249683857 -4.338730812 2.299755335
-5.064163685 -3.807374716 2.360134363
-6.04793644 -6.262370586 0.3396923542
-10.04531193 -17.66940308 0.5106261373
-5.262605667 -4.313532829 2.296548843
-6.084897995 -6.28311491 0.3379365802
-10.13012028 -17.70308495 0.5123564601
-5.280146122 -4.305276871 2.297111034
-6.107975483 -6.272789001 0.339425683
-10.20724583 -17.72439957 0.5143398643
-5.296749592 -4.297285557 2.297622442
-6.135691643 -6.271275997 0.3399900496
-7.673184872 -10.505373 0.3183832467
-10.29261875 -17.75738144 0.5160986781
-21.7596302 -49.47816467 1.393639445
-5.298747063 -4.244642258 2.287957907
-6.176600456 -6.305103302 0.3368006349
-10.41334534 -17.87509346 0.5153633952
-21.79747963 -49.03858948 1.400902987
-5.374276161 -4.398051739 2.326069593
-6.207135677 -6.306595802 0.3370467126
-10.5219593 -17.96716309 0.5153123736
-21.83943558 -48.6181221 1.408126235
-5.381560326 -4.359971523 2.319818974
-6.238739491 -6.318202496 0.33617419
-10.61604404 -18.02812386 0.5161021948
-21.89553452 -48.24291229 1.415489554
-5.422227859 -4.417800903 2.335708857
-6.276692867 -6.342213631 0.3339992762
-10.662076 -17.9509964 0.5212841034
-22.07234955 -48.19340897 1.424872875
-5.440095901 -4.408994198 2.33628726
-6.302622795 -6.334497929 0.3351702988
-10.72843647 -17.92790031 0.5247869492
-5.433556557 -4.334149837 2.321466684
-5.381670952 -4.217530727 2.494481087
-6.320556164 -6.306299686 0.3384944797
-10.77810192 -17.86170006 0.5295885205
-5.444969177 -4.308839798 2.318175554
-5.389390945 -4.183427334 2.488010168
-6.352232456 -6.313231468 0.3380947113
-10.78361988 -17.68369484 0.5377475619
-20.49839783 -42.6511879 1.414095879
-6.392847538 -6.342213631 0.3353568017
-11.05883121 -18.18992615 0.5252478719
-20.65302849 -42.59905243 1.422369599
-6.432957172 -6.369152546 0.3328262269
-11.22109509 -18.4030323 0.5216745734
-5.516056538 -4.354307652 2.543560982
-6.449994564 -6.33876133 0.336335361
-11.31226826 -18.43544006 0.5235450864
-6.475954056 -6.330424786 0.3375054598
-11.40302277 -18.46558762 0.5254876614
-5.558325291 -4.35399437 2.549524069
-6.49807024 -6.312804222 0.3396426737
-11.51389027 -18.54339409 0.5260267854
-5.57521534 -4.342905998 2.5495193
-6.533193588 -6.326321602 0.3384863734
-8.353514671 -10.71445084 0.3186535537
-11.63076401 -18.63358879 0.5262193084
-6.568449974 -6.339680195 0.3373368979
-11.7344265 -18.69002151 0.5274198651
-5.587813377 -4.268484116 2.535040855
-6.587384701 -6.31444931 0.340241164
-8.47267437 -10.77062798 0.3169860542
-11.81513691 -18.69076157 0.5302510262
-6.617238522 -6.314757347 0.3404442966
-11.9243145 -18.75733185 0.5311730504
-6.653495312 -6.329543591 0.3391124606
-12.05071735 -18.86191177 0.531014204
-6.680264473 -6.322301865 0.3400881886
-8.705020905 -10.97074795 0.3067018092
-12.14593792 -18.89256287 0.5329984426
-6.703343391 -6.310052872 0.3415693045
-8.705946922 -10.86141682 0.315024823
-12.22351646 -18.89137268 0.5357515216
-6.733331203 -6.30989027 0.3417779803
-12.35339355 -18.99795532 0.5355852842
-6.770303726 -6.328308582 0.340013057
-8.826757431 -10.91706085 0.3132725656
-12.46998119 -19.08172798 0.535944581
-6.802079201 -6.331503391 0.3398472667
-8.867901802 -10.89857674 0.3154919446
-12.57852459 -19.12718582 0.5376862288
-6.823509216 -6.308677197 0.3424126208
-8.911027908 -10.87901497 0.3178174198
-12.73994541 -19.2866497 0.5362525582
-6.869178295 -6.338137627 0.3394706249
-8.952038765 -10.86023426 0.3200280964
-12.84377956 -19.327034 0.5380245447
-6.890985966 -6.319291115 0.3415855765
-9.026813507 -10.91364956 0.3174425662
-12.96996212 -19.41406059 0.5385136604
-6.908442497 -6.291383266 0.3446402252
-9.076467514 -10.91252041 0.3184638321
-13.07984924 -19.46425819 0.5400357246
-6.944643497 -6.302958012 0.3435359299
-9.143345833 -10.94723988 0.3171049356
-13.19791889 -19.53019714 0.5411368608
-6.976635933 -6.305402279 0.3433791697
-9.201889992 -10.96363831 0.3169501126
-13.32432652 -19.61179161 0.5418254137
-7.011787415 -6.317268372 0.342217505
-9.24319458 -10.9438448 0.3191729188
-13.13823891 -19.05354691 0.5597115159
-7.05095005 -6.333731174 0.3405666351
-9.30516243 -10.97154427 0.3182089031
-13.42669773 -19.46927261 0.551346302
-7.075752258 -6.323859692 0.3416657448
-9.341194153 -10.94064808 0.321138382
-13.42882538 -19.30360413 0.5585289598
-7.100894928 -6.311501503 0.3430174887
-9.419776917 -10.99543953 0.3184220791
-13.71940708 -19.7132473 0.5504664183
-7.138537884 -6.323951721 0.341753304
-9.461185455 -10.97488976 0.3206475377
-13.67400074 -19.43442154 0.560916841
-7.161327362 -6.303643227 0.3439169526
-9.498017311 -10.94528484 0.3234525323
-14.01955414 -19.94337463 0.5503633022
-7.198771477 -6.318203449 0.3424062431
-9.585560799 -11.01514626 0.3197281957
-14.02049637 -19.77487564 0.5575728416
-7.219326019 -6.296570301 0.344683677
-9.635939598 -11.01637745 0.3204505742
-14.1710043 -19.8911705 0.5574457645
-7.259095669 -6.311966419 0.3430623412
-9.705031395 -11.04822826 0.319203347
-14.40055752 -20.15760231 0.5534491539
-34.54958725 -59.27481079 1.901617289
-7.282346725 -6.295443535 0.3447792828
-9.774419785 -11.07974243 0.317971319
-14.54143047 -20.24897766 0.554042697
-7.33163929 -6.328111649 0.3413206041
-9.834770203 -11.09326553 0.3179051876
-14.6737566 -20.32193184 0.5551303029
-34.93391037 -58.99108887 1.923176527
-7.359933853 -6.317708015 0.3423682749
-9.893626213 -11.09835911 0.318418622
-14.80479717 -20.38166618 0.5567198992
-35.16303635 -58.91990662 1.934899449
-7.38380146 -6.305027008 0.3436475098
-9.939176559 -11.08318901 0.3201994598
-14.95636559 -20.49580956 0.5566430688
-7.418387413 -6.309093952 0.3431539536
-9.999913216 -11.09593868 0.3201516867
-15.11160088 -20.60541153 0.5568567514
-7.452094078 -6.311257839 0.3428476155
-10.05124187 -11.09088802 0.3212499321
-15.27820778 -20.72442818 0.5570108294
-7.507349968 -6.349193096 0.3387674093
-10.11225414 -11.10311222 0.3212153614
-15.4535923 -20.86562729 0.556489706
-7.533256531 -6.339506626 0.3396847844
-10.18311977 -11.132514 0.3200568855
-15.63790417 -21.028965 0.5553015471
-7.547725677 -6.306451321 0.3430393636
-10.25037384 -11.15459824 0.3193644583
-15.72789669 -21.01107407 0.5587826371
-7.572804451 -6.292448044 0.3443806767
-15.8432951 -21.02902603 0.5615255237
-7.632670879 -6.336453438 0.3396068513
-7.667791367 -6.339416504 0.3391385078
-7.695987225 -6.330162048 0.339941442
-7.721147537 -6.315642357 0.3412851393
-7.758398533 -6.321624756 0.3404601514
-7.790656567 -6.318871975 0.3405405581
-7.824990749 -6.319402218 0.3402621448
-7.862242699 -6.327351093 0.3392013907
-10.811409 -11.24800777 0.3194743395
-17.16611099 -21.87974548 0.565546751
-7.910171509 -6.349690914 0.3365999162
-10.84644508 -11.2106514 0.3224958479
-17.22472382 -21.79785156 0.5705723763
-7.943724632 -6.348012924 0.336512953
-10.94068432 -11.27031231 0.3192771077
-17.35348129 -21.82271004 0.5732511878
-7.971260071 -6.333550453 0.3377453089
-10.98304081 -11.24445915 0.3215332925
-17.53936958 -21.94816399 0.5734602809
-8.000434875 -6.327304363 0.338127166
-17.64018822 -21.94246101 0.5765482187
-8.039352417 -6.333659172 0.3371527493
-17.81683922 -22.03995323 0.5775920749
-8.077495575 -6.335674286 0.3366051018
-17.96670151 -22.0924511 0.5796778798
-8.125358582 -6.352622509 0.3344654143
-18.15785027 -22.2083168 0.5803500414
-8.159395218 -6.347533703 0.3346353471
-18.29617691 -22.23885727 0.582957983
-8.198517799 -6.355618 0.3334354162
-18.4769268 -22.36055565 0.5830739737
-8.222675323 -6.33768034 0.3349530101
-18.61231041 -22.39219284 0.5855221748
-8.251145363 -6.326318264 0.3357623219
-18.85753059 -22.59053612 0.5843163729
-8.292794228 -6.334779739 0.3344608247
-18.99429703 -22.62046814 0.5868345499
-8.332345963 -6.33972311 0.3335158527
-11.55192661 -11.19925976 0.329706341
-19.13145638 -22.64972878 0.5893720388
-8.373105049 -6.346129894 0.3324002326
-8.394963264 -6.324304104 0.3342614174
-8.441446304 -6.338613033 0.3322778344
-8.485829353 -6.349402905 0.3306505084
-8.522395134 -6.348511696 0.3302469552
-11.94994164 -11.33063889 0.3234938681
-8.554461479 -6.340915203 0.3305403888
-12.05169296 -11.38175011 0.3206586838
-8.562462807 -6.298958778 0.3344730437
-12.0944376 -11.35202026 0.3229202926
-8.578393936 -6.265908241 0.3374210894
-12.13707256 -11.32214546 0.3251751363
-20.35966301 -23.01668167 0.607262373
-8.618288994 -6.271900654 0.3362553716
-12.21204376 -11.33767796 0.3245369494
-20.49663734 -23.04234695 0.6097743511
-8.664175987 -6.283289433 0.3344706297
-12.24784565 -11.3024168 0.3270861506
-8.706702232 -6.289602757 0.3332091272
-12.37918663 -11.39506721 0.3215375245
-20.83843422 -23.16686058 0.6136504412
-8.715270996 -6.249028206 0.3369351923
-12.42196941 -11.36419964 0.3237965107
-20.98091125 -23.18731308 0.6164477468
-8.767284393 -6.267887115 0.3343029022
-12.46465111 -11.33317947 0.3260491788
-8.821864128 -6.289674759 0.3313379884
-12.58528137 -11.40328598 0.3219032884
-8.861169815 -6.29040432 0.3306057155
-12.63763428 -11.38451767 0.3233505785
-8.907784462 -6.297976017 0.3290896118
-12.71390915 -11.39751244 0.3227744102
-8.937636375 -6.285592556 0.3297275901
-12.77355003 -11.38779545 0.3236188889
-8.961429596 -6.265161037 0.3312142491
-12.83806515 -11.38417721 0.3240626156
-9.003344536 -6.268363476 0.3301499188
-12.93910122 -11.42783356 0.3215055466
-9.055068016 -6.286509514 0.3274985254
-12.9746809 -11.38551807 0.3243619204
-9.104556084 -6.298703194 0.325429678
-13.08604908 -11.44091797 0.3210340738
-22.65054893 -23.81035423 0.6336340904
-9.139458656 -6.289281368 0.3256298006
-13.13637257 -11.41702652 0.3226957321
-22.73654175 -23.74355698 0.6381546259
-9.175590515 -6.283805847 0.3254266977
-13.21879005 -11.43372726 0.3217796683
-22.94591331 -23.83365822 0.6397360563
-9.205543518 -6.27037096 0.3260660768
-13.28157711 -11.42496395 0.3224546313
-23.12385368 -23.88184357 0.64211303
-9.247938156 -6.272363186 0.3250232935
-13.3843317 -11.4658432 0.3199818432
-23.22756004 -23.83527184 0.6462393999
-9.28540802 -6.267944336 0.3246551454
-13.43988228 -11.44703388 0.3212581277
-9.32039547 -6.26026392 0.3246231079
-13.51555634 -11.45280743 0.3209673762
-9.366768837 -6.266302109 0.3230870068
-13.60653973 -11.47678185 0.3195125163
-70.532547 -81.54972076 3.329453707
-9.387892723 -6.241350174 0.3248941898
-13.66990757 -11.46631908 0.3202127814
-24.15398407 -24.26934433 0.6515485048
-9.444566727 -6.259269714 0.3220298886
-13.7303791 -11.44763565 0.3214151859
-9.466916084 -6.235599041 0.323666513
-13.80661392 -11.45193958 0.3211496174
-9.522510529 -6.248934746 0.3212110698
-13.88171577 -11.4543314 0.320987463
-9.562849045 -6.246292114 0.3205223382
-13.95954514 -11.45939445 0.3206394613
-9.582530975 -6.219207287 0.3224839866
-14.02931499 -11.45008087 0.3211781383
-9.628092766 -6.22229147 0.3211343586
-14.07618999 -11.41800404 0.3231366575
-25.67843056 -24.98534775 0.6595515609
-9.659327507 -6.206001282 0.3218332231
-14.16347504 -11.43259811 0.322134465
-25.64440155 -24.76413536 0.6666846871
-9.702389717 -6.205668926 0.3208180964
-14.24573421 -11.44071007 0.3215228319
-25.62614822 -24.56309319 0.6734203696
-9.744215965 -6.203621387 0.3199707866
-14.31896591 -11.43788052 0.3215834498
-25.65284157 -24.41519547 0.6792181134
-9.794028282 -6.210323811 0.318141222
-14.38964939 -11.43170452 0.321837008
-25.68936729 -24.27939415 0.6847768426
-9.82804203 -6.198913574 0.3182832897
-14.43786335 -11.39979649 0.3236964643
-25.72122383 -24.13916779 0.6903708577
-9.886024475 -6.214049339 0.3154804409
-14.53663254 -11.42425537 0.3219799995
-25.76171112 -24.00945091 0.6957572103
-9.917448997 -6.199296474 0.315952301
-14.60626411 -11.4155426 0.3223387599
-21.96334457 -19.61502647 0.7697595954
-9.951533318 -6.18735981 0.3160961866
-14.68268776 -11.41388226 0.3222334981
-9.995042801 -6.185554504 0.3150997162
-14.74439812 -11.39562702 0.3231575787
-10.03332901 -6.180269241 0.3145294487
-14.82371712 -11.39619255 0.3228739798
-21.9567852 -19.18867874 0.7843813896
-10.0783062 -6.179514408 0.3133752942
-14.89230061 -11.38463879 0.3233369291
-22.02609062 -19.11666679 0.7882631421
-10.12458992 -6.177386761 0.3122880459
-14.98081207 -11.38973808 0.3227125704
-22.2014904 -19.15851021 0.7903670073
-10.12855339 -6.130049229 0.3162170947
-15.06325436 -11.39201069 0.3222612143
-22.17546463 -18.99120522 0.7955518365
-10.17221832 -6.127297878 0.315225333
-15.11288643 -11.35903549 0.3240207732
-10.20783329 -6.118285179 0.3149785995
-15.20379925 -11.36923599 0.3230280876
-22.3729496 -18.92294693 0.8017821312
-10.24899292 -6.11485672 0.3140883446
-15.30247021 -11.39108276 0.321295172
-22.45922661 -18.88206673 0.804854691
-22.57753372 -19.0506115 1.765869737
-10.27616405 -6.094306469 0.3150308132
-15.40076923 -11.40748501 0.3198677003
-22.78359795 -19.08069992 0.8045039773
-10.34068775 -6.109572887 0.3118613362
-15.4903307 -11.40980816 0.3192902207
-22.61958885 -18.76629829 0.8118537664
-10.37466526 -6.093185902 0.3122246563
-15.58350945 -11.41944599 0.3182471693
-22.81811714 -18.83250427 0.8134637475
-10.46771049 -6.138759136 0.3056475222
-15.62636375 -11.37740612 0.3204633594
-22.77304459 -18.64974785 0.8186739683
-10.52315331 -6.145647526 0.3034008145
-15.6972456 -11.36355591 0.3208703697
-22.88474464 -18.62650681 0.8215620518
-10.56619644 -6.142210484 0.3023714721
-15.80494213 -11.38605785 0.3189457357
-22.96483231 -18.57783318 0.82467556
-10.5977726 -6.124705791 0.3028402328
-15.8817234 -11.37701511 0.3190039098
-23.05812454 -18.53530693 0.8278182745
-10.6335783 -6.111258984 0.3028296828
-15.96429062 -11.37318707 0.318708688
-23.15331078 -18.48754311 0.8311496377
-10.68057823 -6.106155872 0.3017702401
-16.03412628 -11.3563633 0.3192194104
-23.23504829 -18.43297195 0.8344353437
-10.73071671 -6.10621357 0.3001750708
-16.13551521 -11.36983395 0.3177776337
-23.32811356 -18.38922119 0.8375601768
-16.21772957 -11.35971737 0.3177855015
-23.40240288 -18.32700157 0.8409224749
-10.78800297 -6.064217091 0.3017323017
-16.31520653 -11.36798382 0.3166273236
-23.49571609 -18.27624512 0.8442414403
-10.81198025 -6.036293983 0.3031979799
-16.4013195 -11.36469364 0.3161831498
-23.59139442 -18.23406982 0.8473091125
-10.84190464 -6.016388416 0.3038086295
-16.45269012 -11.32803917 0.3178497553
-23.68847275 -18.19283104 0.8503540754
-10.87177372 -5.996367455 0.3044155836
-16.5418663 -11.32670116 0.3172354698
-23.78549957 -18.15115738 0.8533941507
-10.91036129 -5.98435688 0.3040781021
-16.64873886 -11.34122944 0.3155805469
-23.85469055 -18.08312416 0.856761992
-24.00139618 -18.25344086 1.83407867
-10.93109798 -5.953297615 0.3058380485
-16.74625969 -11.34201431 0.3147426248
-23.95777702 -18.03980446 0.8599238992
-11.00813198 -5.978640556 0.3012118936
-16.7947197 -11.30133343 0.3165790439
-24.04097557 -17.9909668 0.8628959656
-24.14508629 -17.95436859 0.8658287525
-24.24949837 -17.91098213 0.8689595461
-24.32682419 -17.84929657 0.8721789718
-24.42036629 -17.80197144 0.8752105832
-24.5183239 -17.75819206 0.8781890273
-17.21188736 -11.16679096 0.3200985491
-24.63121605 -17.72720337 0.8810064793
-17.35315704 -11.20585728 0.3166257143
-24.73513603 -17.68772888 0.8839164972
-17.42241096 -11.18123817 0.31724599
-24.80582809 -17.61889267 0.8871551156
-17.50378036 -11.16670418 0.3171881735
-25.11550331 -17.75625992 0.8880339265
-17.60647011 -11.16994476 0.3159507811
-24.97994423 -17.50905609 0.8932695389
-17.63225937 -11.10287571 0.3192045689
-25.20541191 -17.57151794 0.8950048089
-17.70301628 -11.07818031 0.3197337389
-25.1934185 -17.42489052 0.8991726637
-17.76666451 -11.0429554 0.3208695352
-18.12694931 -11.17248249 0.3100990057
-18.16892052 -11.1215868 0.3122287989
-18.22932053 -11.08567333 0.3133549988
-43.65401459 -31.82596588 0.763220787
-18.33938789 -11.089674 0.3118341863
