# .PCD v0.7 - Point Cloud Data file format
VERSION 0.7
FIELDS x y z
SIZE 4 4 4
TYPE F F F
COUNT 1 1 1
WIDTH 1281
HEIGHT 1
VIEWPOINT 0 0 0 1 0 0 0
POINTS 1281
DATA ascii
1.745565414 16.40995407 2.750837803
1.789469957 16.42847252 3.333671331
2.023094177 17.00782967 4.02617836
2.189297915 17.87206078 0.3981894255
1.889856815 16.76760483 2.198647976
1.892315388 16.66302872 2.776738882
1.993281484 16.84507179 3.393248558
2.065596819 16.94994354 4.016021729
2.335321903 17.60842705 4.776855946
2.297841311 17.99772072 0.3889120817
2.32003212 17.94966125 1.648478627
1.944626689 16.73856163 2.194839478
2.005754471 16.8137207 2.791746378
2.025314093 16.7589016 3.380540133
2.065514565 16.76265717 3.982411861
2.383976221 17.55263138 4.76581192
2.309425592 17.83738518 0.3915239871
2.325791597 17.88232803 1.017490029
2.230664015 17.49854469 1.631454349
2.459189177 18.04115486 2.283042908
2.061295509 16.78629684 2.7877841
2.091057301 16.76990128 3.381838083
2.117427826 16.73443794 3.977720737
2.452859163 17.5724659 4.771346569
2.348462343 17.76883316 0.3905409276
2.376745224 17.84781647 1.014510512
2.026308537 16.62817383 2.183933258
1.890827775 16.13773727 2.717992067
2.198711872 16.9066906 3.401264191
2.115900517 16.56596756 3.947552204
2.504656792 17.54413414 4.766320705
2.394377232 17.72095871 0.3887027204
2.397769213 17.72821617 1.011984944
2.382326603 17.57920074 1.629254937
2.164317608 16.74412537 2.781477451
2.597161293 17.84860992 3.536456347
2.190527201 16.61083603 3.956193924
2.446235418 17.58421326 1.6270293
2.877154827 18.67308044 2.321311235
2.164366722 16.48386574 3.340087175
2.278380871 16.69055939 3.971212864
2.618819237 17.97660637 1.003988743
2.787588596 18.3305378 1.647725821
2.302752733 16.88820648 2.196917057
2.21241951 16.53480339 2.757453918
2.139193058 16.23184776 3.303691626
2.378511429 16.78453255 3.988927126
2.352925539 16.85310936 2.192866564
2.325458765 16.67381287 2.77131176
2.203610897 16.24225426 3.30506587
2.971848011 18.20304489 4.247610092
2.389422894 16.67798042 2.770897627
2.271656513 16.2616787 3.307766438
2.788700342 17.88913345 0.9944524765
2.445738554 16.76375771 2.183520794
2.490012884 16.77872086 2.780728102
3.315098047 18.849226 3.679576874
3.028189421 17.99112129 4.210570812
2.846472979 17.86334419 0.9912655354
2.493200302 16.7226162 2.179122925
2.515680313 16.58754539 3.354511261
3.145179272 18.11787415 4.234468937
2.896049976 17.72593117 1.616422296
2.775893211 17.30502701 2.217293739
3.196788788 18.19279861 3.585208893
2.496094942 16.2848587 3.901515484
2.995505095 17.81001472 1.61649394
2.811684847 17.13385773 2.815966845
2.761495113 16.9034462 3.399944544
2.706550121 16.67095184 3.972619772
2.909707308 17.32005692 2.215173006
2.647705317 16.55075455 2.753594398
3.07006216 17.52169418 3.488865376
2.668915272 16.41706467 3.927242994
2.684062958 16.35735512 4.519300461
3.256868362 18.03314781 2.261942148
2.763858557 16.68496323 2.767054558
2.675324917 16.37347221 3.323934078
2.764068604 16.49849701 3.942993879
2.723167896 16.30004311 4.508346081
3.685163736 18.93502235 2.32137394
2.781273365 16.5776062 2.755058527
2.809234381 16.55086899 3.34955883
2.738585949 16.28812981 3.905547142
2.760014534 16.24551582 4.497955799
3.247233868 17.67430496 2.234478474
2.864972591 16.62790108 2.759696007
2.827825069 16.44108772 3.333939791
2.985687017 16.73952675 3.988856792
2.928762913 16.62805367 2.759063959
2.95188117 16.50233459 3.946635962
3.251810551 17.35399628 2.209726095
2.967563629 16.56723785 2.75202632
3.26310873 17.19327545 3.442488194
3.054815769 16.59678078 3.964955807
3.10359931 16.74816513 2.77052784
3.562013865 17.74786758 3.52250123
3.057688951 16.45920563 3.940910101
3.439707041 17.49046516 2.215949535
3.218216896 16.86666107 2.782430649
3.141514063 16.59158134 3.356535196
3.183661461 16.60558701 3.968810797
3.149498463 16.64258194 2.157487154
3.276911974 16.85080338 2.780196905
3.232750893 16.65446854 3.365906477
3.225080013 16.55194664 3.960225582
3.245031357 16.71499634 2.160929441
3.339500666 16.8438797 2.778928995
3.270303011 16.59129715 3.357180834
3.301525831 16.57963753 3.966544151
3.27798748 16.6402607 2.154514313
3.884734392 17.95104218 2.894965887
3.374802828 16.6825695 3.370706797
3.439170599 16.74611473 3.998296261
3.36144042 16.68265533 2.155963182
3.694466114 17.35462761 2.831675529
3.2932477 16.34856987 3.323074102
3.405790091 16.5221405 3.95867157
3.425215483 16.67895508 2.154339075
3.354255915 16.34154129 3.32251811
3.42237401 16.41386414 3.940235138
3.455891609 16.60017586 2.147718906
3.486472845 16.58098412 2.74936676
3.410176039 16.33003235 3.321324587
3.5097363 16.57421875 2.144647598
3.553022623 16.59075928 2.750005245
3.554544926 16.50686264 3.34730792
3.80542326 17.09156418 2.177826166
3.610931873 16.57365417 2.747820616
3.648108482 16.57585526 3.357777357
4.341341972 18.03299332 2.90086937
3.669504881 16.47922707 3.344453335
3.654821157 16.38337898 2.727126122
3.935056925 16.90963554 3.407106161
3.758174658 16.47178841 2.736121893
3.974531889 16.85662079 3.40011096
3.813059807 16.45518112 2.734104156
3.985996962 16.73768616 3.383674622
3.895364285 16.4892807 2.737422705
4.128198147 16.89453316 3.407042265
4.111430168 16.79467201 2.769244671
4.246639729 16.99876213 3.422869205
4.215080261 16.87547684 2.777523279
4.3633008 17.09701157 3.437880278
4.247137547 16.80048943 2.769456387
13.59658241 31.64838409 1.861421347
13.69867229 31.55487633 1.854436517
13.83295727 31.54363251 1.849922895
13.9574728 31.51444244 1.844981432
14.09658527 31.52249527 1.841165781
14.22993374 31.51957703 1.837089062
4.169029713 12.572052 0.8671635985
4.214048386 12.59224796 1.354783773
4.214461803 12.54479504 1.841628075
4.232848644 12.58022308 0.8643009663
4.249394894 12.56169224 1.352624178
4.272916794 12.54922962 1.841488838
4.275920391 12.56116772 0.8621162772
4.303337574 12.55460262 1.35090065
4.323488235 12.53713036 1.840287685
4.325237274 12.54254436 0.8596510291
4.358445168 12.54893398 1.349211097
4.370707989 12.51985836 1.838771582
4.379440308 12.53970814 0.8571265936
4.403487682 12.52814007 1.347203016
4.434788704 12.52714539 1.838830233
4.41711092 12.49814701 0.3636677563
4.430102348 12.52699757 0.8546663523
4.45526123 12.51707077 1.345407724
4.487938881 12.52234459 1.838153005
4.458626747 12.47198772 0.3614248335
4.477374077 12.50913048 0.852312088
4.499104023 12.49425888 1.343370318
4.535208225 12.50442886 1.836636782
4.532588482 12.5025816 0.8497118354
4.548854828 12.4841795 1.341683745
4.573307991 12.47322178 1.834291577
4.583543301 12.49392128 0.8472881913
4.610091209 12.4902792 1.340336442
4.637978554 12.48415184 1.834651113
4.640275002 12.49322987 0.8446835279
4.663393021 12.48465729 1.338747382
4.700501919 12.49152184 1.834796309
4.687854767 12.47922897 0.8423658609
4.710659981 12.46596813 1.336816192
4.757070065 12.48578548 1.834106684
4.745566368 12.47500229 0.8396863341
4.766039371 12.4584713 1.335119009
4.814007282 12.48448277 1.833727121
4.805099964 12.42801571 1.332961321
4.85666132 12.45881653 1.831802726
4.920402527 12.46205521 1.831722736
18.45638466 18.76996231 3.265021801
18.66124344 18.6885643 3.267109632
18.35717773 18.37209511 2.251399517
18.68876839 18.58429527 3.260639191
19.07865334 18.7735405 3.289835453
18.40633583 18.16915131 2.241823673
19.19408798 18.73706627 3.291844845
18.54190826 18.15203667 2.242707491
18.55944824 18.04851532 2.237797499
19.11138916 18.42564774 3.266273737
19.54293442 18.68480301 2.282188892
19.16926384 18.35108948 3.263355255
18.87845802 18.054245 2.242312431
19.30121803 18.32689476 3.267076254
18.98739243 18.01388931 2.241812468
19.16178894 18.1021862 3.24552989
18.80490303 17.80221176 1.251055598
18.90338326 17.82721138 2.231571198
19.92543602 18.54759216 3.308448315
18.34390068 17.29137039 2.197832346
17.89179802 16.90518951 3.109052896
19.13554573 17.81189156 1.2467103
20.06290627 18.45987511 2.278372049
17.73653793 16.68000793 3.086927414
19.48294067 17.90363503 2.24341774
20.06399727 18.28275681 3.295964003
19.7449913 17.97270966 2.250497818
18.70198631 17.15926552 3.160898447
18.85212326 17.22145844 4.146466255
19.38377953 17.62749863 1.238343358
19.10029602 17.37848091 2.212856531
18.28098869 16.73504829 3.113916636
17.86258888 16.38563538 4.001521587
18.82076836 17.10285759 1.231922269
18.81275368 17.05025291 2.193096161
18.29558754 16.63024712 3.107437611
18.79272652 16.96419334 1.228616834
18.72769356 16.87115097 2.183405876
18.72523499 16.8290863 3.139501095
19.13831711 17.07807732 4.154278755
19.52727509 17.37797546 1.229805827
18.92033958 16.89749146 2.18755579
18.76921272 16.74383354 3.135694027
19.31493568 17.09104156 4.168180466
18.99316788 16.88345718 1.223846436
18.94870949 16.80603981 2.183736324
18.62278938 16.52998352 3.114980698
19.40088081 17.03888702 4.169868469
19.24368858 16.94844627 1.22227478
18.83125877 16.6122303 2.172947645
18.64990044 16.43984032 3.110183239
19.10882568 16.72188187 4.121067524
19.45510674 16.97809982 1.220308065
19.67722893 17.08720779 2.208058357
18.78957558 16.42835426 3.115616798
19.33033562 16.75926971 4.140508175
19.44581604 16.85864067 1.217343211
19.37103844 16.76117134 2.188282251
19.47225189 16.71330833 2.187721014
19.6771946 16.81469536 3.180650711
19.25704956 16.48134995 4.111293793
19.7521553 16.79298592 2.195854902
19.56108093 16.61740112 3.162570477
19.40983772 16.4695797 4.121615887
19.75115967 16.67391777 2.190473557
19.65699005 16.56527138 3.163537741
20.02103806 16.76603127 4.19217062
20.0734005 16.68863869 4.189571857
20.1230011 16.64840126 3.190149546
19.30365372 16.05883598 4.079125881
19.05321503 15.82235527 3.088302374
19.94443512 16.37371063 4.153593063
18.88908386 15.60778713 3.067116022
19.04377174 15.59759617 3.073659182
20.73937416 16.58336449 3.214603662
28.08737946 12.93613815 2.238694668
28.06906509 12.8098259 2.234833956
28.04482079 12.67548943 2.230639458
29.27644539 13.03856087 1.05160284
29.0175724 12.90987778 2.262124777
30.08628273 13.27073765 3.55234313
30.03002167 13.19154358 1.048733115
29.15100479 12.83668613 2.263711929
30.12717819 13.09438038 1.046756744
29.57565308 12.86815262 2.275664806
29.09757805 12.66291714 3.470931768
30.07911873 12.94468689 1.045034528
29.38206673 12.66244411 2.26533556
29.31980896 12.54337215 1.044546843
28.52774239 12.23131371 2.231904268
29.78858757 12.57920933 1.042025924
28.3726902 12.0518465 2.223329306
29.260252 12.27216244 1.041354299
28.35653496 11.92815495 2.219860792
28.55927467 11.87981892 2.224109173
28.72417259 11.81743145 2.227037191
28.77907944 11.71723938 2.226137638
30.40642548 12.1559763 1.032792568
28.91141129 11.63006306 2.227669954
29.341856 11.64593315 2.239714384
29.30116844 11.51273155 2.235560179
29.48835182 11.44666672 2.23917985
29.67928886 11.38061428 2.242939472
29.81863785 11.29728889 2.244936943
36.42013931 12.92430401 2.46249795
74.64422607 24.20658112 0.9146394134
36.7719841 12.58084202 2.465245962
74.11077118 23.18108368 0.9067785144
36.77783585 12.43077564 2.462405443
36.81390762 12.28951645 2.460634232
37.30193329 12.2819109 2.474276066
37.04790878 12.09840488 0.9946184754
36.58776855 11.94000912 2.447486639
36.98828125 11.93018818 0.9933048487
36.59128571 11.79857254 2.444914579
37.23138046 11.81293964 2.463418722
37.76003265 11.8008852 2.478302717
36.70879745 11.38108921 2.440627337
37.04526901 11.32580853 2.449311256
37.3564949 11.25444221 2.457027912
37.44483185 11.13293171 2.457493782
37.23955154 10.93116856 2.44814992
37.12736893 10.59675884 2.439401865
44.6664505 12.22801781 2.685265064
44.37457657 12.0013113 2.673177242
44.41104889 11.84302807 2.671804428
45.12765503 11.85231113 0.9524282813
44.71022415 11.73502159 2.678950548
44.9644928 11.64705563 0.951703012
45.19472885 11.48852253 2.689599276
44.64699173 11.20288277 2.669345617
73.74789429 17.18421936 0.8578012586
52.74079895 12.32234573 2.924794912
52.66066742 12.11292553 2.919670343
53.27336502 11.83527374 2.934467077
52.24649429 11.43647671 2.898834944
52.998703 11.39776421 0.9143744707
52.42043686 11.26799774 2.902052164
52.9365654 11.18284416 0.9135016799
53.75820541 11.31008816 2.942772388
52.58576202 10.89548016 2.902763128
52.5240097 10.69353485 2.898676395
30.23373985 6.694646358 0.9867849946
29.89999008 6.624948502 2.171102524
30.19456673 6.567070484 0.9863610864
29.78663445 6.480427742 2.166163921
28.95171738 6.224445343 2.138247967
29.05781555 6.119790554 2.140445709
30.32810402 6.232428074 0.9843969345
29.51151657 6.092443466 2.153990984
30.34450531 6.114168644 0.9838718176
30.88479042 6.18593502 2.196704626
30.46175194 6.103533268 3.385392189
30.58901787 6.036329269 0.9826046824
30.5234375 6.009279728 2.184096098
30.18953133 5.942161083 3.365378618
30.4072876 5.963713169 4.585170746
30.92528152 5.964339733 0.9810136557
30.57069206 5.895223618 2.184554815
30.10727692 5.816562176 3.358290195
30.37742615 5.839288235 4.579838753
30.4093399 5.773761749 0.9824123979
30.56723976 5.779762268 2.18348527
30.29802704 5.72467041 3.369509459
29.83589363 5.57280159 0.9840242267
30.54838753 5.656223774 2.181912422
30.26634979 5.606545448 3.365914106
29.89161301 5.461983204 0.9834748507
31.12446594 5.620095253 2.199312925
30.1541748 5.455894947 4.550662994
29.97669792 5.354795456 0.9828432798
31.08124352 5.49170351 2.197025776
30.50099182 5.310014248 0.9807061553
31.39043808 5.40928793 2.205949783
29.82672691 5.191864491 3.332138062
30.55112267 5.20190382 0.9802475572
31.00452232 5.243514061 2.192920923
30.33574486 5.144006729 3.364953756
41.24467087 6.402409554 0.9422945976
39.89986801 6.217635155 2.473719358
30.31590271 5.028262138 3.362396002
30.40481949 4.949478149 0.9802461863
30.89823532 4.993268013 2.188030481
41.05148697 6.063628674 0.9423366785
29.67245293 4.736253738 2.148592472
30.42427254 4.712108612 0.979735136
29.62467194 4.608161926 2.146384478
40.72652817 5.713728905 0.9429668188
30.91724586 4.63166523 2.186563492
40.69729233 5.554712296 0.942853868
41.04352188 5.57287693 2.505457163
40.87958908 5.425363064 0.9420253634
39.92910385 5.310895443 2.469600201
39.81487274 5.147086143 2.465315104
40.94512939 5.109656811 2.500319719
39.86491013 4.864162445 0.945245266
39.53015518 4.824625015 2.455149651
39.94554138 4.726497173 0.9448854327
39.19903946 4.64469099 2.444184065
40.70394897 4.638056755 0.9421281219
39.91099548 4.554983616 2.466095448
40.67621994 4.488409042 0.9422061443
39.85110855 4.405683041 2.463778734
50.30324173 5.231496334 4.681388378
40.29763412 4.304030418 0.943564117
40.82769012 4.329467297 2.494081497
40.0248909 4.145474911 0.9445670247
41.21697998 4.218772411 2.50598526
51.23817825 4.94349575 4.741723537
40.01798248 3.992465973 0.9446496964
41.25417328 4.065000057 2.506822348
51.58408737 4.621430874 0.9034698009
51.10322189 4.580188274 2.816090107
50.87608719 4.184984207 2.808427095
50.75146103 3.988058805 2.804337025
50.6860199 3.795253754 2.802163839
106.3197479 6.398569584 0.7103165984
62.07596588 4.175066471 3.159887791
60.30368805 3.6416502 3.104278326
61.91496277 3.266397476 3.155223131
62.12220001 3.056743145 3.161991119
1.03212893 0.7154099941 0.7682802677
1.037441492 0.6992867589 0.7679463625
-5.234636307 -74.40353394 5.467171192
-5.499764919 -74.49597168 5.487600327
-5.797106743 -76.08468628 5.594721317
-5.074245453 -33.36588287 0.7317763567
-6.548762798 -74.40545654 5.54305315
-5.201957703 -33.52804565 0.7366481423
-6.81268549 -74.42542267 5.559546947
-5.327514172 -33.74197006 0.7407075763
-7.076067448 -74.70836639 5.590950489
-5.459231853 -33.93113708 0.7454266548
-7.361075878 -75.11727142 5.630797863
-5.593737602 -34.1437645 0.7499801517
-7.632348537 -75.2181015 5.652444363
-5.731572151 -34.28762817 0.7556200624
-7.935416222 -75.62406921 5.693287849
-5.867285252 -34.47525787 0.7605558038
-8.120121002 -74.27218628 5.627696037
-6.004894257 -34.67033768 0.7654888034
-8.382135391 -74.25475311 5.642249584
-6.146826267 -34.90479279 0.7701286674
-8.642208099 -74.20850372 5.655106068
-6.277759552 -34.97516632 0.7763341069
-6.415525436 -35.20105743 0.7808454633
-6.555422306 -35.35813904 0.7863762379
-9.560826302 -77.78092957 8.688236237
-6.696814537 -35.5186615 0.791934967
-6.845528603 -35.74636459 0.7969951034
-6.992109299 -35.93363571 0.8024660945
-5.007230282 -14.18504333 0.4519318938
-7.150977135 -36.23178864 0.8071296811
-10.43952751 -73.83308411 5.742123127
-5.058710575 -14.14378262 0.4565199316
-7.322300434 -36.63075638 0.8111278415
-10.88306713 -75.7070694 5.8749547
-5.105797768 -14.08871365 0.4615387022
-7.473477364 -36.7478447 0.8177499771
-11.27197266 -76.76303101 5.958327293
-5.174058437 -14.22813606 0.4582801163
-7.607686043 -36.76165771 0.8248102665
-11.54717636 -76.77820587 5.976059914
-5.24104929 -14.34740925 0.4559146762
-7.742506504 -36.77896118 0.8318493962
-11.84982872 -77.04644775 6.009804249
-5.291440964 -14.29542446 0.4609211385
-7.875634193 -36.77989578 0.8390052319
-5.350887775 -14.34277248 0.461607337
-8.009531021 -36.78630829 0.8461219668
-12.51628017 -79.18505859 9.00749588
-5.394900322 -14.28512287 0.4665485322
-8.136976242 -36.79305267 0.8528800607
-13.44424534 -86.07898712 12.80026531
-5.44245863 -14.23692703 0.4712030292
-8.270815849 -36.79655075 0.860016346
-5.52582407 -14.44182587 0.4654974937
-8.58985424 -38.16911316 0.8590682745
-5.573100567 -14.38924885 0.4703275561
-8.743483543 -38.28201294 0.8658097982
-5.669083118 -14.70900726 0.4597270191
-8.913968086 -38.56169128 0.8712542057
-13.77474213 -77.11145782 6.133255005
-5.722155094 -14.71175003 0.462176919
-9.077655792 -38.72878647 0.8778054118
-13.87808132 -75.82813263 6.067601681
-14.04309273 -78.08587646 9.009559631
-5.777405262 -14.70996857 0.4649391174
-9.230578423 -38.8120842 0.8848729134
-14.07687759 -75.2963028 6.050262928
-5.843893051 -14.78309345 0.4646586776
-9.390604019 -38.93831635 0.8917475939
-14.32333755 -75.1236496 6.056168556
-14.26113892 -75.64247131 8.801995277
-5.905493259 -14.8021965 0.4667096734
-9.546188354 -39.02832413 0.8988520503
-14.48497963 -75.21100616 8.778116226
-5.96236515 -14.80765915 0.4691734314
-9.719853401 -39.18384171 0.9060514569
-14.76296806 -74.35155487 6.040783405
-6.00728178 -14.73793316 0.4746386409
-9.877709389 -39.27651596 0.9132239223
-15.02763748 -74.32666779 6.056293011
-6.064341545 -14.74499989 0.47701478
-10.04397583 -39.46053314 0.9196403623
-15.26314354 -74.20040894 6.064297676
-6.134913445 -14.8488903 0.4754138291
-10.23496151 -39.74136353 0.9260941148
-15.53307915 -74.20923615 6.082129002
-15.46304798 -74.52561188 8.783753395
-6.186457157 -14.80381107 0.47998932
-9.872112274 -36.73810577 0.9460835457
-15.87873363 -74.67791748 6.130643845
-6.248367786 -14.81959438 0.4821485281
-10.01525116 -36.74609756 0.9535480738
-16.00954628 -74.56303406 8.825590134
-6.325899124 -14.92169762 0.4809285402
-10.16029358 -36.76338959 0.9609829783
-6.392730713 -14.96052933 0.4822010398
-10.99976921 -40.623909 0.9550044537
-16.80072975 -76.5667038 11.8502264
-6.42422533 -14.8532362 0.4887515604
-11.14807034 -40.69855118 0.9618476629
-16.87446022 -74.09876251 6.162835598
-16.49963951 -72.65773773 8.687842369
-17.05727577 -76.52025604 11.86435223
-6.514223099 -15.04388523 0.4838807583
-11.32256413 -40.86961365 0.9688088894
-16.8950882 -72.80047607 6.091663837
-16.69455719 -72.34265137 8.67331028
-6.559807301 -14.99664497 0.4882193804
-11.51458263 -41.08572769 0.9760981202
-17.05663681 -72.23829651 6.070860386
-16.9564743 -72.40283966 8.697610855
-6.629117966 -15.04233932 0.4892395735
-11.67079926 -41.10860062 0.9840053916
-17.25554466 -72.51583099 8.729444504
-6.675246716 -14.98442078 0.4940880835
-6.757687092 -15.10654926 0.4920728803
-17.76431847 -71.73464203 6.089385033
-6.825603962 -15.15392971 0.4929175675
-17.9852314 -71.58825684 6.095861912
-6.875432968 -15.1272974 0.4964262545
-18.43552589 -73.09104156 8.867557526
-18.60500336 -74.60320282 11.74742508
-6.953457355 -15.21913052 0.4956101477
-17.76758575 -67.99385834 5.881420612
-18.8405571 -73.81928253 8.963050842
-6.437141418 -13.51949406 3.137680531
-7.04748106 -15.38091755 0.4922060072
-18.02494431 -68.0247879 5.900319576
-7.136876583 -15.50258923 0.4904722869
-18.31785774 -68.21862793 5.930691719
-6.400369167 -12.74265099 2.543059349
-6.684447289 -14.19373512 3.241949081
-7.270317078 -15.81489658 0.4817218184
-18.18278313 -66.38506317 5.819861889
-6.449030399 -12.72581863 2.545181513
-6.741769791 -14.19122696 3.246358871
-7.279859066 -15.58942318 0.4927371144
-18.48730087 -66.64812469 5.85494566
-6.502322674 -12.73018169 2.549571276
-6.788969517 -14.14205456 3.244149446
-7.35933876 -15.68400002 0.4918040931
-6.439364433 -12.14320183 2.021219015
-6.841358662 -14.14229012 3.248539686
-7.326464176 -15.29970741 0.5083829761
-6.479915619 -12.11130524 2.022195816
-6.713328838 -13.24096394 2.611325979
-6.715051174 -13.35013103 3.139546394
-6.69172287 -13.3501091 3.660785675
-6.597459316 -13.04404354 4.12148571
-7.421120167 -15.4457655 0.5056820512
-18.87727737 -65.18182373 5.800124168
-6.87181282 -13.70230198 2.664703846
-6.78420639 -13.42338848 3.154454947
-6.737028599 -13.31919289 3.660051584
-6.652975082 -13.06311512 4.13078022
-7.612870216 -15.9855814 0.4887689054
-6.664659977 -12.48790169 2.055577517
-7.004913807 -14.14448452 3.262561321
-6.716983318 -13.11819363 4.147961617
-7.757082462 -16.31664276 0.4795451164
-6.674982548 -12.3252821 2.047295332
-7.188869476 -14.58145142 2.767615795
-6.920514584 -13.55354023 3.182138681
-7.620495319 -15.51860046 0.5109314322
-6.708782196 -12.26355457 2.046197891
-7.241419792 -14.56237698 2.769945621
-6.691333294 -12.37797832 3.01697278
-7.943563461 -16.54828262 0.4767723382
-6.754656792 -12.25210571 2.048710823
-6.714486122 -12.18464184 2.516880512
-6.747951984 -12.40873051 3.025632858
-6.973114014 -13.42765236 3.699379921
-6.91565752 -13.29884529 4.203381062
-8.038894653 -16.65394783 0.4759319127
-20.01412201 -64.84892273 5.859465599
-7.223062992 -14.0296402 2.720948696
-6.814826488 -12.47961617 3.040160179
-7.041895866 -13.49145412 3.716021538
-6.96996069 -13.29511929 4.20830822
-8.123387337 -16.71468353 0.4767094553
-6.856457233 -12.25906754 2.05610013
-7.20933485 -13.7456522 2.694550753
-6.89327383 -12.58415318 3.059868336
-7.060657501 -13.34220409 3.694195032
-7.035134792 -13.3348465 4.22281456
-7.135444641 -13.85036659 4.892519951
-8.224865913 -16.83683586 0.4753376842
-7.272337437 -13.76825237 2.701479673
-7.068696022 -13.15484047 3.665343285
-7.097293854 -13.36100769 4.234420776
-7.172972202 -13.77030659 4.878508568
-8.278253555 -16.77710533 0.4803741574
-7.1545825 -13.00167942 2.117577314
-7.245120049 -13.44420147 2.670495033
-7.229167461 -13.4724884 3.198784828
-7.129481316 -13.17739582 3.67478466
-7.145132542 -13.33005524 4.233521461
-8.320661545 -16.73874664 0.4839436114
-7.226136208 -13.20011997 2.647288084
-7.271248817 -13.45911694 3.200833797
-7.183133125 -13.21188736 3.685444832
-7.202988625 -13.38940239 4.251141548
-8.392105103 -16.74615288 0.4866000414
-7.258196831 -13.02946281 2.126308203
-7.41631031 -13.70280075 2.706972837
-7.31263876 -13.4129467 3.198801041
-7.262565136 -13.31268311 3.709102869
-7.295603752 -13.52832413 4.287852764
-8.493044853 -16.86959076 0.4850987196
-7.711037159 -14.48353004 2.237667084
-7.195316315 -12.68891525 2.599431276
-7.252892017 -12.98366165 3.140693665
-7.291090012 -13.21080399 3.695853949
-7.198190212 -12.96071434 4.168048382
-8.548363686 -16.82913399 0.4892753363
-7.755044937 -14.43393612 2.238028765
-7.339925766 -13.02842617 2.641049385
-7.324317455 -13.05412483 3.155717134
-7.294217587 -13.02791309 3.66737318
-7.224047661 -12.86407757 4.15226984
-8.615106583 -16.82883453 0.4920562208
-7.198687553 -12.25069618 2.079467535
-7.321567535 -12.77524567 2.617141008
-7.323130608 -12.86097908 3.131894588
-7.292455196 -12.83189774 3.636371613
-7.240995407 -12.73726654 4.129751682
-8.697892189 -16.87151527 0.4935016632
-7.240681171 -12.22410488 2.080966473
-7.188869476 -12.11608219 2.548137665
-7.078600883 -11.80846786 2.980790138
-7.345631599 -12.83706474 3.642495394
-7.299836159 -12.75489044 4.139607906
-8.772286415 -16.89557266 0.4954488575
-7.287039757 -12.20437813 2.083157063
-7.223257065 -12.06463718 2.546350002
-7.138162136 -11.84059334 2.990108728
-7.413656712 -12.88488579 3.656833649
-7.477497101 -13.2020731 4.24504137
-7.76517725 -14.31371593 5.07245636
-8.914694786 -17.14525414 0.4897672534
-7.560268879 -12.9681673 2.144171953
-7.254547119 -12.00356674 2.543476343
-7.203485489 -11.89973927 3.003279448
-7.491109848 -12.97283554 3.678447247
-7.564824104 -13.32099724 4.277551174
-7.817704678 -14.29611778 5.074864388
-8.979873657 -17.13404083 0.492939353
-7.448026657 -12.42085648 2.106364727
-7.250874996 -11.89588547 3.007129192
-7.415925503 -12.54322052 3.60351181
-7.71067667 -13.63855648 4.354675293
-9.019566536 -17.0509491 0.4983715415
-7.522542 -12.50043678 2.115994692
-7.349565506 -11.99366665 2.550310373
-7.312963486 -11.94947338 3.01936388
-7.456663609 -12.50823116 3.602192402
-7.503010273 -12.75148392 4.161637306
-7.075032711 -10.52502918 0.3000894487
-9.070208549 -16.99354553 0.5030548573
-7.51355505 -12.3112669 2.105055809
-7.609663486 -12.70008564 2.633781433
-7.370290279 -11.9774437 3.028051853
-7.489792347 -12.45687294 3.597559452
-7.326257706 -11.98153973 3.994512796
-7.700876236 -13.32428455 4.840320587
-7.120846748 -10.53168011 0.3009289503
-9.193051338 -17.17722702 0.4995689094
-7.554900646 -12.28175068 2.106401443
-7.568045139 -12.39446735 2.603466511
-7.415809155 -11.97367191 3.031797647
-7.539208889 -12.45182037 3.601863623
-7.72800827 -13.2427187 4.825272083
-8.06372261 -13.40837097 0.6270578504
-7.581255436 -12.20449543 2.104089499
-7.355642319 -11.5525074 2.511964321
-7.454267979 -11.9387598 3.031112909
-7.599018574 -12.48046398 3.612529516
-7.783530712 -13.15966702 4.271502495
-7.213497639 -10.54000187 0.3029932082
-8.089393616 -13.38896942 1.153705239
-7.537388325 -11.89822388 2.084317923
-7.817745686 -12.86606503 2.665471077
-7.517765999 -11.97671986 3.041651964
-7.776357651 -12.87845898 3.693034887
-7.842499256 -13.16753101 4.279796124
-7.76023674 -12.98636055 4.771473885
-7.26329565 -10.55748177 0.3030530214
-8.149673462 -13.32618332 0.6342374086
-8.124326706 -13.32723045 1.156235695
-8.079589844 -13.36163044 1.67740047
-7.617775917 -11.9959898 2.095400095
-7.531004906 -11.78866959 2.547184467
-7.606049061 -12.09177494 3.063906431
-8.004354477 -13.43571758 3.803670645
-7.919534206 -13.24125481 4.302751541
-7.321447849 -10.59937191 0.3014116883
-8.199877739 -13.3202877 0.6364910007
-8.178261757 -13.32431316 1.158989549
-8.113207817 -13.30446625 1.678268552
-7.669460297 -12.002244 2.099464655
-8.048716545 -13.24687099 2.71801877
-7.98483181 -13.12795639 3.225366116
-7.967224121 -13.14554882 3.754632473
-7.968735218 -13.23340607 4.306993961
-7.937876225 -13.21198368 4.844969273
-7.925998211 -13.25259495 5.409289837
-7.36647892 -10.60761356 0.3020395935
-8.227805138 -13.30791187 1.16168654
-8.15957737 -13.27869511 1.680574298
-7.782607555 -12.1959753 2.118124247
-7.687274933 -11.9759779 2.576595068
-7.947800636 -12.8462801 3.187698126
-8.054783821 -13.24928761 3.780009747
-7.954853058 -13.01978493 4.264809608
-7.930626869 -13.01835155 4.800495625
-7.975353718 -13.23624516 5.411976337
-7.412970066 -10.61311913 0.3029119968
-9.909172058 -18.0480442 0.4881531894
-8.214020729 -13.27742577 1.683887839
-7.827615261 -12.17887688 2.120460272
-7.73649931 -11.9742384 2.580557823
-7.551626205 -11.47400188 2.983824253
-8.255908012 -13.69878578 3.871146202
-7.990739346 -12.9645071 4.258554459
-8.005316734 -13.08329773 4.824763775
-7.454417706 -10.59699821 0.3053327203
-10.02692699 -18.17702675 0.4868800044
-7.852330208 -12.17226315 2.607581139
-7.625875473 -11.55338383 3.000507355
-8.185414314 -13.31334877 3.803864956
-8.152916908 -13.29547501 4.340468407
-8.067302704 -13.10733223 4.838237762
-8.040726662 -13.10073948 5.386025429
-7.490515232 -10.57199192 0.3082906306
-10.08295536 -18.11346626 0.4919430017
-8.067117691 -12.58626842 2.159858227
-8.182714462 -12.99430656 2.707157373
-7.646002293 -11.46912193 2.992245436
-8.231851578 -13.28707123 3.804780245
-8.259057045 -13.44092941 4.380637646
-8.176923752 -13.26647472 4.888281822
-8.093152046 -13.09494019 5.392038345
-7.549007893 -10.61088276 0.3068303168
-10.16436291 -18.13392258 0.4941618145
-8.107001305 -12.54930496 2.160776615
-8.084224701 -12.54667854 2.659804583
-7.66455698 -11.37476158 2.982633114
-8.190698624 -13.00144958 3.756162882
-8.080145836 -12.74180412 4.227066517
-8.206674576 -13.19051743 4.87520504
-8.122599602 -13.019701 5.376776218
-7.599119186 -10.62506199 0.3070683181
-10.25601006 -18.19290352 0.4950169325
-8.108156204 -12.40104485 2.152881622
-8.085074425 -12.39687634 2.646829128
-7.675024986 -11.2725668 2.971315622
-8.234710693 -12.97146034 3.756300688
-8.102078438 -12.65751743 4.213796139
-8.252736092 -13.17232037 4.877249718
-8.161963463 -12.97537708 5.371011734
-7.668293953 -10.6979723 0.3032044172
-10.30297852 -18.1147728 0.5003519058
-8.145589828 -12.36669827 2.15377903
-7.752877235 -11.30193615 2.523312807
-8.228581429 -12.73099518 3.200691938
-8.243416786 -12.84732342 3.738091946
-8.138560295 -12.60936832 4.209133148
-8.273597717 -13.072402 4.857718468
-8.279572487 -13.16994095 5.438531399
-7.700502872 -10.66101837 0.3069426417
-10.31967831 -17.96440887 0.5077831149
-24.75737953 -58.16637802 1.436733365
-29.92554665 -73.38845062 4.265659332
-8.129907608 -12.17537975 2.142352581
-7.767640114 -11.20801926 2.516411066
-8.278950691 -12.72981834 3.205451965
-8.362653732 -13.03456974 3.780001879
-8.194195747 -12.62474537 4.218801022
-8.204737663 -12.72240925 4.77039814
-8.31180191 -13.10333347 5.426053524
-7.763420105 -10.70193291 0.3053885698
-10.32274532 -17.75920105 0.5171590447
-24.95012093 -58.02423477 1.448085904
-7.986727715 -11.62492275 2.102280855
-8.162204742 -12.1814909 2.634694576
-8.35132122 -12.77522373 3.217982054
-8.34290123 -12.81573868 3.74413991
-8.277371407 -12.70271111 4.243646145
-8.324949265 -12.90559769 4.827442646
-8.427387238 -13.26968861 5.486084461
-7.796871185 -10.66844654 0.3088615537
-10.49983406 -18.02861214 0.5117137432
-25.12498283 -57.86645508 1.458724618
-8.007279396 -11.54525757 2.099529982
-8.206019402 -12.15280819 2.635972738
-8.558677673 -13.20302105 3.289693832
-8.386077881 -12.78529263 3.744229078
-8.347456932 -12.74156952 4.259569645
-8.335432053 -12.77380943 4.799538136
-8.432229042 -13.12481594 5.449456692
-7.832941532 -10.64234543 0.3118132353
-10.42087173 -17.61657715 0.5272810459
-25.29689026 -57.70256424 1.469277382
-8.043781281 -11.51055241 2.100373983
-8.301200867 -12.27236366 2.654531479
-8.362565994 -12.50125599 3.186214924
-8.435121536 -12.77136612 3.747535229
-8.317707062 -12.50883579 4.212214947
-8.526801109 -13.23509789 5.492007256
-7.858974457 -10.59000206 0.3165389597
-11.7828064 -21.03878975 0.4245341122
-25.46794319 -57.53817749 1.479780674
-8.075258255 -11.4626503 2.100148201
-8.39658165 -12.38954449 2.672916889
-8.663731575 -13.18514347 3.29792428
-8.590698242 -13.04930019 3.807521343
-8.34478569 -12.4444828 4.203519344
-8.184699059 -12.06491852 4.62142992
-8.433864594 -12.82109833 5.371545315
-7.926980019 -10.65393162 0.31327039
-11.88129425 -21.06782722 0.4269037843
-25.63598633 -57.36769867 1.490195155
-8.475597382 -12.52648163 3.200442076
-8.628430367 -13.00141048 3.804413319
-8.707706451 -13.28896141 4.40695715
-8.222596169 -12.02780628 4.618433475
-8.311218262 -12.3340168 5.227862358
-7.971530914 -10.64975452 0.3146922588
-11.97506142 -21.08337975 0.4296870828
-25.80594635 -57.20423508 1.500606179
-29.36111641 -67.21393585 4.103550911
-8.390536308 -12.0363121 2.15422225
-8.465130806 -12.29768848 2.670946598
-8.464084625 -12.35299492 3.178566694
-8.808817863 -13.40929222 4.442153931
-8.273040771 -12.02512646 4.624843121
-8.303750038 -12.17045689 5.184765816
-8.030648232 -10.68258381 0.3135906458
-12.07194042 -21.10599709 0.432254523
-25.97506714 -57.04028702 1.510968447
-8.978634834 -13.44035053 2.272922039
-8.49698925 -12.24284077 2.669003487
-8.75510788 -13.04343605 3.825135469
-8.856650352 -13.38456345 4.443573475
-8.327591896 -12.03313923 4.634230614
-8.394781113 -12.2751646 5.225540638
-8.090053558 -10.71514034 0.3125039935
-12.16980171 -21.13006973 0.4347778857
-26.14034271 -56.86843872 1.521222711
-8.45044899 -11.92336559 2.152690649
-8.524255753 -12.17679787 2.665709734
-8.388837814 -11.87927532 3.114525318
-8.645457268 -12.6090126 3.746375561
-8.919594765 -13.39986897 4.454413414
-8.555288315 -12.49953938 4.769206524
-8.752388 -13.08718395 5.488427162
-8.130493164 -10.69922638 0.3146947622
-12.28197575 -21.18901825 0.4362546206
-26.30916405 -56.70727158 1.531509876
-29.85336494 -66.37985992 4.117048264
-8.49875164 -11.91511631 2.155876637
-8.566948891 -12.15149021 2.66728878
-8.506148338 -12.05000782 3.146689415
-8.643782616 -12.46380329 3.724052191
-8.980629921 -13.40942669 4.463976383
-8.609599113 -12.50103951 4.777201176
-8.721509933 -12.85804176 5.425085545
-8.177600861 -10.69983006 0.3157558441
-12.38496017 -21.2233429 0.4384779334
-26.47045708 -56.52892303 1.541619539
-30.08768463 -66.28703308 4.129739761
-8.856331825 -12.69145107 2.223958969
-8.684270859 -12.31662846 2.691813469
-8.527527809 -11.97126389 3.139497042
-8.692507744 -12.45078373 3.727657795
-9.03757 -13.40780067 4.470970154
-8.817921638 -12.90182018 4.895049572
-8.796964645 -12.91058254 5.450255871
-8.232297897 -10.71873283 0.3155711591
-12.48305035 -21.24424362 0.4411056638
-26.64124298 -56.37611771 1.551876664
-8.484722137 -11.62018013 2.139181137
-8.725934982 -12.28708363 2.69296813
-8.448187828 -11.63856125 3.091929913
-8.769983292 -12.51081753 3.745708466
-9.142226219 -13.52783489 4.506745338
-8.8298769 -12.85183144 5.440440655
-8.289450645 -10.74293804 0.3150220811
-12.58897209 -21.28322601 0.4431981146
-26.82260704 -56.25057983 1.562314034
-8.76818943 -12.25925541 2.69433713
-8.475769997 -11.58042049 3.087855577
-8.802927971 -12.45712185 3.741368771
-9.197552681 -13.52013493 4.512477398
-8.889276505 -12.79984951 4.882834435
-8.868742943 -12.80910301 5.435691833
-8.31926918 -10.70051861 0.3189531565
-12.69373512 -21.31804657 0.4454179704
-8.645443916 -11.76577282 2.159036636
-8.77530098 -12.14469433 2.685175896
-8.528130531 -11.58463764 3.093725681
-8.794573784 -12.30112076 3.716747046
-8.954217911 -12.82344723 4.897373199
-8.381278992 -10.73534489 0.3176722527
-12.79732037 -21.34871674 0.4477643967
-9.040793419 -12.60351562 2.233258724
-8.819255829 -12.12224007 2.68718648
-9.094979286 -12.85308361 3.302053928
-28.31138992 -60.63080597 15.72623539
-9.016498566 -12.83956528 4.909929752
-8.415563583 -10.70370865 0.3208502829
-12.91209984 -21.40472031 0.4493741691
-8.697762489 -11.64260674 2.156514168
-8.850227356 -12.06840801 2.685372829
-9.097799301 -12.72327805 3.287020206
-8.519288063 -11.365448 3.542974949
-9.106628418 -12.92360973 4.941447735
-8.452827454 -10.67931652 0.3235265315
-13.01641178 -21.43444824 0.4517572224
-8.747614861 -11.63892555 2.160120249
-8.844202042 -11.92646694 2.672744751
-9.196835518 -12.82750893 3.309585571
-9.225413322 -12.95239925 3.865735531
-28.74008942 -60.45066833 15.74941158
-9.106373787 -12.78495502 4.911112785
-8.519698143 -10.71807957 0.3220097721
-13.12342262 -21.46921921 0.4539975822
-29.40789795 -59.55192184 1.649771214
-8.803721428 -11.64973831 2.164974928
-8.837254524 -11.78473377 2.660066128
-9.226327896 -12.76335239 3.305104256
-8.687308311 -11.52704239 3.58718729
-9.158938408 -12.71922779 4.359431744
-8.548971176 -10.67504978 0.3259078264
-13.23627949 -21.50550079 0.4563608766
-8.947412491 -11.91476154 2.68107605
-9.254666328 -12.69734001 3.300306797
-9.253911972 -12.74979019 3.838588953
-8.590078354 -10.65935993 0.3279622495
-13.34481621 -21.54113388 0.4585851729
-8.875318527 -11.57542706 2.166563749
-8.999898911 -11.91365242 2.685747147
-9.313755035 -12.69756508 3.306535482
-9.261432648 -12.63502789 3.822233438
-9.369760513 -12.94502258 4.429096222
-8.648976326 -10.68365383 0.3273362815
-13.46356869 -21.60908127 0.4597328603
-9.401560783 -12.66620731 2.264143944
-9.344664574 -12.64514256 3.30364728
-9.230179787 -12.43185425 3.787988424
-9.390267372 -12.86565208 4.417295456
-8.740386009 -10.78508663 0.3215159178
-13.56397629 -21.62362671 0.4625682533
-9.435190201 -12.61429596 2.264021635
-9.03992939 -11.76795578 2.677070856
-9.459015846 -12.77840137 3.331338882
-9.200715065 -12.23629475 3.75512886
-9.415787697 -12.79241848 4.407329082
-8.792591095 -10.79236507 0.3220164478
-13.67857742 -21.66872787 0.4645417631
-9.498435974 -12.62975407 2.26971364
-9.085664749 -11.75190353 2.67990613
-9.496334076 -12.73357677 3.330060959
-9.229137421 -12.17620754 3.749569654
-9.478355408 -12.80507565 4.418137074
-8.844914436 -10.7994194 0.3225226998
-13.78862381 -21.70239449 0.4668420851
-9.490185738 -12.48479271 2.261517048
-9.101441383 -11.6685276 2.674326897
-9.514144897 -12.64527607 3.321652889
-9.320850372 -12.25994396 3.773215055
-9.537932396 -12.81031513 4.42721796
-8.911550522 -10.83707809 0.3209879994
-13.91240406 -21.76462746 0.4683513343
-9.921762466 -13.31575203 2.338257313
-29.9246769 -58.05747986 10.79647064
-9.333039284 -12.16365337 3.760330915
-9.580970764 -12.77783394 4.427190781
-8.961555481 -10.8272686 0.3226908445
-14.0471859 -21.82805252 0.4701651931
-9.139068604 -11.50715923 2.664228916
-9.475306511 -12.29550362 3.276763439
-9.366143227 -12.10298538 3.755344152
-9.015972137 -10.83722115 0.3229768276
-14.16362858 -21.87094688 0.4722322524
-9.68537426 -12.52904892 2.278993368
-9.203829765 -11.53408623 2.67249608
-9.816438675 -12.91993141 3.386060953
-9.57056427 -12.4880209 4.37303257
-9.059403419 -10.82348728 0.3248200715
-14.28904152 -21.93138695 0.4738249779
-10.13472176 -13.37974453 2.358170986
-9.541817665 -12.15029144 2.755572796
-9.682347298 -12.50230598 3.323119879
-9.60748291 -12.44484615 4.370326042
-9.128318787 -10.8682003 0.3227439523
-14.41360474 -21.99852753 0.475084126
-29.69575882 -54.99440002 6.042459011
-9.590064049 -12.14070988 2.759273291
-9.688342094 -12.39887047 3.311791658
-32.23484802 -61.33689117 16.38699341
-9.168979645 -10.85324001 0.3246018291
-14.52399445 -22.0344677 0.4772034883
-29.98594666 -55.1036377 6.070857048
-9.628147125 -12.10938454 2.760220528
-9.71472168 -12.34030724 3.307892561
-9.229992867 -10.87485123 0.3240828514
-14.65357685 -22.09857559 0.4787299633
-30.2583313 -55.17194748 6.09578371
-9.66238308 -12.06429958 2.759673119
-9.287992477 -10.88442707 0.3243926764
-14.77495956 -22.14408875 0.4807692468
-9.982194901 -12.56223106 2.30398345
-9.713570595 -12.05495739 2.763713598
-9.805216789 -12.29223824 3.312254667
-9.372454643 -10.95199299 0.3208358586
-14.89726639 -22.17989159 0.4832386672
-30.92394066 -55.54873657 6.167645931
-9.768750191 -12.04788685 2.768335342
-9.865793228 -12.30002975 3.319818735
-9.812718391 -12.23631287 3.830655813
-9.409522057 -10.91808319 0.3239851594
-15.02845097 -22.24215889 0.4848468602
-31.14443207 -55.47560883 6.181325436
-31.46371841 -56.54472351 10.7891407
-9.855638504 -12.2019558 3.831027508
-9.441674232 -10.87973785 0.3273653388
-15.14717484 -22.26782799 0.4875980616
-9.490822792 -10.87512875 0.3285183609
-15.28391171 -22.33777237 0.4890242815
-32.22696686 -56.63722229 6.326715469
-9.53910923 -10.8685379 0.3297894597
-15.40851879 -22.38212776 0.4911338687
-32.58522415 -56.84906769 6.366052628
-9.593846321 -10.87416458 0.330249846
-15.52900505 -22.41700554 0.4934978187
-32.51006699 -56.20251846 6.327069283
-33.2678566 -57.9133606 8.801292419
-36.15484238 -63.83333588 12.14590454
-9.66439724 -10.90964699 0.3287501335
-15.65817356 -22.4672966 0.4954674542
-32.58718109 -55.86232758 6.315901279
-33.52875519 -57.91745758 8.82669735
-32.79303741 -56.86108398 13.30294418
-9.72132206 -10.91827488 0.3289960027
-15.78597927 -22.51342583 0.4975533485
-32.31615448 -54.19009399 1.85251689
-34.23280716 -58.56097412 6.584917545
-34.43754959 -59.17783356 9.017835617
-9.754034042 -10.88079929 0.3322363496
-15.91519928 -22.56071091 0.4996181726
-32.30566025 -54.18170929 4.026443958
-34.64818192 -58.85188675 6.633016109
-34.67067719 -59.11392593 9.035120964
-9.80163765 -10.87140465 0.3336322308
-16.05053329 -22.6179657 0.501437068
-35.12903976 -59.26058578 6.692392826
-34.53871918 -58.3523674 8.959968567
-9.868226051 -10.89695835 0.332742691
-16.1608448 -22.62701607 0.5044878721
-36.71861267 -61.75168991 6.946507931
-9.91883564 -10.89238071 0.3338028193
-16.29424858 -22.6777668 0.5064861178
-35.48853302 -58.92575836 6.704453468
-35.37132263 -59.11125946 11.5213995
-9.973337173 -10.89459133 0.3344102502
-16.42816925 -22.72786713 0.5085107684
-35.83218765 -59.06370544 6.739206314
-9.987319946 -10.82318974 0.3397801816
-16.56259537 -22.77732086 0.510560751
-38.19467163 -62.9104538 7.124337196
-36.02446747 -59.13018799 9.168373108
-10.06412697 -10.86517334 0.3377840221
-16.6819458 -22.7981739 0.5133267641
-36.25260544 -59.0497818 9.184264183
-10.1491375 -10.92068863 0.3349056542
-16.81140518 -22.8359127 0.5156793594
-37.72584915 -61.42170715 12.05261707
-10.19421577 -10.90454483 0.3366560638
-16.95308304 -22.89392662 0.5175410509
-10.25718784 -10.91479015 0.3367225528
-17.09949303 -22.94887161 0.5196540356
-10.33920383 -10.96224594 0.3343417645
-17.23914719 -23.00957108 0.5213091969
-10.39454556 -10.96265602 0.3349885941
-17.36146927 -23.02913666 0.5241307616
-38.4943428 -60.75809479 12.06832409
-10.48832417 -11.02830124 0.3314201534
-17.49533844 -23.05778694 0.5269012451
-10.58569431 -11.09859085 0.3275478482
-17.65584755 -23.13993073 0.5282378793
-41.14439774 -64.13860321 10.08026981
-10.60089874 -11.02935982 0.3326458037
-17.7822876 -23.17214584 0.5306085944
-10.65167046 -11.02009869 0.3338699937
-17.9440937 -23.25275421 0.5320110917
-10.69315815 -10.99525166 0.3360818326
-18.09329033 -23.30088234 0.5343559384
-10.75118732 -10.99754429 0.3365375102
-18.21700859 -23.3149128 0.537337184
-10.80200768 -10.98766232 0.3377617002
-18.37650299 -23.38635826 0.5389916301
-10.86019897 -10.98945713 0.3382243216
-18.52722931 -23.44166183 0.5410325527
-10.90898323 -10.97573948 0.3396679759
-18.67849922 -23.49622536 0.5431007147
-10.96413898 -10.97197151 0.3404615223
-18.81866646 -23.53137589 0.5456210375
-11.01720715 -10.96459484 0.3414725959
-18.96567345 -23.57598877 0.5479336977
-11.12721825 -11.04151058 0.3371116221
-19.08738708 -23.5793972 0.5511778593
-54.88760757 -80.86786652 9.391940117
-11.1514883 -10.98813248 0.3410362601
-19.26002502 -23.65188026 0.5530461669
-54.1337471 -78.221138 2.615718842
-11.2428503 -11.03862095 0.3383168876
-19.41391754 -23.70268631 0.5552450418
-55.61657333 -80.72371674 9.446286201
-11.29204559 -11.02341461 0.3397773802
-19.55088425 -23.72591019 0.5580608845
-53.70919037 -77.58634186 15.7437706
-10.07980061 -9.413844109 3.462726355
-11.34892368 -11.01968288 0.3404925168
-19.69807243 -23.76352882 0.5605641007
-10.20384026 -9.560549736 3.954281092
-11.35175896 -10.93415833 0.3464030325
-19.85676384 -23.81708717 0.562727809
-9.99998951 -9.132798195 3.412596941
-10.21280193 -9.493997574 3.944565058
-11.4095974 -10.93177128 0.3470030427
-20.01156425 -23.86319733 0.5650624633
-10.04783249 -9.129362106 3.4190135
-10.22245026 -9.429143906 3.935276508
-11.43404198 -10.87942886 0.3507670164
-20.17917252 -23.92677116 0.5670319796
-10.07414913 -9.092904091 3.417823076
-11.53895473 -10.94605732 0.3469514251
-20.30034447 -23.91992378 0.5705175996
-55.72677231 -76.45393372 2.707731247
-10.11438656 -9.077666283 3.42157197
-9.968776703 -8.88826561 3.803039074
-11.63090992 -10.99230385 0.344421953
-20.44194031 -23.94227982 0.5733785033
-10.06082153 -8.921857834 3.392547369
-10.01153374 -8.878108978 3.808440924
-10.46981716 -9.595181465 4.471437454
-11.66416168 -10.94782448 0.3476631045
-20.59409714 -23.97877312 0.5759448409
-10.52715111 -9.486037254 2.638625145
-10.58974457 -9.605786324 3.106047153
-10.05009651 -8.831708908 3.378723383
-10.08903885 -8.919564247 3.828229904
-10.51392555 -9.581408501 4.476995945
-11.75665188 -10.99327374 0.3451601267
-20.74990463 -24.00987053 0.5787968636
-10.57072449 -9.468139648 2.641855478
-10.07739735 -8.798627853 3.378228664
-10.12934017 -8.901283264 3.831932068
-10.53067589 -9.522951126 4.468674183
-11.81177521 -10.98421383 0.3461043835
-20.90068817 -24.04153633 0.5814758539
-10.63944054 -9.49057579 2.65084815
-10.3944416 -9.159754753 3.034199476
-10.13281918 -8.803201675 3.386981964
-10.12179375 -8.816397667 3.81663084
-10.51922607 -9.42743206 4.447808266
-11.85773754 -10.96184921 0.3478780985
-21.05419159 -24.07573509 0.5841074586
-10.64173508 -9.416367531 2.645427942
-10.37673855 -9.058891296 3.021315098
-10.16999817 -8.813612938 3.824278831
-10.57923985 -9.437315941 4.461112976
-11.91751766 -10.95885181 0.3484093547
-21.20582771 -24.10589981 0.5868278742
-10.65382004 -9.356925964 2.642187357
-10.41255951 -9.036113739 3.023463488
-10.14384842 -8.677994728 3.371718645
-10.37346745 -9.034948349 3.895043135
-10.60030937 -9.394119263 4.456701279
-11.97762394 -10.96031094 0.3486281633
-21.35121727 -24.13515282 0.5894052386
-10.68320084 -9.326399803 2.643001318
-10.36157703 -8.893111229 3.001953602
-10.16094208 -8.634601593 3.368417263
-10.57790947 -9.257807732 3.966250181
-10.68178749 -9.43814373 4.480809689
-10.71253967 -9.510670662 4.979912281
-12.03757381 -10.95676994 0.3491665125
-21.51565552 -24.1897049 0.5914745331
-11.9023037 -10.97780991 2.898491859
-10.66614914 -9.255688667 3.078819036
-10.2257967 -8.655836105 3.380900621
-10.62720871 -9.256118774 3.974346161
-10.62368011 -9.277891159 4.438593388
-10.79699516 -9.553704262 5.007618427
-12.10698509 -10.96589088 0.3488894105
-21.66712379 -24.20634079 0.5946528912
-11.92730713 -10.92075253 2.896855354
-10.40399456 -8.811724663 2.99885416
-10.58722782 -9.09463501 3.493475437
-10.6992445 -9.278694153 3.990310669
-10.64645767 -9.230554581 4.433808804
-10.81693268 -9.503993988 5.000746727
-12.14915752 -10.93285751 0.3512797952
-21.83461189 -24.25285149 0.5970685482
-10.50380802 -8.851641655 2.587876081
-10.59639931 -9.029818535 3.486195326
-10.82855892 -9.384667397 4.029696941
-10.52736759 -8.987695694 4.363959789
-10.83622646 -9.449828148 4.99278307
-12.20810127 -10.9269104 0.351926595
-21.98689842 -24.26789093 0.6002859473
-11.02806854 -9.530076027 3.153878212
-10.87871552 -9.348623276 3.57097578
-10.95596504 -9.482194901 4.067412853
-10.58267403 -8.987934113 4.374708652
-11.30563927 -10.03024673 5.223612785
-12.30041981 -10.9656229 0.3497350514
-22.14824677 -24.30306625 0.6029403806
-10.58502865 -8.816803932 2.594010115
-10.98141003 -9.385449409 3.132847071
-10.74156094 -9.084048271 3.515207529
-10.68946075 -9.062776566 4.409821987
-11.33369827 -9.988204956 5.220337391
-12.34410381 -10.93822384 0.3517096043
-22.32953835 -24.37278557 0.6047558784
-10.62709904 -8.802955627 2.597522736
-10.99561405 -9.333159447 3.129270792
-11.13298893 -9.546366692 3.635509014
-11.15835857 -9.611217499 4.123206139
-10.71109772 -9.022686005 4.406355858
-10.75233459 -9.105599403 4.898004055
-12.39764786 -10.92817116 0.3525615335
-22.50152779 -24.41905785 0.6072121263
-10.62734222 -8.735944748 2.592541695
-10.45553589 -8.526350975 2.975879908
-10.82152081 -9.046609879 3.522334337
-10.97367573 -9.282364845 4.038133621
-10.64758682 -8.862854958 4.363388538
-10.81653023 -9.119661331 4.915125847
-12.4762001 -10.94659138 0.3516114652
-22.66803932 -24.45646286 0.6098496318
-10.700037 -8.763271332 2.602475643
-10.38470459 -8.362214088 2.949755669
-11.1811409 -9.458814621 3.631249666
-11.05295753 -9.340741158 4.534015656
-10.72572899 -8.922437668 4.85168314
-12.51463509 -10.90746307 0.3542914689
-22.84835434 -24.51052284 0.6121742129
-11.07440376 -9.191786766 2.675099611
-10.41578865 -8.336219788 2.95113802
-11.15146732 -9.343438148 3.611561775
-11.21560001 -9.458509445 4.108561993
-11.13241291 -9.372581482 4.555707455
-10.73606968 -8.864215851 4.841129303
-12.56424141 -10.88720417 0.3557537794
-23.01303291 -24.53325272 0.6152768135
-10.95688057 -8.959490776 2.645044804
-10.45033932 -8.314855576 2.953465462
-11.18833447 -9.317790031 3.61382556
-11.09564495 -9.219292641 4.049264908
-11.18967628 -9.37015152 4.56655407
-10.79297638 -8.868844032 4.854694366
-12.64684772 -10.90937805 0.3545220196
-23.20548248 -24.59969139 0.6173869967
