# .PCD v0.7 - Point Cloud Data file format
VERSION 0.7
FIELDS x y z
SIZE 4 4 4
TYPE F F F
COUNT 1 1 1
WIDTH 1269
HEIGHT 1
VIEWPOINT 0 0 0 1 0 0 0
POINTS 1269
DATA ascii
-7.74131012 -44.3523941 1.4771384
-6.58505106 -38.28755569 4.038356304
-6.762806892 -38.10773849 1.379136205
-6.730247974 -38.34464264 4.04609251
-6.715850353 -37.13026428 1.36465776
-6.851174355 -37.15375137 1.36608851
-6.984362125 -38.25537491 4.04393959
-6.982096195 -37.11856461 1.366628408
-7.097247601 -38.10217285 4.033564568
-7.212142944 -37.62181473 1.375731349
-7.203763962 -37.95578384 4.023647308
-7.327199936 -37.56435013 1.375807405
-7.266911983 -36.61361313 1.361569405
-7.194212437 -36.60468674 3.911095619
-7.36907959 -36.5109787 1.360875964
-7.291222095 -36.47512054 3.902440548
-5.197894573 -24.93390083 2.89789772
-5.917093754 -27.56592941 1.219909072
-5.289640427 -24.95056725 2.901344538
-5.688894272 -26.12107086 1.197173595
-5.361561775 -24.87743378 2.896912813
-5.762219429 -26.05723 1.196786761
-5.850441933 -26.03890419 1.197168231
-5.739103317 -24.80352974 1.178319216
-5.810180187 -24.73283386 1.177795291
-5.896208763 -24.72405052 1.178278804
-6.000762463 -24.78865814 1.179963231
-6.127080441 -24.93614769 1.183010459
-6.226148605 -24.95611572 1.183990955
-6.320736408 -24.97485352 1.184916735
-6.787666798 -26.0549221 1.203987598
-6.560359955 -24.87954712 1.185132504
-6.61408329 -24.74858856 1.183556199
-5.263721466 -20.00275612 3.190981627
-6.703774452 -24.74845505 1.184144855
-5.03465414 -18.92480087 3.057712078
-5.086891651 -19.09306145 3.751261473
-5.880833626 -21.56561852 0.3816675246
-6.79080534 -24.73836708 1.184563518
-5.058272362 -18.73073196 4.362242222
-6.889495373 -24.76831055 1.185645342
-5.105641365 -18.65999031 4.351775646
-7.017103672 -24.89574432 1.188352704
-5.097444057 -18.4181118 3.65030551
-5.189376354 -18.71546364 4.366682529
-5.043246269 -18.195858 4.919481754
-5.241250038 -18.85619354 5.770667553
-5.319534302 -18.86557961 0.4340216517
-5.321499825 -18.85345268 1.087885976
-5.034930229 -18.01138115 1.696882486
-5.263907433 -18.72632027 4.372875214
-5.360282421 -19.04544067 5.127075195
-5.334001064 -18.93767738 5.798597336
-5.382386208 -18.83641052 0.4343326688
-5.392752647 -18.86349297 1.088483334
-5.079283714 -17.94199181 1.694247365
-5.342212677 -18.7603817 4.383599758
-5.319280624 -18.66508675 5.040899277
-5.370645046 -18.81784439 5.770915985
-5.456059456 -18.87683868 0.4332994819
-7.388315678 -25.21700668 1.195463061
-5.054478168 -17.65540123 1.679987192
-5.03171587 -17.56240273 2.28553772
-5.433615685 -18.8476963 4.404920578
-5.392966747 -18.70598412 5.054860115
-5.389231682 -18.67495537 5.736000538
-7.285551071 -24.58135605 1.185358763
-5.066888809 -17.48672104 1.672038078
-5.180304527 -17.84004211 2.312220573
-5.433263302 -18.6219635 4.363348961
-5.408640385 -18.53407097 5.018294334
-5.428488731 -18.58010483 5.714989185
-7.339015961 -24.46222305 1.18390882
-5.09471035 -17.37158966 1.666932821
-5.20003891 -17.6942749 2.300820112
-5.523974895 -18.69465637 4.382008553
-5.469429016 -18.51120377 5.017494202
-5.477474213 -18.51841927 5.703239441
-7.413993835 -24.41357803 1.183636665
-5.180288792 -17.44326782 1.671804786
-5.295715809 -17.79385757 2.31153965
-5.050581455 -17.00467491 2.835889101
-5.571689129 -18.62830162 4.37262392
-5.557024956 -18.57367134 5.037256718
-5.53537941 -18.48610497 5.699720383
-7.506960392 -24.42184448 1.184318066
-5.254359722 -17.47647095 1.674632549
-5.409028053 -17.94615364 2.32705617
-5.101546764 -16.96984673 2.833793879
-5.644608974 -18.64229584 4.379523754
-5.636848927 -18.60973358 5.050751686
-5.518017292 -18.21791267 5.630279064
-7.59761858 -24.42213631 1.184861183
-5.639954567 -18.47931862 1.729426265
-5.474112034 -17.94419479 2.328670979
-5.204367638 -17.08705521 2.851215363
-5.695422173 -18.58683777 4.372396469
-5.630990028 -18.36800575 4.997609615
-5.801592827 -18.87786674 5.820889473
-7.242469311 -23.0687027 0.3483828306
-7.863584995 -24.95809937 1.194460154
-5.761815548 -18.63516808 1.738973737
-5.515222549 -17.86808014 2.323587894
-5.253039837 -17.04417229 2.848141909
-5.79642725 -18.68621445 4.396711349
-5.575047016 -17.98856735 4.910912991
-5.857624054 -18.83527565 5.814774036
-28.64769745 -87.51548767 2.254443407
-5.659161568 -18.12446785 1.712632537
-5.558980942 -17.80135536 2.319354773
-5.46418047 -17.49523544 2.908205271
-5.868675232 -18.69558144 4.402831078
-5.646127224 -18.01241875 4.92125082
-5.923614979 -18.83392334 5.81997776
-29.16814804 -88.06731415 2.265738487
-5.740107059 -18.16712952 1.716046453
-5.626882553 -17.80826759 2.321805477
-5.489257336 -17.38653374 2.896681786
-5.951005936 -18.73446655 4.415006161
-5.802548885 -18.28089714 4.991065025
-5.984243393 -18.80562019 5.817966938
-5.785761833 -18.10342026 1.713745117
-5.640850067 -17.65439415 2.309664965
-5.504495621 -17.24113846 2.88057375
-5.876707077 -18.29916763 5.000497341
-5.891520023 -18.21735191 1.721018076
-5.667303562 -17.54024124 2.301119804
-5.589875221 -17.30444145 2.89121151
-6.074812889 -18.68850136 4.414324284
-5.940980434 -18.28761482 5.002766609
-5.980593681 -18.27975655 1.725531578
-5.755339622 -17.60697174 2.309039354
-5.645633698 -17.27062988 2.889551163
-6.155182362 -18.71903229 4.424961567
-6.030599594 -18.33925247 5.020682812
-31.06709099 -89.6068573 2.299628973
-5.990451813 -18.10301781 1.717194319
-5.772443771 -17.46818542 2.298248768
-5.697051525 -17.23387909 2.887400389
-6.078346252 -18.27929878 5.01130867
-31.44195938 -89.68260193 2.302829266
-6.054156303 -18.10187721 1.718226194
-5.813150406 -17.39902306 2.293799639
-5.742996216 -17.18199158 2.883314133
-6.144144535 -18.28095436 5.016685486
-31.77997208 -89.65138245 2.304189444
-6.050600529 -17.90184402 1.708547473
-5.876853943 -17.39547729 2.295348883
-6.250483036 -18.3859024 5.047547817
-6.086976051 -17.81669807 1.705079913
-5.93317318 -17.37106514 2.295003414
-6.317272663 -18.42741966 3.049141407
-6.150831699 -17.80846214 1.705784559
-5.990759373 -17.35020638 2.294994116
-6.26781559 -18.10112 3.009843826
-7.233360291 -20.45527077 0.3951459825
-6.256282806 -17.90387344 1.712189555
-6.093163013 -17.4421463 2.305443287
-6.033020973 -17.26945305 2.905221462
-6.358337879 -17.98750687 1.717974305
-6.156558514 -17.43566513 2.306791306
-6.055731773 -17.14669609 2.892180443
-5.373754501 -15.13034153 0.5012446642
-6.541540623 -18.30284119 1.736291885
-6.120952606 -17.15618706 2.896006823
-6.597899437 -18.17861176 1.084978938
-6.477314949 -17.95985222 1.718722105
-6.185599804 -17.1635704 2.899585485
-6.637286663 -18.10137558 1.083995581
-6.526154518 -17.90914345 1.717146993
-6.263186932 -17.18704033 2.905562639
-6.663939476 -17.98378372 1.082326651
-6.542281628 -17.76590538 1.710567713
-27.83695984 -72.57559204 7.407715797
-6.741123676 -18.00506973 1.083032012
-6.685732365 -17.95866013 1.722328186
-6.625355244 -17.76626015 2.986901999
-6.784491539 -17.9491806 1.082383871
-6.786430359 -18.04780579 1.728376627
-6.684345722 -17.76006126 2.988767147
-5.46295023 -14.49899387 0.5114163756
-6.894678593 -18.05156136 1.084487319
-6.91675806 -18.20018005 1.73797977
-28.59154701 -72.32523346 7.41062212
-6.761080265 -17.77223015 2.993505478
-6.134444237 -16.01774788 0.4800566733
-5.664296627 -14.84330177 1.029228687
-27.70072174 -69.44828033 4.558804512
-6.806727409 -17.71532631 2.989083052
-5.483359337 -14.2727375 0.5150749683
-5.712925911 -14.82344723 1.029150009
-6.793671608 -17.54547882 1.704482913
-7.273750305 -18.6806488 3.118861914
-6.831089973 -17.46320343 1.701222658
-6.868375778 -17.39802361 1.698780417
-6.942452431 -17.42117119 1.701220751
-34.99596786 -82.94219208 2.217109203
-7.008724689 -17.41704178 1.702222109
-30.09081459 -71.72420502 7.409383297
-31.15445709 -73.23599243 2.04929924
-7.075052261 -17.41264915 1.703215837
-39.0925827 -90.80157471 2.35730958
-7.130331516 -17.38232994 1.70277667
-6.102130413 -14.81165123 0.5004395247
-30.66758537 -70.99394226 7.36956501
-6.118988037 -14.71243286 0.5018932223
-30.45864677 -69.93967438 4.632130146
-30.79188728 -70.61286163 7.343215942
-5.832767963 -13.82843113 0.5191162229
-32.66393661 -73.23902893 2.055738926
-5.285396099 -12.65027332 1.895547986
-6.223404884 -14.56686974 0.5031846166
-32.84657669 -72.97172546 2.052286625
-5.322352886 -12.62264824 1.894568443
-5.334647655 -12.53600883 1.888094425
-6.66351366 -15.26026249 0.4874349833
-5.397083759 -12.56430244 1.892415881
-6.681359768 -15.17472553 0.4885990024
-41.35853958 -89.14637756 2.340631247
-31.47730637 -68.38101196 4.576908588
-5.338359833 -12.33231544 1.87206459
-5.300168514 -12.14774895 1.856166363
-5.177500248 -11.8526516 3.122903585
-42.25608826 -89.44750214 2.348817587
-5.219285965 -11.88965702 1.406372666
-5.330927372 -12.11115265 1.854309678
-5.26074934 -11.92836857 3.142827034
-42.35122299 -88.81643677 2.339169979
-5.272526741 -11.89745426 1.407743692
-5.261685848 -11.86157131 1.832236409
-6.762577057 -14.83250332 0.493049711
-5.282214165 -11.81963444 1.404241443
-5.32085228 -11.8861475 1.836194158
-42.88293457 -88.35349274 2.333753347
-5.350130081 -11.86214352 1.407538295
-5.323379993 -11.79407501 1.829019189
-5.127829552 -11.28019047 0.5671057701
-5.140238762 -11.29262161 0.9714682698
-5.415759087 -11.89893627 1.410524011
-5.451348782 -11.95769119 1.846315622
-5.160412312 -11.25508785 0.5670990348
-5.160402775 -11.24240971 0.9707377553
-5.158211231 -11.28427601 1.376565933
-5.165181637 -11.28557587 1.78351748
-5.199170589 -11.24239063 0.5668209791
-5.198265076 -11.22790813 0.9706368446
-5.19178009 -11.26083565 1.376099229
-5.180036068 -11.22471046 1.779248357
-5.237901688 -11.22954845 0.5665379167
-5.227050781 -11.24085522 1.375830889
-5.304320335 -11.38076782 1.79584527
-5.052832603 -10.85119152 2.937712193
-5.017636299 -10.76140881 3.732445478
-6.638546944 -13.87326336 0.509201467
-5.534477711 -11.75457573 1.405974746
-5.204125404 -11.09417725 1.769844651
-5.105656147 -10.86837578 2.945112228
-5.100856304 -10.83395863 3.759535074
-6.547063351 -13.58528233 0.5146743059
-5.575181007 -11.73597908 1.405881286
-5.110113144 -10.81992722 1.74503684
-5.847524643 -12.24189281 2.33265686
-5.155005455 -10.87393951 2.950227261
-5.014849186 -10.59477615 3.287959099
-5.110909462 -10.76793385 3.744957685
-5.484772205 -11.45622444 1.808120489
-5.19635725 -10.86800003 2.952697515
-5.039890289 -10.5598402 3.283319712
-5.176950455 -10.80988121 3.762784004
-5.484688282 -11.37087727 1.801442862
-5.943446159 -12.23234272 2.3365767
-5.342895031 -11.06619835 2.999431133
-5.097434521 -10.58695412 3.294753313
-5.895558357 -12.09385586 4.154031754
-5.297612667 -10.9458313 4.238135815
-5.039264679 -10.44339561 1.713069081
-5.628423691 -11.54554749 2.245044947
-5.29126215 -10.88696766 2.964072227
-5.147128105 -10.60263252 3.303064346
-5.279392719 -10.84340286 3.783005238
-5.283614635 -10.83854008 4.207137108
-47.80662918 -90.39250946 2.382838249
-27.68857384 -52.95190048 3.775537729
-5.078243732 -10.43627262 1.71391201
-5.213629246 -10.68226433 2.129020929
-5.326304436 -10.86836147 2.963879585
-5.194094658 -10.6085825 3.309127569
-5.277873516 -10.75665474 3.762240648
-5.330382347 -10.84183502 4.214501858
-7.106546879 -14.09950829 0.4997419715
-48.09634781 -90.14630127 2.379723787
-26.53058052 -50.33673096 3.629964352
-5.343389034 -10.84586525 1.755400538
-5.651145458 -11.40972519 2.231416941
-5.398446083 -10.91438198 2.978043318
-5.272509098 -10.66829777 3.32946372
-5.338169098 -10.7813406 3.77540493
-5.380813122 -10.84734631 4.223014355
-7.066637516 -13.9164896 0.5029342771
-48.40758133 -89.97790527 2.37791419
-26.8069191 -50.41474915 3.639039755
-5.21581316 -10.52753258 1.725993276
-5.718173027 -11.44124889 2.238401651
-5.367916584 -10.77462482 2.951369524
-5.302168846 -10.6411829 3.327032328
-5.2830863 -10.59359264 3.724285603
-5.411272526 -10.81997871 4.219903469
-27.87247658 -51.76679611 1.696385503
-5.753428459 -11.44491386 1.395656586
-5.979460239 -11.84523106 1.856261015
-5.292868614 -10.57637119 2.121685505
-5.079084873 -10.17763615 2.443226814
-5.431834698 -10.80913639 2.962885857
-5.427532673 -10.79266262 3.371034622
-5.304315567 -10.55559254 3.717922449
-5.366887093 -10.65671253 4.169702053
-7.200356007 -13.95042324 0.5005928278
-29.09819984 -53.56659698 1.72922802
-5.781574249 -11.40900326 1.394525051
-5.155529499 -10.23936367 2.457257986
-5.47800684 -10.81066513 2.967211485
-5.544408798 -10.92197227 3.40965867
-5.359828472 -10.57579803 3.729540586
-5.305635929 -10.46543694 4.109619617
-7.242237091 -13.91348839 0.500526607
-27.72472382 -50.66957474 1.678068638
-5.85217905 -11.44987774 1.397835612
-5.329156876 -10.49494934 1.727603912
-5.768800735 -11.2730732 2.222845316
-5.202673912 -10.24715233 2.461694241
-5.549118996 -10.85659409 2.981360912
-5.588980675 -10.91510582 3.41299963
-5.395568848 -10.55597687 3.729317427
-5.364558697 -10.49183083 4.12510252
-7.284618855 -13.88292313 0.5003531575
-22.35259056 -40.68263626 1.499904633
-5.866461754 -11.38476753 1.395066142
-5.405282021 -10.54833698 1.73454845
-5.961474419 -11.53164387 2.261269569
-5.239000797 -10.23140717 2.462094307
-5.578099728 -10.8224144 2.978103399
-5.420051575 -10.52013969 3.723959923
-5.407561302 -10.4853096 4.129525185
-22.5130024 -40.64266205 1.499682903
-5.895211697 -11.35029697 1.394021988
-5.390977859 -10.44437122 1.72597003
-6.026049137 -11.55911636 2.267749786
-5.283383369 -10.23364067 2.465591908
-5.990661621 -11.46912575 3.125280857
-5.652554035 -10.86378765 3.409422159
-5.480631828 -10.54811096 3.738131523
-5.430920124 -10.44795704 4.122911453
-28.40596771 -50.65965652 1.679748535
-26.18596649 -46.93571472 3.463637114
-5.432532787 -10.44373226 1.727465987
-5.894217014 -11.24128151 2.226220608
-5.278867722 -10.14987659 2.45362711
-5.96841383 -11.34851265 3.102749109
-5.632380486 -10.74744511 3.383754015
-5.49078989 -10.49120522 3.726094484
-5.459068775 -10.42313957 4.120372772
-29.3057518 -51.8427124 1.701544166
-5.490999699 -10.47230816 1.731856346
-5.903875828 -11.17859364 2.219988585
-5.262369633 -10.05005169 2.438580513
-6.114961147 -11.52261829 3.145591021
-5.651618004 -10.70498085 3.377283573
-5.501594543 -10.43601322 3.714568853
-5.50817728 -10.43469524 4.130614758
-30.21375275 -52.99948883 1.722916245
-29.28067017 -51.59000778 3.743131876
-5.774889946 -10.8860178 1.774419546
-5.770924091 -10.87023163 2.179443836
-5.316615582 -10.07352734 2.44578743
-5.285598755 -10.00807667 2.813209534
-5.701977253 -10.71644211 3.385086775
-5.613872528 -10.55197334 3.75596261
-5.531172752 -10.39709854 4.123989105
-30.66590691 -53.35640335 1.729936004
-5.852956772 -10.93979359 1.781502962
-5.339430332 -10.05085087 2.067409277
-5.3617239 -10.07703686 2.44957757
-5.338388443 -10.02509975 2.82091713
-5.728584766 -10.68292809 3.38127327
-5.610674381 -10.4688549 3.736194134
-5.583044529 -10.40896702 4.134789944
-30.73917389 -53.0629921 1.725263
-26.33168983 -45.758255 3.41152072
-5.840589523 -10.83853149 1.773241282
-5.36843586 -10.02698421 2.066459179
-5.369812489 -10.01734829 2.441929817
-5.669761181 -10.51382732 2.934012413
-5.708441257 -10.57044411 3.35649085
-5.613622189 -10.38435841 4.132803917
-28.97241211 -49.67498398 1.664908528
-26.47813797 -45.6488266 3.409365892
-5.896658897 -10.85405922 1.776563883
-5.450006485 -10.09183216 2.077974558
-5.346271992 -9.905049324 2.424702406
-5.638249397 -10.38417721 2.909212112
-5.665641785 -10.42136669 3.321896315
-5.498832703 -10.12871265 3.642705917
-5.625460625 -10.32843018 4.119775295
-27.36525536 -46.60537338 1.610199332
-26.72441864 -45.70703888 3.417057514
-5.85788393 -10.71020699 1.764040232
-5.46689415 -10.0471487 2.074136972
-5.355501175 -9.848978043 2.417669535
-5.553394318 -10.16726685 2.864774466
-5.648946762 -10.31785107 3.299345255
-5.555191517 -10.1491251 3.65479064
-6.048354626 -10.95638657 4.348971367
-29.93010902 -50.49542618 1.680753708
-27.59101105 -46.79463959 3.485299349
-5.905534267 -10.71186638 1.765991807
-6.083025455 -10.99736977 2.210527658
-5.45219326 -9.938457489 2.437195778
-5.535131454 -10.06370258 2.845643759
-5.672956467 -10.28297234 3.295077562
-5.548686981 -10.06509304 3.634505987
-6.081802368 -10.93181038 4.347536564
-29.88946724 -50.00095749 1.67242372
-27.24521255 -45.82750702 3.433235645
-6.164601326 -11.05359268 1.802125216
-6.079610348 -10.90432167 2.200398207
-5.498951435 -9.924905777 2.818936586
-5.778262138 -10.37420368 3.325113058
-5.509592533 -9.921545029 3.596217394
-6.112690449 -10.89518166 4.342584133
-29.23239326 -48.54637909 1.646707654
-6.248984337 -11.11186886 1.809841156
-5.607491016 -10.04298782 2.463224411
-5.592298985 -10.00599766 2.84133482
-5.870780468 -10.45021629 3.350704908
-5.528160095 -9.880759239 3.589286089
-6.111749649 -10.81500816 4.321394444
-27.16675568 -45.00005722 3.393142223
-6.350591183 -11.19681358 1.820269585
-5.596675873 -9.966116905 2.07286644
-5.508597374 -9.811530113 2.424066544
-5.626319408 -9.989691734 2.841829538
-5.900230408 -10.42294788 3.34864831
-5.59441185 -9.917149544 3.606488705
-29.8456459 -48.79262924 1.652117968
-28.22473717 -46.36092758 3.47804594
-6.377111435 -11.15932465 1.818441629
-5.608472347 -9.914455414 2.068053246
-5.553412437 -9.813996315 2.427820444
-5.649898529 -9.956596375 2.838545322
-5.970873833 -10.46173477 3.364416838
-5.637414932 -9.915493965 3.611873388
-29.87456703 -48.48679352 1.647041082
-28.45126915 -46.37044525 3.483137608
-6.390023708 -11.10431671 1.814754486
-5.521861076 -9.706382751 2.040967464
-5.58465004 -9.794503212 2.427556753
-5.74698925 -10.04416466 2.862442732
-5.899568081 -10.27409267 3.319118261
-30.01696777 -48.34506989 1.644937634
-28.55095673 -46.1946907 3.477032423
-5.53676796 -9.661839485 2.037111759
-5.58996439 -9.737476349 2.420205832
-5.814815521 -10.08038807 2.874995947
-5.915199757 -10.22969532 3.312164307
-30.12648964 -48.15234756 1.641899586
-5.590429783 -9.681917191 2.042363167
-5.662365913 -9.782837868 2.431967258
-6.03827858 -10.35018921 3.350197792
-30.16152191 -47.84502792 1.636774898
-29.05426788 -46.28688049 3.491700888
-5.605536938 -9.634591103 2.038247585
-5.708450317 -9.786239624 2.43600893
-5.956755638 -10.16000366 2.901965618
-6.216763496 -10.55080414 3.410479784
-30.15565681 -47.47762299 1.630547285
-30.91464806 -48.8049469 3.64688015
-29.51663589 -46.5942688 5.423275948
-5.645812035 -9.629936218 2.040124655
-5.754038334 -9.785102844 2.439413786
-6.001004696 -10.1572113 2.905819893
-6.283590317 -10.57964897 3.423982382
-30.6769886 -47.94019699 1.639311314
-31.26079369 -48.99016953 3.66264534
-6.353435516 -10.65256596 2.189602613
-5.814935207 -9.813914299 2.448083639
-6.031867504 -10.13719082 2.905535698
-6.42476511 -10.7251091 3.469118357
-30.79926682 -47.76935196 1.636619568
-6.385863304 -10.63140392 2.189299583
-5.813138962 -9.746643066 2.438865185
-6.057804108 -10.10616398 2.902969599
-30.8909111 -47.5532074 1.633093715
-6.458259106 -10.66697788 2.197345018
-5.827774525 -9.701529503 2.433946609
-6.090109348 -10.08489037 2.9026618
-57.92951584 -87.7268219 2.361895561
-6.638896465 -10.86409569 2.228808165
-5.858619213 -9.681078911 2.433648348
-6.698762894 -10.87426376 2.233467579
-6.50748539 -10.57606792 2.605576515
-28.28527641 -42.6459198 1.545162678
-6.706468582 -10.80684948 2.22688961
-5.932032108 -9.650870323 2.435473204
-28.44947433 -42.5899086 1.544442058
-6.732697487 -10.77467155 2.225122213
-5.951137066 -9.616413116 2.432404995
-59.92924881 -88.06323242 2.370640278
-28.3900528 -42.33628845 3.295356274
-6.801506042 -10.80462551 2.232426167
-6.007036686 -9.635656357 2.439496756
-28.57670212 -42.29771423 3.297535419
-6.76837492 -10.68280792 2.21773839
-21.94623375 -31.04313087 3.947038174
-21.81713295 -30.68935013 2.620537281
-21.78640175 -30.60469818 3.90781641
-48.0446167 -65.78085327 1.969850779
-21.83259964 -30.48218727 2.611406565
-21.79354477 -30.38673401 3.892002821
-47.81164169 -64.99726868 1.955873132
-21.91441345 -30.37691307 2.608374357
-21.13967514 -29.29378319 3.783480883
-21.65703964 -29.95704269 5.132847786
-47.60837936 -64.28516388 1.943162084
-21.11920357 -29.07037926 3.766136408
-21.87083054 -30.03041077 5.153972149
-47.35635376 -63.49349976 1.928993225
-22.45999908 -30.68474007 2.634280205
-21.21287155 -28.99005318 3.764235973
-22.01352692 -30.00761223 5.160791874
-22.62438393 -30.68566132 2.637910128
-21.46912384 -29.12354088 3.785065174
-21.47867012 -29.10492325 5.034668446
-22.94199371 -30.8856945 2.653961182
-21.60777855 -29.1005497 3.789359093
-21.69476318 -29.1723938 5.055458546
-21.99014473 -29.52529526 6.394311428
-22.9360218 -30.6510849 2.643162489
-21.80140686 -29.13781738 3.800471306
-21.85930824 -29.18120575 5.067011833
-21.85595894 -29.13489342 6.332173824
-45.88413239 -59.79853821 1.862472057
-32.45185089 -42.69077682 3.39925313
-21.85239601 -29.00011063 3.792610645
-21.7728672 -28.866436 5.029579639
-21.92333603 -29.01772881 6.322890759
-32.76633453 -42.79275894 3.410808325
-20.41072464 -26.95779419 3.580582857
-22.14036369 -29.13391495 5.080548286
-22.00602722 -28.9206543 6.317585945
-20.77680016 -27.27409935 2.442313671
-20.18331718 -26.48265648 3.535982609
-22.05947495 -28.82881737 5.044531345
-22.03804016 -28.75979424 6.299695015
-45.86568069 -58.5201416 1.839609861
-20.9185276 -27.26398087 2.44498992
-20.37441444 -26.53992081 3.548536062
-20.67234612 -26.88515091 4.757997513
-21.32283783 -27.66237259 6.095991135
-45.751297 -57.96656036 1.829627752
-20.96441078 -27.13304138 2.440077782
-20.38059616 -26.36433411 3.536040545
-20.60434914 -26.61435318 4.726348877
-21.26697159 -27.40110397 6.05759573
-45.53833389 -57.31662369 1.817863464
-21.1737175 -27.20594788 2.448025942
-20.33260155 -26.13205528 3.517057896
-20.73676682 -26.59469986 4.733151913
-21.29650688 -27.2481575 6.040657997
-45.3640976 -56.70116806 1.806717753
-21.31503677 -27.20229912 2.451006651
-20.71344185 -26.42139816 3.554899693
-20.23420143 -25.79316711 4.61965847
-21.79594803 -27.68308449 6.140515327
-45.19371796 -56.09691238 1.795760155
-20.0325222 -25.44401741 2.342979431
-20.46711922 -25.93843651 3.509001255
-20.31195259 -25.71967888 4.617516041
-21.75827789 -27.44617653 6.10699749
-44.97642899 -55.44207001 1.783861995
-20.15878105 -25.42329788 2.344866991
-20.41023064 -25.69137764 3.488613367
-21.28683853 -26.7257843 4.782916546
-20.61570549 -25.873209 5.804916382
-44.80367279 -54.8478775 1.773055553
-20.0520134 -25.12042236 2.328818321
-20.594841 -25.73804474 3.500235319
-21.47872162 -26.77344322 4.800540447
-20.77148247 -25.88300323 5.82015276
-44.6555481 -54.28931046 1.762884736
-20.13271332 -25.0456543 2.327261448
-20.86817932 -25.88926888 3.523388147
-20.37229347 -25.25795364 4.575701237
-20.95042419 -25.91928291 5.840877056
-21.75125694 -26.83511925 7.245913506
-44.84807587 -54.14080048 1.760189414
-20.2661705 -25.02521324 2.329343557
-19.58543015 -24.18728828 3.3432827
-20.5279274 -25.27011871 4.587434292
-21.19163132 -26.01890182 5.875279427
-22.10347176 -27.06798744 7.321733475
-45.09163666 -54.07114792 1.758920312
-27.49545288 -33.41065598 2.869428158
-19.71298981 -24.18146896 3.348622561
-20.52419662 -25.1018486 4.570563793
-21.33415031 -26.01763153 5.888065815
-22.24293709 -27.05569839 7.335753918
-45.35340881 -54.02175522 1.758008003
-27.54498291 -33.2508316 2.863365173
-19.80452919 -24.13259506 3.349262953
-20.72977066 -25.18004799 4.592271805
-22.4814415 -27.19034004 6.139995575
-45.58797455 -53.93935394 1.756479144
-27.28952599 -32.73614502 2.834475517
-19.82586479 -24.00170326 3.340864182
-20.73543358 -25.02371979 4.577280045
-21.55796814 -25.94118881 5.898906231
-22.21450233 -26.67208099 7.273849964
-45.86985016 -53.85466766 1.754887938
-27.52109337 -32.7689209 2.841197252
-19.68128967 -23.6555233 3.309547424
-20.94370842 -25.08555984 4.597630024
-21.17094994 -25.30939674 5.784341335
-22.29984856 -26.57004356 7.268145084
-46.12145996 -53.77113724 1.753306031
-20.72882843 -24.73525238 2.326797962
-19.61420631 -23.41830826 3.289565086
-19.43841362 -23.18922615 4.308293819
-21.2643261 -25.24412537 5.784796238
-22.50899124 -26.62786293 7.301131248
-46.35852814 -53.66997147 1.751387
-20.75805855 -24.60111809 2.321457386
-19.76257515 -23.42905045 3.297128916
-19.56230736 -23.17336082 4.315294743
-21.26480484 -25.07313538 5.763546467
-25.6253109 -29.86571503 1.316563725
-20.81963539 -24.50452614 2.31854105
-19.82680702 -23.3434391 3.293996572
-19.7007618 -23.16535759 4.324103832
-21.33644104 -24.98380852 5.759092808
-25.760849 -29.8149395 1.315580487
-21.00167274 -24.53555298 2.324089766
-19.54755783 -22.87200737 3.247672081
-19.93329048 -23.2698307 4.350434303
-21.51327515 -25.00408363 5.778069019
-26.0539341 -29.9392128 1.317784905
-25.83227921 -29.77791595 2.668853283
-19.2785511 -22.41765022 3.20304966
-20.00098801 -23.18818855 4.347222805
-22.61610222 -26.07039833 6.012965679
-26.16318321 -29.85702515 1.316210866
-39.12356567 -44.32891846 3.623134613
-19.32705498 -22.32057381 3.19843483
-20.35737419 -23.43405342 4.395987511
-23.69771576 -27.08884811 6.240013123
-47.69771957 -53.3205452 1.744418502
-25.28186417 -28.76830673 2.611183167
-19.61236572 -22.48449898 3.223276377
-19.77330971 -22.63413811 4.277614117
-23.79219246 -27.00872612 6.23903513
-47.9479599 -53.22750473 1.742555618
-28.89730644 -32.53056717 2.862044811
-19.88964081 -22.63639832 3.246914148
-19.87220192 -22.5897789 4.280293465
-21.42050934 -24.24146271 5.675371647
-48.17643356 -53.10984421 1.740227938
-28.62627029 -32.01491165 2.832844019
-20.08987617 -22.70161629 3.260869265
-19.957304 -22.52253151 4.279826164
-22.374403 -25.10991859 5.872095108
-23.29057884 -26.0596714 7.307648182
-28.39128685 -31.53322411 2.805996418
-20.00037575 -22.44519806 3.238665819
-20.21689796 -22.65047073 4.310517788
-22.38404083 -24.94223404 5.852516651
-23.37931442 -25.9696064 7.30486393
-44.74667358 -48.7022934 1.659418821
-26.54624367 -29.34266281 2.665949106
-19.63602829 -21.90493393 3.183655262
-20.40026093 -22.69421005 4.327746868
-24.5018177 -27.03244591 6.309247971
-23.40277672 -25.81888962 7.285339832
-44.76366806 -48.40378952 1.653775454
-26.59626007 -29.19740105 2.660665989
-19.52956581 -21.65242386 3.160964966
-20.99016953 -23.167593 4.415112972
-22.67041779 -24.91009903 5.875948906
-23.50885582 -25.76521492 7.290162563
-44.79705811 -48.10803986 1.648159504
-26.82463837 -29.25123215 2.668366194
-19.58153534 -21.56237221 3.157134771
-19.77042198 -21.72715569 4.190320969
-22.82938576 -24.91773796 5.892129421
-22.13554955 -24.14883995 6.886129856
-44.95189667 -47.9413147 1.64488256
-27.04623604 -29.28612137 2.6750772
-19.81200981 -21.65964508 3.17485261
-19.78205299 -21.60108376 4.179142952
-24.89151955 -26.90390587 6.33104372
-22.19407082 -24.04712868 6.878255367
-15.47358799 -17.00812149 0.3012695909
-47.3913765 -50.14881897 1.684849024
-44.06650925 -46.82597351 3.848610163
-19.91219139 -21.61904716 3.176794767
-19.77050972 -21.44451523 4.163426399
-22.4062233 -24.1441021 5.757798195
-22.14022827 -23.82938576 6.839775562
-15.51850986 -16.94256401 0.3005425334
-47.46537781 -49.89951706 1.680041432
-29.2318821 -31.15377045 2.808763504
-23.15200615 -24.83016968 3.554439068
-19.88112831 -21.41521835 4.16863203
-22.44916344 -24.02588081 5.747718811
-22.0633297 -23.59785843 6.796530724
-15.43900394 -16.75497627 0.3036675751
-47.73666 -49.83666229 1.678601503
-29.20404625 -30.92490578 2.798004627
-23.07569313 -24.5849762 3.533786297
-19.92381096 -21.31575584 4.162308216
-23.57485962 -25.02417755 5.97706604
-22.2694931 -23.64968681 6.829294682
-15.43396187 -16.63965416 0.3044700027
-49.86361694 -51.66136169 1.711502433
-29.57024193 -31.08962822 2.813872099
-23.15288734 -24.49852943 3.531506777
-19.9416008 -21.19847679 4.152523994
-22.06070137 -23.3171463 5.624853611
-22.23350525 -23.45408058 6.796411991
-15.49995804 -16.59711456 0.3030324578
-50.06299591 -51.50980377 1.708404064
-30.43597794 -31.75704384 2.863658428
-24.6068573 -25.80552292 3.691741943
-20.26410866 -21.38278961 4.193380833
-22.76270676 -23.86885834 5.759463787
-22.29332733 -23.35661697 6.789624214
-50.34096909 -51.43681717 1.706719279
-29.13438797 -30.23186302 2.765820026
-27.35098267 -28.38977432 4.002302647
-20.36244583 -21.33856773 4.196406364
-20.43714333 -21.37839508 5.234332085
-23.25718689 -24.16363525 7.025409698
-15.44188595 -16.31638908 0.3060743511
-50.48590088 -51.2297821 1.702580929
-29.37803459 -30.2712059 2.773304462
-26.38191414 -27.23103714 3.875682831
-20.46570778 -21.29173851 4.199580193
-22.24243164 -23.03147697 5.608609676
-23.41835403 -24.16103745 7.044989586
-15.45859337 -16.22583961 0.306124717
-50.78944016 -51.1626358 1.700950027
-29.32967186 -30.00852013 2.760616779
-26.76031685 -27.41324997 3.906551123
-21.92788124 -22.59603882 4.429084778
-20.63610649 -21.28274345 5.24257803
-23.57268715 -24.14243698 7.06148243
-23.29911232 -23.84041405 8.174812317
-50.71352768 -50.73840332 1.692835093
-29.55504608 -30.02793884 2.766811371
-26.87004089 -27.33638191 3.906617165
-21.27356529 -21.79450607 4.30603075
-20.77814293 -21.27965736 5.256277084
-21.92018509 -22.36208344 6.599970818
-23.38383675 -23.75460815 8.173056602
-50.68107605 -50.36000824 1.685541272
-29.58387756 -29.85331154 2.759837627
-21.08548164 -21.50098991 3.225261688
-20.60233688 -21.00112343 4.18252039
-20.94023705 -21.29513741 5.274202824
-22.02655792 -22.31538582 6.606581688
-23.57360077 -23.78677559 8.207143784
-50.45129395 -49.79318237 1.674816608
-29.5674324 -29.63568115 2.749911308
-21.13030243 -21.40084267 3.220612764
-20.64702606 -20.90411186 4.176819801
-20.96059227 -21.17230797 5.261771679
-23.6611824 -23.74357414 7.015441418
-50.3766861 -49.38110352 1.666890621
-30.15646935 -30.00394821 2.780068159
-24.34851074 -24.35813904 3.579938889
-20.81152916 -20.92271233 4.190774441
-21.8643856 -21.8985424 5.437339783
-22.42638397 -22.40004921 6.66886425
-15.47194481 -15.71338081 0.3083054125
-15.6639328 -15.87096405 1.058955908
-29.77051926 -29.43128967 2.745813847
-24.40170097 -24.24538612 3.574881554
-20.83135223 -20.80183029 4.181074142
-21.4558754 -21.36218834 5.333596706
-22.5189743 -22.33770943 6.671695709
-15.37855339 -15.52156734 0.311663717
-30.111763 -29.55716896 2.759474039
-24.49629974 -24.17235947 3.574583769
-21.15176773 -20.96675682 4.220247746
-21.50178909 -21.26256561 5.326577187
-24.02667236 -23.61273575 7.04297924
-23.8286438 -23.39280128 8.180006981
-15.42940998 -15.46784687 0.3105400205
-30.04768944 -29.29681396 2.74657774
-23.57429695 -23.14016533 3.459091663
-21.63986588 -21.2863102 4.28625679
-21.37587738 -21.00171852 5.283503056
-24.24256516 -23.65628815 7.076530457
-15.37505054 -15.31548977 0.3126529157
-29.52619171 -28.60937691 2.704093933
-23.68984985 -23.09311295 3.461631536
-21.69092751 -21.19155693 4.281396866
-21.40301323 -20.88636589 5.272847652
-24.32105827 -23.56998825 7.074376583
-15.38421059 -15.22363281 0.3127863705
-28.81610489 -27.75432396 2.649785519
-23.80828667 -23.04823875 3.464482546
-24.21714973 -23.39612961 4.673789501
-21.48469543 -20.822155 5.273691654
-24.66894722 -23.73303223 7.141679287
-15.43402863 -15.16989422 0.3116503358
-28.87168694 -27.6182766 2.645205736
-25.57419205 -24.53286552 3.652387142
-24.6083622 -23.59954643 4.721954823
-21.37565994 -20.58219528 5.234881878
-24.77263641 -23.67617989 7.14700079
-15.375144 -15.02130795 0.3138313591
-28.92202759 -27.48722267 2.640724421
-24.86222076 -23.7143364 3.561830521
-24.97493553 -23.77635765 4.765861988
-21.57107735 -20.62982178 5.260296822
-25.16759491 -23.87688255 7.225728989
-15.3828907 -14.92987823 0.3139620721
-29.71420097 -28.02448273 2.683192968
-24.9714241 -23.65419388 3.563256741
-25.01429558 -23.65988922 4.758265495
-21.57147217 -20.49180412 5.244477749
-23.77475739 -22.45297241 6.848219872
-15.43168354 -14.87614441 0.3128146827
-28.89851379 -27.09545326 2.623155355
-29.25912476 -27.3741684 4.027347565
-25.16914368 -23.6402359 4.768286228
-22.24214745 -20.95908737 5.366799355
-23.34505653 -21.91474533 6.71805048
-15.33161163 -14.68854713 0.3162309527
-28.97358513 -26.97970009 2.619960546
-25.2280426 -23.56710815 3.570312262
-26.68892479 -24.84408188 4.993348122
-22.21086121 -20.79018593 5.34428215
-23.48335075 -21.89056206 6.732620716
-15.37956238 -14.63499451 0.3150797486
-25.31085968 -23.52350426 2.381415129
-25.29387856 -23.46690369 3.566946268
-26.7460537 -24.72687531 4.987149715
-21.8757782 -20.35244751 5.259847641
-23.64234543 -21.88393784 6.752361774
-15.4273262 -14.58127594 0.3139212132
-25.11486244 -23.1910038 2.36227107
-26.96927834 -24.79269409 3.739804268
-26.8949337 -24.6911602 4.99537468
-22.07886314 -20.39491081 5.285673141
-23.60841751 -21.7062397 6.723512173
-15.36685562 -14.43225574 0.3160706162
-25.65878487 -23.51397896 2.389474869
-27.4928112 -25.08540535 3.785751104
-26.39616013 -24.08578682 4.902598858
-21.88854599 -20.09080887 5.231482029
-23.92702866 -21.8383522 6.783246517
-15.3537035 -14.32593918 0.3167519867
-25.54825401 -23.25848961 2.375754118
-26.29073143 -23.86544418 3.643885136
-26.36953926 -23.89939117 4.883850574
-21.85891533 -19.92977715 5.210207462
-23.69495964 -21.48897552 6.705101013
-15.34301472 -14.22250175 0.317342639
-25.66698647 -23.20454216 2.376332045
-28.52591515 -25.64242172 3.875123501
-24.16455269 -21.82789993 4.528065205
-21.79252434 -19.73816109 5.181698799
-24.1214695 -21.71150208 6.791449547
-15.33785057 -14.12452221 0.3177492321
-30.11629105 -26.88653755 2.64380908
-27.16884232 -24.30773735 3.717829466
-26.427845 -23.62644958 4.864024162
-21.89609909 -19.69403458 5.187570095
-24.26107788 -21.69132423 6.807100296
-15.33446026 -14.03331757 0.3180757165
-25.66220856 -22.89538765 2.36291194
-25.26630783 -22.51524734 3.502526522
-24.27906799 -21.63140106 4.51948595
-24.32551765 -21.63882828 5.660048962
-24.43441582 -21.69165421 6.830039501
-15.44257927 -14.03286362 0.314987272
-25.69939613 -22.77199745 2.358524561
-25.80220413 -22.81787491 3.549868822
-23.76928711 -21.05987358 4.429050446
-24.37410355 -21.53320694 5.653357983
-24.36332703 -21.48427963 6.792633057
-25.33811378 -22.27369118 8.234987259
-15.37744999 -13.88079453 0.3171973526
-15.58628654 -14.03668404 1.022540331
-25.79402161 -22.69761658 2.357661009
-26.03727913 -22.861269 3.56478405
-24.22028923 -21.28977776 4.484656811
-22.74667549 -20.01927376 5.313285828
-24.51244164 -21.46333885 6.809618473
-25.36023521 -22.13282013 8.216275215
-15.34596348 -13.76287365 0.3183524311
-15.61285019 -13.96152782 1.020954132
-25.73304558 -22.48480797 2.347035408
-26.79500389 -23.33246613 3.634618282
-24.28100395 -21.19608879 4.481160164
-22.65613365 -19.80138206 5.279528141
-24.4674511 -21.27255058 6.778038502
-25.58352852 -22.16741371 8.257688522
-15.27916718 -13.61197186 0.3205806017
-15.63064766 -13.88397408 1.019333005
-25.84059525 -22.42168617 2.346987724
-25.80797768 -22.3531723 3.519749641
-24.25317383 -21.0218792 4.463656425
-23.10463142 -20.03861809 5.35329771
-24.71476364 -21.33209991 6.819024563
-25.79759979 -22.18501282 8.295024872
-15.30045795 -13.54866505 0.3200770915
-15.63433552 -13.80427265 1.017694235
-26.45998383 -22.78920174 2.378021955
-25.95386124 -22.33667564 3.526215553
-24.28439903 -20.91896057 4.457093716
-22.88744926 -19.73063087 5.29624176
-24.80520821 -21.27539253 6.823574543
-25.78656197 -22.03930855 8.270441055
-15.3484211 -13.50297737 0.3187556267
-26.72086906 -22.85605621 2.387338638
-25.68195724 -21.96149254 3.487728119
-23.55353737 -20.17846298 4.334581852
-23.10177994 -19.77836037 5.32431221
-24.43809128 -20.83073616 6.71522522
-25.86028481 -21.95591736 8.26940155
-15.3209486 -13.39126015 0.3197331131
-26.62873077 -22.62498283 2.375190735
-27.12829018 -22.98930168 3.629524708
-22.95018387 -19.55759048 4.232636452
-22.94073486 -19.5131073 5.278019905
-24.5707531 -20.79583931 6.728454113
-25.90101051 -21.83828354 8.257742882
-15.36653996 -13.33507538 0.3184721172
-29.24098587 -24.53986549 3.839868546
-23.01258278 -19.46826363 4.229820251
-23.0768528 -19.48983765 5.290038586
-24.95932007 -20.96591759 6.803325653
-25.97382927 -21.73929024 8.254292488
-15.41600418 -13.28641701 0.3170738518
-23.65405273 -19.88031578 3.24743557
-23.60166168 -19.80751991 4.306136608
-23.18237686 -19.43462563 5.295337677
-24.90273285 -20.76990318 6.769884109
-26.04871178 -21.64946938 8.252680779
-15.47000599 -13.24130535 0.3155244589
-23.74377823 -19.8162117 3.247993231
-23.13921165 -19.30449867 4.225725174
-23.27836227 -19.37804031 5.299510002
-24.80922508 -20.55329132 6.72880125
-15.5614996 -13.22575951 0.3128188252
-23.6830883 -19.6396122 3.233454466
-23.01810837 -19.07702065 4.196415901
-22.66912842 -18.76538849 5.167435169
-26.74110794 -21.93891144 7.172540188
-15.61478138 -13.1840229 0.3112633228
-23.85817146 -19.6496048 3.243286133
-23.05981636 -18.98579407 4.191910744
-23.63338852 -19.39805603 5.339997768
-27.37363625 -22.2892437 7.304382324
-15.67008686 -13.13933945 0.3096375763
-23.89855003 -19.54654312 3.238809586
-24.86130714 -20.26538086 4.446438313
-23.6606884 -19.29275513 5.331613064
-27.27639008 -22.05962372 7.261281013
-15.77480507 -13.12841892 0.3064941764
-23.95751762 -19.45144463 3.235841274
-23.79133987 -19.29195213 4.276986122
-23.81610298 -19.27340698 5.346412182
-25.59116364 -20.60191917 6.841839314
-15.8680191 -13.11234856 0.3036866188
-27.7950573 -22.26768684 3.618120193
-23.52792168 -18.95060349 4.226602077
-24.16639709 -19.40221596 5.398332119
-25.53232765 -20.41440201 6.809579849
-16.66926956 -13.61979866 1.011387944
-30.17471123 -23.9378376 3.850335836
-23.60535622 -18.88563919 4.227341175
-24.15564919 -19.26679039 5.382712841
-25.96546555 -20.60873604 6.894173622
-16.79327393 -13.62193489 1.011108279
-30.66187286 -24.18839645 2.54238987
-28.87457848 -22.78591537 3.70825696
-23.88860703 -18.93861961 5.318604469
-25.35332489 -20.00438309 6.732308865
-30.64824295 -24.001297 2.534158468
-28.91824341 -22.65231514 3.702119112
-24.49202347 -19.29162025 4.333715916
-23.81893921 -18.74882698 5.290847778
-25.21599388 -19.75574875 6.68158102
-30.81925201 -23.95341873 2.536460876
-29.5277977 -22.94954872 3.753368616
-24.55963135 -19.20163536 4.331634998
-23.82596207 -18.61761284 5.277757645
-25.33119965 -19.70375061 6.690942287
-60.65497971 -45.85314941 1.573935628
-30.69518089 -23.7021637 2.5227561
-29.43287086 -22.72677612 3.734261513
-24.62211418 -19.1211853 4.329972267
-24.43226814 -18.94246292 5.378756046
-25.15028763 -19.43984413 6.632352829
-60.99515533 -45.7763443 1.571365356
-30.77397728 -23.60261536 2.520569324
-29.52681732 -22.63684464 3.733631849
-25.06697655 -19.32169533 4.383185863
-25.82084274 -19.83530426 5.62578392
-25.28367615 -19.40167618 6.646112919
-61.29678726 -45.66940308 1.568246007
-61.26466751 -45.76465607 4.223754883
-29.69614983 -22.60180664 3.74050951
-25.29844093 -19.34900093 4.40444994
-24.88478088 -19.01522255 5.43639946
-25.24054337 -19.23456383 6.619058609
-61.61458206 -45.57265091 1.565281749
-61.5712204 -45.64315414 4.226447582
-29.08776665 -22.0016346 3.670274973
-25.35499382 -19.25466156 4.401234627
-26.3205986 -19.9126091 5.689225197
-25.22844315 -19.09097672 6.599358559
-61.92596054 -45.46953964 1.562183738
-30.848423 -23.16217613 2.503999472
-29.25373459 -21.96631622 3.677000999
-25.56447792 -19.27028847 4.419788837
-24.75767136 -18.65867615 5.385166168
-25.6409111 -19.2520504 6.677345276
-62.24388504 -45.3694458 1.559115648
-31.16484833 -23.22537804 2.514700413
-29.65498543 -22.09818649 3.706850529
-25.48812103 -19.08723831 4.398318291
-25.18729591 -18.83352089 5.451141834
-25.69741249 -19.1565609 6.673400402
-65.13937378 -47.09552383 1.587652445
-30.46075821 -22.51360703 3.776197433
-25.63119888 -19.04755592 4.406876087
-25.0337925 -18.59241867 5.409112453
-25.8531723 -19.13114166 6.692198277
-65.23628235 -46.80594254 1.581131935
-31.40408897 -23.05822372 2.513829231
-29.65160942 -21.77630043 3.686691999
-25.43139076 -18.77282524 4.367686272
-25.09248352 -18.49586296 5.40574789
-26.12505341 -19.17920685 6.736541271
-65.61909485 -46.73377991 1.578420997
-31.44210625 -22.92095757 2.509082556
-29.68698311 -21.64634705 3.680575848
-25.46287346 -18.65553093 4.360672474
-25.21428108 -18.44983673 5.414690971
-26.16509056 -19.07089806 6.72887516
-65.9726181 -46.63899994 1.575293422
-31.55829239 -22.8384285 2.5086236
-28.99445724 -21.01192474 3.603806257
-25.46803665 -18.53359032 4.351121902
-26.06831932 -18.90898323 5.557602406
-26.36171532 -19.07075691 6.756758213
-30.90299225 -22.22321129 2.466248751
-28.06630898 -20.22320175 3.504735708
-28.30383492 -20.35064697 4.735982895
-25.98633194 -18.71820831 5.528944492
-31.08617401 -22.18971252 2.469562054
-28.9929409 -20.71949005 3.585751295
-28.09453583 -20.06243324 4.695039272
-26.49850655 -18.93322563 5.608582973
-26.1558075 -18.66629219 6.678106785
-66.12768555 -45.76253128 1.555773854
-31.16333771 -22.0909996 2.467453003
-28.88718796 -20.50675201 3.566943884
-27.977314 -19.84652328 4.667709351
-26.11122894 -18.54285812 5.525300503
-65.03968048 -44.69380188 1.535921335
-31.19879532 -21.96405792 2.46310854
-28.998703 -20.43470192 3.5686481
-26.89268684 -18.98197174 4.506763935
-26.23738861 -18.5012188 5.535407066
-29.4133873 -20.56488037 3.599328995
-26.79716873 -18.77513504 4.482058525
-26.36006927 -18.44994164 5.544194221
-31.30906868 -21.7137146 2.455603838
-26.69085121 -18.60343933 3.330476046
-26.28482628 -18.30082321 4.400770187
-27.75 -19.22828865 5.780303001
-43.73942184 -29.68036461 1.276123405
-69.75482941 -46.91883087 4.489356041
-26.71275139 -18.48381042 3.324429512
-26.21622658 -18.1237812 4.380797863
-26.25437355 -18.10879898 5.4980793
-43.6955986 -29.43354225 1.270833135
-31.2833786 -21.38298798 2.441301107
-26.69908905 -18.34134293 3.315060616
-26.15836334 -17.95502853 4.362429619
-26.33133888 -18.02770042 5.498823643
-43.7177124 -29.23088264 1.266285419
-31.40675545 -21.30740738 2.441387653
-26.20961952 -17.89120293 3.260857821
-26.13133621 -17.80739975 4.348390579
-26.0457859 -17.71245193 5.434914589
-43.7710495 -29.05985069 1.262320995
-26.34987259 -17.85809708 3.26663065
-26.26244354 -17.76215172 4.355939388
-26.4512291 -17.84318542 5.494346142
-44.00055313 -28.99089241 1.260007262
-71.30948639 -46.54509354 4.514295101
-26.32511902 -17.71232033 3.25650835
-26.30809402 -17.66174316 4.351886749
-26.55278969 -17.78390503 5.500203609
-31.79947662 -21.09967804 2.443061113
-31.55590057 -20.89755821 3.737802267
-26.21103668 -17.4776783 4.329103947
-31.64342117 -20.84578896 2.428598166
-28.31754494 -18.70711708 3.426778078
-26.03177071 -17.23707199 4.294887066
-26.34571457 -17.39424133 5.438242435
-31.40127563 -20.54027176 2.409785986
-26.81844521 -17.63400078 3.279289007
-26.13284302 -17.1733284 4.298547745
-26.32967186 -17.2561245 5.42296648
-31.26774406 -20.30516624 2.396694422
-26.67180061 -17.41325188 3.257986546
-26.4670887 -17.25320053 4.333446026
-26.27593994 -17.09549141 5.40118885
-45.68043518 -28.95371819 1.2532686
-31.04107094 -20.01466179 2.378915548
-27.02173233 -17.49949265 3.282673597
-26.20076942 -16.96227455 4.287936211
-26.65004158 -17.19753838 5.454482555
-71.86425781 -44.6882515 1.512440205
-31.51184082 -20.15306854 2.396877289
-29.2011776 -18.69787025 3.475624561
-26.21627617 -16.84584999 4.280246258
-27.01504135 -17.2910099 5.505939484
-72.05356598 -44.47670746 1.50698328
-31.57044792 -20.03777122 2.393720865
-28.61880684 -18.2128849 3.41435051
-26.29084206 -16.76544571 4.280465126
-73.06268311 -44.73952484 1.509210944
-27.14918327 -17.19457436 3.271858215
-26.34470177 -16.67247391 4.277960777
-73.21801758 -44.60250854 4.484921932
-28.67265701 -17.97278786 3.403286695
-27.41029739 -17.18684196 4.40966177
-73.54236603 -44.44846344 4.487205982
-28.71687317 -17.8634243 3.39938736
-27.48103905 -17.0990448 4.409080505
-29.10818291 -17.95757675 3.426990271
-28.25144005 -17.42019844 4.50047493
-29.21434402 -17.88287735 3.428655148
-28.87143135 -17.64742851 4.571681976
-44.56301498 -26.59320641 1.203930259
-29.41361427 -17.86142349 3.438708782
-28.92664909 -17.54447174 4.568702698
-44.78089142 -26.51103783 1.201207519
-29.24557686 -17.59203911 4.600140095
-75.67598724 -43.850914 7.56888628
-29.6257267 -17.67185211 4.639391422
-75.99019623 -43.6753273 1.47375834
-75.82142639 -43.69548035 4.51699543
-76.1736145 -43.7820015 7.593268871
-29.35522652 -17.38338089 4.59408617
-75.82122803 -43.23250198 1.464215398
-75.69169617 -43.27438354 4.496637821
-76.53242493 -43.63236237 7.605156898
-75.47869873 -42.46541595 4.458544254
-77.36501312 -43.390522 7.63895607
-50.17497635 -28.23001671 5.218076706
-50.22011185 -28.10101318 3.211868286
-50.19380569 -28.02454567 5.207502842
-50.24686813 -27.90028954 3.204570055
-50.23819351 -27.83337784 5.199239731
-50.29047775 -27.70907593 3.198112011
-50.2460556 -27.61190796 5.187198639
-50.30622864 -27.49227524 3.189902544
-50.26531982 -27.39723206 5.176233768
-50.33877563 -27.28498268 3.182532072
-50.29961395 -27.1910553 5.166649342
-50.36339188 -27.0741024 3.174818993
-50.32777023 -26.98221207 5.156597614
-50.55185699 -26.87664413 1.186228514
-50.37472534 -26.85695457 3.166513681
-50.37635803 -26.78443527 5.148382664
-50.48182297 -26.61841202 1.18042171
-50.42074203 -26.65823936 3.159880638
-50.37621307 -26.56219482 5.136017323
-50.49362564 -26.41396713 1.175526619
-50.45350266 -26.45319366 3.152653456
-50.40447998 -26.36615944 5.126790524
-50.53051376 -26.21167183 1.170563221
-50.47030258 -26.25167274 3.145148039
-50.44890976 -26.16766167 5.118401051
-50.55406189 -26.00319099 1.165498495
-50.50145721 -26.04684258 3.137909651
-50.47649002 -25.96119118 5.108627319
-49.56652069 -25.29764557 1.152981997
-50.52103424 -25.83680916 3.130166531
-50.5050354 -25.75571442 5.099000454
-49.41589737 -25.00968361 1.146758556
-50.5476799 -25.61987877 3.122354984
-50.72633743 -25.64476204 5.105845928
-50.59000778 -25.43294334 3.116157293
-50.7446022 -25.43448639 5.09542799
-50.62870789 -25.23370743 3.109390259
-50.78112793 -25.24445915 5.087217331
-50.61731339 -25.02185059 3.100786209
-50.04483032 -24.67677307 5.013214111
-50.07905197 -24.52973938 3.06697464
-50.0472641 -24.45320702 5.001255035
-50.10844803 -24.34069061 3.060389519
-50.06813431 -24.24964142 4.991497517
-50.12852478 -24.13706779 3.05299449
-50.08956909 -24.05747604 4.982420444
-50.15282822 -23.94652557 3.046234846
-50.10523224 -23.85252571 4.972350597
-50.16769791 -23.74151802 3.03866744
-50.14005661 -23.65681458 4.96394062
-50.1999588 -23.54491425 3.031910658
-50.17776108 -23.46277809 4.955826283
-50.23355865 -23.33877563 3.024833202
-50.18375015 -23.25496292 4.945137501
-47.9498558 -22.06688881 1.082107186
-50.24757385 -23.14538383 3.017727852
-50.21080017 -23.05704117 4.936256409
-50.27387238 -22.94739723 3.010790586
-50.23889923 -22.86001205 4.927519798
-50.29573059 -22.74789238 3.003685236
-50.26258087 -22.66147041 4.918476105
-50.32782364 -22.55325508 2.997058868
-50.29464722 -22.466959 4.910178185
-50.33159637 -22.34690285 2.98921895
-50.31863022 -22.26938057 4.901272774
-50.38793564 -22.16333008 2.983704567
-50.3381691 -22.07034111 4.892062187
-50.42147827 -21.97038078 2.977217913
-50.37534332 -21.87910843 4.884344101
-50.42474747 -21.76522255 2.969444752
-50.39708328 -21.69210434 4.875957012
-31.52495575 -13.78454971 0.9556552768
-50.44577026 -21.57819748 2.962864161
-50.41436768 -21.49337959 4.866731167
-50.46783447 -21.38171005 2.955961466
-50.49188614 -21.31945229 4.862423897
-50.65418243 -21.25162697 2.956118822
-51.1039238 -21.35945129 4.901174068
-51.22277832 -21.27260971 2.972556591
-51.34059525 -21.25670815 4.910128593
-51.21214294 -21.07189751 2.964627504
-51.35419846 -21.05471611 4.900652885
-51.2582283 -20.88358879 2.958743095
-51.38581085 -20.87052155 4.893198967
-50.26605988 -20.24539566 1.025431991
-51.31507492 -20.70991898 2.953722
-51.39604187 -20.66806221 4.883565426
-50.61772919 -20.18834496 1.022218585
-26.6534977 -11.08361244 1.908657432
-51.25294495 -20.41796875 4.862318516
-51.26673126 -20.23105812 1.020029068
-26.70777512 -11.00295353 1.907105207
-51.33795929 -20.24521446 4.858761311
-51.43091965 -20.07805824 1.015300632
-26.56315804 -10.83709908 1.896845102
-51.36408615 -20.04014587 4.850062847
-51.4862709 -19.89435196 1.010329723
-26.44408798 -10.68745136 1.887909174
-51.38232803 -19.8427372 4.84130764
-51.49212265 -19.69267273 1.005140543
-26.33931351 -10.54425621 1.879617929
-51.38670349 -19.64065361 4.831515789
