# .PCD v0.7 - Point Cloud Data file format
VERSION 0.7
FIELDS x y z
SIZE 4 4 4
TYPE F F F
COUNT 1 1 1
WIDTH 1323
HEIGHT 1
VIEWPOINT 0 0 0 1 0 0 0
POINTS 1323
DATA ascii
-30.1124115 -4.821181774 2.844973803
-29.20752716 -4.661878586 3.817547798
-14.43545437 -2.739738703 0.7544258237
-29.40487862 -4.629931927 2.792826176
-29.28134155 -4.572613239 3.820966482
-29.70044136 -4.582676888 4.9229846
-14.42986584 -2.687893629 0.7529340982
-29.55457878 -4.544081211 2.799028635
-29.31341362 -4.477841854 3.820077658
-29.5398159 -4.463198185 4.895936012
-14.41416073 -2.634916544 0.7514670491
-29.74762726 -4.462455273 2.808157921
-29.24306107 -4.365608692 3.808412313
-29.50922203 -4.354895592 4.88680315
-14.33866882 -2.575116873 0.7501576543
-30.29725266 -4.420963287 2.841429949
-29.15251923 -4.251637936 3.794720173
-29.8168354 -4.285270214 4.924655437
-14.30268097 -2.520362377 0.748754859
-30.35517883 -4.320297718 2.841311455
-29.32649994 -4.167850018 3.808336973
-29.57682228 -4.153351784 4.886562347
-14.27841187 -2.467188835 0.7473247051
-14.54193401 -2.508825541 1.258053064
-30.14099884 -4.189631939 2.822826624
-29.26683617 -4.057724476 3.797905445
-29.84062386 -4.076815128 4.918336868
-14.26389313 -2.415257692 0.7458691597
-14.52365112 -2.455513239 1.255743027
-29.94215393 -4.062176704 2.805454254
-29.16717911 -3.943921089 3.78341794
-30.10820007 -3.99888587 4.950596809
-14.23327065 -2.361814499 0.744463563
-30.46342278 -4.009665489 2.836591959
-29.22941589 -3.847218037 3.785599232
-14.1924963 -2.307619572 0.7430943251
-30.02548218 -3.859084845 2.80322361
-29.6799984 -3.78267312 3.827362299
-14.1355896 -2.252202272 0.7417837977
-30.09742355 -3.760088682 2.804153919
-29.81104851 -3.690293312 3.836560488
-14.12006569 -2.203513145 0.7404193878
-29.35774612 -3.591607809 2.75100112
-30.02654076 -3.609951496 3.854591846
-14.08068752 -2.150360584 0.739063859
-29.29361343 -3.482613325 2.742958546
-30.29733276 -3.533027411 3.878238201
-14.05904484 -2.099027157 0.7376516461
-29.89125252 -3.430105209 2.779042244
-30.59617043 -3.451315641 3.904491425
-14.00532341 -2.045255184 0.7363592386
-29.80264282 -3.317828417 2.769363165
-30.29580116 -3.319738865 3.869737387
-13.98529434 -1.994520664 0.7349491715
-29.9006424 -3.220709085 2.772112608
-30.30835724 -3.21421504 3.866893291
-13.93516445 -1.941707492 0.7336577177
-30.06201363 -3.127647161 2.779057026
-30.7710495 -3.141417027 3.909753084
-13.93870163 -1.893087506 0.7321612835
-29.91653061 -3.011866808 2.765692711
-13.88204098 -1.84283185 0.7309817672
-29.88374138 -2.909952879 2.760007858
-13.89321613 -1.794911027 0.7294539213
-29.74937248 -2.796604633 2.747474194
-13.77246857 -1.738917112 0.7284875512
-29.6105957 -2.683976889 2.734704494
-13.77529812 -1.690866113 0.7270011306
-30.03726578 -2.604414225 2.759102345
-80.2336731 -5.333947659 8.875700951
-13.75399494 -1.641518831 0.7256205678
-30.12893677 -2.504094839 2.761470079
-13.70455074 -1.590922356 0.7243719697
-30.30398941 -2.407312393 2.769289017
-13.69876003 -1.545124888 0.7229991555
-41.88138962 -2.896016359 2.055634499
-78.82975769 -4.555681229 5.933598518
-80.51622772 -4.517745495 8.874027252
-13.69691849 -1.497160554 0.7215325832
-41.96578979 -2.760604858 2.05366993
-78.92634583 -4.284030437 5.930502892
-13.69490623 -1.449213386 0.7200646996
-42.04007339 -2.61690712 2.051154852
-79.10973358 -4.015212536 5.933084488
-13.68873024 -1.401145458 0.7186158299
-42.11386108 -2.472714186 2.048618317
-79.28822327 -3.744997978 5.935357571
-13.6883812 -1.353322983 0.7171356678
-42.21112823 -2.328838587 2.046776056
-79.42588806 -3.472303391 5.934996128
-13.66987324 -1.304978848 0.7157484889
-42.27193451 -2.183212996 2.043838263
-79.5426712 -3.198099375 5.933304787
-13.66112995 -1.259411931 0.7143846154
-42.35223007 -2.037722826 2.041474104
-79.69004822 -2.937844276 5.934074879
-13.66223145 -1.214137435 0.7129664421
-42.42783737 -1.898991704 2.039200544
-79.89643097 -2.677958965 5.938664436
-13.68322563 -1.166862011 0.7113602161
-42.50698853 -1.759854078 2.03702426
-80.01845551 -2.401177168 5.937369347
-13.71209049 -1.117179155 0.7096269727
-42.61393356 -1.605804443 2.035179138
-80.17567444 -2.110129356 5.937906265
-13.72074986 -1.06944263 0.7080765963
-42.67234421 -1.450371385 2.031904459
-80.31168365 -1.831723571 5.93755579
-13.72124195 -1.021577001 0.706569612
-42.75801468 -1.309693456 2.029892683
-80.5145874 -1.552953482 5.941509724
-13.81355095 -0.9766016603 0.7045834064
-42.82128906 -1.160846353 2.026985645
-80.61663818 -1.286383152 5.939473629
-13.8737154 -0.9285259843 0.7026953101
-42.83203888 -1.018903732 2.022796392
-80.6280365 -1.004950881 5.931233406
-13.97371674 -0.8824088573 0.7006201148
-42.91028214 -0.8693703413 2.020316124
-14.07355022 -0.8331730962 0.6984444261
-43.03802109 -0.7265862226 2.019480705
-14.00123882 -0.7871238589 0.6974307895
-43.17522049 -0.5753528476 2.018659592
-14.07273674 -0.7374397516 0.695410192
-43.23600006 -0.431538552 2.015883684
-14.17205429 -0.6868323684 0.693185389
-43.31818771 -0.2794481218 2.013471842
-14.21919632 -0.6364989281 0.6912885904
-43.42582321 -0.1263151765 2.011768341
-83.29655457 0.7075632215 6.047880173
-14.27016068 -0.5857458711 0.6893517971
-43.47280502 0.03388089314 2.00810957
-83.47060394 1.002455354 6.04995203
-43.57151413 0.1805361807 2.006370068
-86.07395935 1.362523913 6.204933643
-43.64155579 0.3346760571 2.003582001
-85.0729599 1.618548632 6.133393764
-14.62591648 -0.4272344112 0.6820704341
-43.715271 0.4818230569 2.001126051
-43.81420517 0.6380243897 1.9991225
-71.02776337 1.686451674 5.236318588
-43.95491028 0.8241912127 0.4608055651
-43.91087723 0.7871937156 1.997280836
-44.0524826 0.9819521904 0.4551053345
-44.02469635 0.9454476833 1.995659709
-44.11752701 1.138936162 0.4496213794
-44.0980072 1.102706194 1.992914677
-71.57250214 2.457159996 5.248273373
-44.23754883 1.306905985 0.4434326887
-44.19034958 1.269184589 1.990442276
-71.92704773 2.738067627 5.262667656
-44.29743958 1.464837909 0.4379304647
-44.26250076 1.427585363 1.987647891
-70.10652924 2.891333342 5.14229393
-44.29730225 1.612080574 0.4331365526
-44.28218079 1.583606362 1.983428836
-70.04220581 3.120845795 5.131592751
-44.37253571 1.763894081 0.4277213514
-44.37959671 1.736690998 1.981541634
-70.92558289 3.407608271 5.179626942
-44.4547348 1.924509764 0.4219670296
-43.84592819 2.039403439 0.4219450653
-68.68401337 3.752899885 5.027174473
-43.88722992 2.196003675 0.4165546596
-87.93602753 5.250869751 3.125155687
-68.59216309 3.987256765 5.014753342
-44.09807205 2.357787609 0.4099446833
-72.98351288 4.762088776 10.43545723
-43.8072319 2.489983082 0.4073754847
-73.59224701 4.944447041 7.900782585
1.081221938 63.11830902 6.592068672
1.000618458 50.03170395 3.61622858
1.32915473 64.35305023 6.701945782
1.55737102 64.40002441 6.704227924
1.374803901 55.05331421 7.834028721
1.025261879 38.7658844 8.626515388
1.123951554 41.38754654 10.69011784
1.790625095 64.61742401 6.722040176
1.582681417 55.52848434 7.89242506
1.183355927 39.46450424 8.763812065
1.269396067 41.35066605 10.68083668
1.140001774 37.65908051 1.57682538
2.007144928 64.24071503 6.686140537
1.772443652 55.32257843 7.865172863
1.162337065 35.34577942 6.642602921
1.295136094 38.60150528 8.592652321
1.444261432 42.19885254 10.87891579
1.282354355 37.89471817 1.580341101
2.01581955 57.87924576 6.108605862
1.57866931 44.19879532 6.463926792
1.368631482 37.41929245 6.976825237
1.438645959 38.588974 8.589629173
1.581706405 41.87479401 10.80266476
1.426153541 38.12383652 1.583732367
1.765203476 44.96855164 6.559899807
1.59690094 39.84519577 7.368011951
1.636782408 40.29784012 8.926831245
1.740542531 42.13404846 10.86311817
1.566236973 38.3906517 1.587964058
2.677330017 63.98597336 6.658338547
1.904604673 44.67518234 6.522205353
1.731074452 39.83597946 7.366025448
1.767071724 40.16703033 8.900683403
1.884229422 42.17705917 10.87308693
1.714479446 38.64468384 1.591879487
2.072390556 44.87663269 6.546816349
1.842721462 39.33518982 7.284750462
1.904887795 40.06293869 8.879911423
1.865251422 38.91413498 1.5961169
2.923517466 59.93182373 6.289087296
2.229615688 44.83169937 6.540514946
1.942909002 38.52810287 7.154098988
2.078044176 40.6795578 9.0016222
1.051824093 20.28162766 0.4767641127
2.016523838 39.15505219 1.599784255
3.067671537 58.61253738 6.168678761
2.390372992 44.85953903 6.543456078
2.060729742 38.16050339 7.094510078
2.145100832 39.23026657 8.715346336
1.126811981 20.29778481 0.4757567644
2.169079304 39.38740921 1.603288651
3.25012517 58.90066147 4.091954708
3.217771292 57.56746674 6.073192596
2.548600674 44.83727646 6.540183067
2.195856333 38.14544296 7.091934204
2.282226562 39.18759155 8.707045555
1.197325945 20.29791451 0.4750269353
2.319962025 39.6854744 1.608191609
3.727974415 62.98932648 6.562380791
2.70074749 44.84860611 6.541239262
2.323073149 38.11256027 7.086573601
2.373896599 38.51024246 8.573461533
1.271433592 20.29559326 0.474299103
2.472594261 39.86078262 1.610565186
2.534794569 39.64213562 5.886199474
2.479706049 38.4414444 7.139707565
2.506539583 38.43935776 8.559799194
1.346933126 20.3149662 0.4732542336
3.920205116 59.10214233 6.209435463
2.785336018 41.29457092 6.093802929
2.627649784 38.60421371 7.16611433
2.660810947 38.69695282 8.611141205
1.421509147 20.3181076 0.4724532962
2.939916611 41.39963531 6.106895447
2.985088587 41.74269104 7.673079491
2.785345078 38.5076561 8.574303627
1.495712161 20.31500244 0.4717491567
3.895459652 53.46220779 3.785965919
3.055543184 40.95984268 6.051557064
3.041038275 40.47984314 7.469506741
2.918476105 38.45104218 8.563786507
1.570643783 20.32160759 0.4709045887
4.690474033 60.96129227 6.375631332
4.231599331 54.42396927 7.744674206
3.206183434 40.74880981 7.513363838
3.270300865 41.21508789 9.110796928
1.647488952 20.35187531 0.4697098136
5.004880905 62.19576645 6.486717701
3.249613285 39.81686783 5.907987595
3.28991127 39.98184204 7.390031338
3.415030003 41.18809891 9.106414795
1.718760729 20.35625267 0.4689420462
5.222898483 62.29418945 6.49529314
3.375921249 39.62353897 5.883871078
3.414811373 39.85289764 7.369786739
3.546362638 41.09083557 9.088200569
1.793789625 20.3600769 0.4681492746
5.362696171 61.34701157 6.409511089
3.531318188 39.7797699 5.903789997
3.624069214 40.61801147 7.494072914
3.699846029 41.1684494 9.104722977
1.869042039 20.3656292 0.4673343897
5.584535599 61.38766861 6.413040161
3.680870533 39.85832214 5.914020538
3.82402873 41.22090149 7.592279434
1.949264288 20.42468643 0.4657156467
5.82077837 61.57826996 6.430202484
3.793943882 39.61689377 5.88406086
4.010431767 41.63417435 7.659975052
2.020158529 20.42008591 0.4650960267
5.984759331 61.11867142 6.388734818
3.969999075 40.04081726 5.937861919
4.081608295 40.91340256 7.544487953
2.093581915 20.44112778 0.4640917182
5.050300598 49.68566132 5.356310368
4.121569633 40.11972809 5.948371887
4.251990318 41.22210312 7.595432281
2.171704054 20.46949196 0.4629427195
5.2119174 49.52921677 5.342359066
4.453330517 41.92521286 6.176204205
4.423150539 41.37542343 7.62149334
2.252532482 20.48524284 0.4619521201
5.38761282 49.43074799 5.333733082
4.609338284 41.90686417 6.174711704
4.546513557 41.14405441 7.585411072
2.331058741 20.51302528 0.4608169198
7.013104439 62.53079987 6.51736927
4.772987366 42.02486038 6.190423489
4.669857025 40.92607117 7.551578999
2.404228449 20.490839 0.4604479969
7.226037979 62.43888474 6.509579182
4.941754818 42.24560547 6.219109058
4.819743156 40.95098877 7.557118416
2.476760864 20.49664879 0.459690541
4.254412651 35.71453094 1.513273954
7.478541374 62.78278351 6.541224957
5.089971542 42.27846909 6.224225044
4.996993065 41.26644135 7.609681129
2.551723719 20.52206612 0.4586353004
4.373019695 35.62404633 1.510815144
7.698523045 62.8369751 6.546785831
5.272992134 42.53253174 6.257331848
5.113798618 41.06760788 7.579135418
5.388215065 42.22854614 6.220246315
5.304392338 41.40834045 7.636094093
4.605977058 35.42210388 1.505561113
5.526422977 42.11915588 6.207743645
4.715528011 35.27497482 1.502061963
7.643458843 57.27483368 6.046652317
7.488028526 55.82909012 7.936822414
1.0119313 6.689955711 0.6700468659
4.826770782 35.1473465 1.498974919
7.952961922 57.77933884 8.184561729
1.017350912 6.440472126 0.4145038128
4.938006878 35.02532196 1.496025085
1.039473772 6.421224117 0.4151418209
5.045260906 34.92562485 1.493566751
10.57264709 73.54608154 7.521669865
8.323534012 57.53583527 8.158022881
1.075986743 6.492650986 0.4111457169
1.066993952 6.518793106 0.6720052958
5.170714855 34.91178513 1.492797971
8.531702995 57.54207993 8.161111832
1.112589598 6.570033073 0.4068556726
5.277619362 34.81535339 1.490449786
8.396366119 54.93891144 11.88113117
1.143402696 6.605784416 0.4046798348
1.115092993 6.49553442 0.6719181538
5.394093037 34.78583527 1.489439964
11.19357395 72.58534241 7.439669132
1.179165363 6.662917614 0.4013883471
1.138702631 6.485864639 0.6718525887
5.522775173 34.794487 1.489181042
11.41308212 72.39850616 7.424561977
8.77366066 54.8813591 11.87869358
1.209995866 6.686357975 0.3998108804
1.161054373 6.460113525 0.6720299125
5.653452873 34.81452942 1.489167929
11.62288952 72.07521057 7.39729166
8.952963829 54.70205307 11.8481245
1.238473415 6.685800552 0.3994373381
1.190898895 6.473573685 0.671582222
5.788637161 34.8212471 1.488896728
11.89768791 72.08353424 7.400269032
1.257421374 6.636103153 0.4015972018
5.927537441 34.88765717 1.489839196
11.76061726 69.45328522 9.683233261
1.235176563 6.354233265 0.4156793058
6.05337286 34.91122818 1.48997879
12.11113644 70.27110291 7.240520954
11.99279881 69.41424561 9.681846619
1.257889509 6.342214108 0.4159425199
6.182155609 34.95010757 1.490439177
12.32379913 70.10128021 7.227392197
12.16226959 69.01468658 9.634961128
1.279013991 6.314164162 0.4170096219
6.323056221 35.01894379 1.491492033
12.73678017 71.06854248 7.317521095
12.43497276 69.14022064 9.654839516
1.301732421 6.295885563 0.4175753593
6.458871365 35.05572891 1.491939187
13.15132809 71.93354797 7.398669243
12.33587456 67.20639038 9.414036751
1.32578969 6.285392761 0.4177402854
6.613031387 35.19035721 1.494324207
12.81221294 68.67058563 7.105156898
12.61249161 67.37991333 9.440180779
1.348681688 6.268930912 0.4182117283
6.748369694 35.2182045 1.49464047
13.72612667 72.20468903 7.428976536
13.56475067 71.13322449 9.92033577
1.373730063 6.264167786 0.4180796146
6.88922739 35.27304459 1.495507479
13.84316921 71.37159729 7.356431007
1.396084189 6.245594025 0.418658793
7.02750206 35.31163406 1.496079326
14.00949287 70.95406342 7.32141161
13.17847347 66.50310516 9.342230797
13.15505314 66.25744629 11.74905396
1.414740562 6.215445995 0.4198549986
7.159035206 35.3470192 1.496619344
14.27491188 70.98316193 7.327252388
13.0547123 64.71918488 9.120134354
13.40351677 66.28903961 11.76052475
1.438416123 6.2045784 0.4200360477
7.312178612 35.45515823 1.498596191
13.72339725 67.15044403 4.54521656
13.80788136 67.44828796 7.008657455
13.31810856 64.84864044 9.141245842
13.6579752 66.40722656 11.78599358
1.467270017 6.219066143 0.41890347
7.451739788 35.49214172 1.499204278
13.99742699 67.34341431 4.557305336
13.95887852 66.97846985 6.969121933
13.88553429 66.44655609 9.349188805
1.492145061 6.213889599 0.4187864065
7.60877037 35.61081314 1.501432657
13.83991337 65.06555176 9.178591728
13.99975586 65.71591949 11.68637657
1.510333538 6.177370548 0.4202939272
7.742664814 35.6153717 1.501453876
14.52040768 67.30077362 7.005279541
14.13284206 65.3161087 9.215578079
14.05418205 64.84054565 11.54999924
1.539297104 6.191564083 0.4191693962
7.886792183 35.66635513 1.502405882
14.75249958 67.22658539 7.00207901
14.39736938 65.42578125 9.234798431
14.56167221 66.0767746 11.75951099
1.57268548 6.225146294 0.4170330465
8.033947945 35.72849655 1.503599763
16.00893784 71.80523682 7.423647881
14.59479809 65.22624969 9.214772224
1.632558465 6.375520706 0.4088119268
8.162491798 35.70417404 1.503127337
16.21302986 71.53149414 7.402680874
14.9913187 65.91890717 9.308619499
14.59851551 64.07069397 11.4452343
1.694865584 6.537542343 0.3999857903
8.3269701 35.86807251 1.506356239
16.56916809 71.9331665 7.443525791
15.16066837 65.64469147 9.279060364
14.7711544 63.78876114 11.40637684
1.717697144 6.517947674 0.4005918205
8.484718323 35.96743774 1.508348942
15.34167576 65.37517548 9.250473022
15.06018066 64.06690979 11.4592371
1.729982972 6.459699631 0.4032367468
8.607701302 35.94304276 1.507941842
16.86900139 70.99308014 7.365957737
15.59032917 65.45180511 9.265908241
15.33807755 64.23738098 11.49500751
1.66405201 6.075039864 0.4229456782
17.28277969 71.67730713 7.432828903
15.54780006 64.30351257 9.124862671
1.684189916 6.051706314 0.4237700701
17.35971832 70.9460144 7.370198727
15.74623203 64.133461 9.109214783
17.81932068 71.74044037 7.447703838
17.8995533 70.93267822 7.378675461
16.07386017 63.52584457 9.043952942
17.97188377 70.22038269 7.317936897
16.34583282 63.66018677 9.067629814
1.796343684 6.130908012 0.9252743125
18.21720314 70.14980316 7.316423893
16.63238144 63.89240646 9.103704453
1.828879118 6.155574799 0.9258034825
18.37974358 69.81163788 7.290157318
16.87241745 63.89193344 9.110401154
1.843305707 6.110479355 0.9249711037
18.90795708 70.81837463 7.387980938
17.48769188 65.31057739 9.299676895
18.75497246 69.24723816 7.248641491
17.7504921 65.37220001 9.314799309
18.99783516 69.17779541 7.247608185
17.77682686 64.60461426 9.222930908
18.69540787 67.17063141 7.067642689
18.04328346 64.68414307 9.240577698
18.91926575 67.05918884 7.062785149
18.18897057 64.32671356 9.202019691
18.77796745 65.65474701 6.938532352
18.79493713 65.60587311 9.374833107
19.11122704 65.94534302 6.970951557
19.07670021 65.71769714 9.397233009
19.26218224 65.59722137 6.94439888
19.33625603 65.74829102 9.409303665
1.937481999 5.72120142 0.9178813696
20.050354 67.42802429 7.119823456
19.49629974 65.48039246 9.38246727
20.23066902 67.20865631 7.105210781
19.89716148 65.98492432 9.456228256
20.34350967 66.72585297 7.066516876
20.1076622 65.8432312 9.446434975
20.79457664 67.3636322 7.131996155
2.559569836 7.415529728 0.9516865015
2.586768866 7.400826931 0.9515299797
31.44148827 99.65776825 13.87329292
2.607281446 7.365060806 0.9509624839
2.198771238 5.980877876 1.176315784
2.220884562 5.967479706 1.175966382
2.261273623 5.937467098 1.175063729
2.884854317 7.163204193 1.24824369
2.884396791 7.074230194 1.243735313
37.07529068 101.5124664 10.46679688
2.906670094 7.049130917 1.242881775
2.921888113 7.009495258 1.241171956
2.957787037 7.017467022 1.242259145
12.6894598 33.0577774 4.00939703
12.68900967 33.02239609 5.285225868
12.70595169 33.03366089 6.577787876
2.982524395 6.999644279 1.241845608
12.82467556 33.04101181 4.012303829
12.81169128 32.9910965 5.287022114
12.80196285 32.93209457 6.568077564
12.79412746 32.87837219 7.860490322
12.79849339 32.87462997 9.178830147
3.014293671 7.000404835 1.242509604
3.038984537 6.986661434 1.242316484
3.063539505 6.968584538 1.241912961
2.828945398 6.294569016 0.9332738519
3.080694675 6.931847095 1.240438581
2.718444824 5.519216061 0.4321054518
2.704188824 5.521066189 0.6758408546
2.733829737 5.586318493 0.9204900265
2.74693656 5.559436321 0.6750541329
2.767825603 5.606669903 0.9211390615
2.798831224 5.61951685 0.9216400981
2.804059505 5.569353104 0.9208621383
2.826604128 5.55953598 0.9209179878
2.842652559 5.535007477 0.9206741452
2.876475811 5.550625324 0.9212652445
3.465945482 6.800620556 0.9474852681
3.51675868 6.841287613 0.9486641884
3.553414822 6.846537113 0.9491319656
29.49351692 63.35737228 7.079965591
29.49147797 63.31168365 9.571131706
3.126034498 5.852341652 0.9287099242
3.534003496 6.535610676 0.9439899921
3.025951385 5.380215168 0.4330283105
3.046792984 5.370138645 0.4331115782
3.06780839 5.248494625 0.4384645224
3.180169821 5.415613651 0.4284235835
3.157012463 5.315417767 0.4335971475
3.164895296 5.280015469 0.435115844
3.212142467 5.31861639 0.4323851466
3.232778788 5.30792284 0.4324902296
3.241463661 5.271833897 0.4340215623
3.236848831 5.211047649 0.4369722903
3.245964527 5.17679739 0.4384057224
3.277607679 5.1847682 0.4374126792
3.298859835 5.1732831 0.4375358224
3.311439753 5.145955563 0.4385717213
3.328696251 5.127357483 0.4391043782
4.004906178 6.385874748 1.238368511
25.27956581 45.08267212 5.473504066
3.341978312 5.101731777 0.4400436878
4.039936543 6.389344692 1.239607692
25.44125366 44.99786377 5.474847317
3.373693466 5.109183311 0.4390662313
4.045820713 6.340355396 1.237601161
25.60557365 44.91770935 5.476745605
25.75497437 44.81093216 5.475995064
3.572011709 5.359599113 0.4233978391
25.91475487 44.72272491 5.477223873
3.588800669 5.340785503 0.4239425957
3.487925291 5.193284512 0.9234588742
16.75458717 28.35814667 3.801825523
3.608507872 5.327114582 0.4241871834
3.515085936 5.193821907 0.9238685966
16.60823631 27.881567 3.759030581
3.628241539 5.311024189 0.4245428145
3.550384998 5.205729961 0.9245602489
16.41286278 27.32705879 3.70803237
3.657028437 5.31036377 0.423994422
3.565590858 5.18296051 0.9244798422
13.45289803 22.05199051 3.167706966
3.672604799 5.28724575 0.4247587323
3.586781263 5.170490265 0.9246348143
13.51844215 21.98100471 3.16579628
3.697289467 5.279524803 0.4246194363
3.59770155 5.140763283 0.9244036078
16.75536537 27.23624039 3.718744278
3.726091623 5.278548241 0.4240808487
16.85798836 27.17479515 3.71952796
3.74866724 5.269566059 0.4240401387
16.95476532 27.12569618 3.720962763
3.763925791 5.248574734 0.4247058928
17.57803917 27.9403801 3.813052416
42.95716095 69.59365845 11.09709644
3.795857668 5.254757404 0.4237661064
3.733917236 5.180799484 1.176603198
14.00120163 21.90152168 3.185053587
39.24816895 63.0310936 10.15799427
42.53240967 68.36541748 13.83596611
3.818481207 5.233707428 0.4242807925
3.751932383 5.155601025 1.176149726
11.84409237 18.21634865 2.803212166
38.37589264 61.0295639 9.890174866
38.14079666 60.66102219 12.41529846
7.826129436 11.72512245 4.250548363
3.836719513 5.215257645 0.4247627854
3.776172161 5.147572517 1.176653147
7.88582468 11.7286911 2.122486591
7.878550529 11.71440792 2.646320343
11.87622547 18.11963844 4.388639927
37.07536316 58.46849442 14.5494051
7.870788097 11.69952965 4.251370907
3.858077765 5.204182625 0.4248368442
7.923330307 11.69104004 2.121789932
7.904276371 11.66309929 2.64295578
7.895510197 11.64674854 3.16879487
7.897648335 11.64783478 3.703309536
7.882066727 11.62569523 4.238556862
3.878324032 5.188987255 0.4251234829
3.829036474 5.139395237 0.9281206727
3.817135811 5.119421482 1.176906109
7.968082428 11.66980743 2.12268734
7.95954752 11.65395641 2.64606452
7.937865257 11.62226868 3.169472218
7.94414711 11.62998676 3.705599785
7.914911747 11.58180904 4.234393597
3.896370888 5.172723293 0.4255036712
3.818894148 5.079485416 0.9271957874
3.849928617 5.12694931 1.178391218
14.61885929 21.98674965 3.224411011
30.07689476 46.19891357 7.775277138
7.984328747 11.59735107 3.70482707
7.971608162 11.58026123 4.241571903
3.911073446 5.149013996 0.4262965322
3.870015621 5.113218307 0.9284855127
14.18351936 21.14419746 3.140349388
28.0914402 42.75452042 7.28011322
27.59379005 41.99045181 8.982903481
28.71222115 43.72197342 11.22579384
8.04318428 11.59673309 4.254228115
3.928964615 5.132656574 0.4266813695
3.852941513 5.043310642 0.9273263216
18.2162838 27.19724655 3.793971539
27.23364258 41.1159935 7.051060677
26.38467979 39.79982758 8.583128929
27.1990509 41.04996872 10.62415504
8.084201813 11.57013798 4.25460577
3.816356897 4.915140152 0.4390859008
3.867084026 5.019792557 0.9272814989
14.21395111 20.86557961 3.12222743
25.89813805 38.75294495 6.71349144
24.98129654 37.35799789 8.13239193
25.98498344 38.88970184 10.13891888
27.32879829 40.94217682 12.44710922
3.810231209 4.861783981 0.4416791797
14.49867344 21.13379097 3.157120228
24.72985077 36.67822266 6.417516232
24.98249245 37.06641388 9.732028961
24.97759628 37.05449295 11.38918877
3.832568884 4.85176754 0.4416738153
14.58510876 21.09811211 3.15946722
23.49045563 34.52612305 6.108510017
23.98999596 35.27490997 7.767618179
24.11604309 35.46064758 9.375700951
24.09913635 35.44490051 10.96414375
3.859225273 4.84596777 0.4413817227
3.914273977 4.955051899 0.9273285866
26.1233387 38.19153214 5.01400423
23.11333275 33.68273163 5.995727539
23.07972717 33.64134598 7.469056606
23.05342293 33.59819031 8.955872536
23.0427227 33.57875443 10.46634293
3.875936747 4.827491283 0.4418818057
26.27132607 38.11850357 5.017324924
21.77350426 31.43416405 5.669615746
21.88607407 31.60995865 7.09195137
23.17493439 33.52113724 8.957837105
21.82928658 31.51945496 9.91064167
22.77149773 32.66757965 4.436213017
21.68735504 31.07786751 5.627689362
21.70827293 31.10550117 7.009856701
21.84657288 31.30648804 8.451298714
21.58807182 30.93465805 9.767140388
22.86988258 32.57397079 4.435378551
20.58959389 29.24165535 6.661739349
21.03038979 29.88444328 8.1304636
21.04543114 29.9042511 9.49817276
22.98952484 32.49904251 4.43712759
22.32183838 31.52607155 5.721255779
19.79623795 27.86529922 6.407951832
20.61844254 29.05790329 7.95145607
20.64389229 29.09298515 9.290090561
23.12026024 32.44006729 4.44068718
22.38793373 31.38132668 5.712248802
19.34122849 26.99626923 6.25230217
19.84326553 27.71855927 7.648702145
19.85746574 27.73751259 8.92641449
20.04191971 27.7871151 3.939592838
22.47383118 31.27785873 5.708914757
18.96296883 26.24893761 6.119814873
18.97366714 26.26272011 7.316482544
19.41958046 26.91016006 8.710446358
20.12281227 27.70110321 3.938472033
20.10067558 27.66777992 5.168577671
18.16283417 24.92152977 5.87181139
19.0200119 26.13894272 7.302764893
19.01475906 26.13049889 8.508135796
4.178759098 4.994477272 1.185320377
20.22212982 27.63085175 3.939571381
20.21121216 27.61385155 5.172164917
17.67234802 24.0397625 5.711236954
18.25131416 24.85587502 7.009862423
18.24559593 24.84708023 8.160634041
4.218987942 5.007507324 1.187419653
20.32466888 27.5651207 3.941222906
20.31700706 27.55303383 5.174771309
17.53387451 23.66315079 5.649860382
17.64611626 23.81965065 6.775290012
17.68729019 23.87686729 7.901335239
4.280344486 5.049511433 1.191504478
20.4374752 27.51356697 3.944505692
20.41683197 27.48376083 5.176146984
16.85469818 22.53913879 5.439885616
17.53456497 23.48415565 6.709722519
17.55796242 23.51644707 7.81629467
4.162109852 4.840928078 0.9306521416
11.99158764 15.64953041 1.914379954
20.53613663 27.44221497 3.94564724
20.5187397 27.41736031 5.178034782
16.94049263 22.48677635 5.442099571
16.67618561 22.12155914 6.39378643
16.91226768 22.44746399 7.526401043
4.176208973 4.818303108 0.9306843281
11.59353447 14.98338985 1.872423649
26.61144257 35.55899429 6.456071377
16.46896935 21.67034721 6.298743725
16.46600914 21.66646194 7.318385124
4.225739002 4.843976974 0.9319325089
11.54940414 14.80773735 1.863821626
26.68143463 35.38941193 6.445614338
17.28699493 22.61976433 5.494317532
16.01480865 20.88882446 6.122391224
16.35017776 21.34549904 7.24282217
4.249505043 4.836373329 0.932323575
11.60402584 14.76738834 1.864480257
26.73721504 35.21487045 6.433595657
17.3508091 22.53569412 5.490526676
15.73155499 20.35634041 6.00556612
15.72692299 20.35059357 6.970016003
4.266094208 4.819056988 0.9324741364
11.66771603 14.74489594 1.866216421
26.82060432 35.0785408 6.427571774
17.40430069 22.44657135 5.485102654
15.25622082 19.572649 5.826370239
15.25090981 19.5661869 6.757264137
4.311230659 4.837720394 0.9335744977
11.71939754 14.70618153 1.866856694
26.86669922 34.88024902 6.412656307
17.469244 22.37314796 5.482871532
14.77813435 18.78820229 5.646779537
14.77099419 18.77947235 6.543593407
4.367405891 4.870488644 0.9350472093
11.77847576 14.67161655 1.867980123
13.55675316 17.02308464 2.819887877
26.76092911 34.48263931 6.366308212
17.53314972 22.29019547 5.479426384
14.8604002 18.75550079 5.65228653
14.83775139 18.72649574 6.54399538
4.403256893 4.875898838 0.9358332753
11.66683102 14.4128437 1.853522539
13.6177702 16.97418022 2.820500851
13.57400608 16.92424583 4.404203415
14.44219303 18.06524086 5.494702816
14.51384735 18.16043472 6.393584728
4.417284489 4.852575779 0.9358882904
11.53772449 14.1344471 1.837614655
13.2311945 16.34193611 2.754606485
13.22574329 16.3354435 3.521229506
13.63331699 16.87378693 4.404364586
13.63131714 16.87213326 5.211138248
13.176548 16.2802639 5.854855537
4.450771332 4.85453701 0.9366005659
11.38972282 13.83502102 1.820142865
12.63698006 15.44941807 2.658551931
12.627841 15.43829536 3.3866539
13.25256824 16.25476646 5.069712639
13.24775314 16.24980545 5.860193729
10.24391651 12.25224686 1.129611492
11.09871864 13.35559559 1.789914966
12.70474815 15.41945457 2.660928965
12.69057751 15.40207291 3.388655901
12.6698761 15.3822794 4.120242596
12.66007137 15.37079811 4.860795498
12.66007996 15.37214375 5.614356995
9.852952003 11.65904713 0.5583232641
10.31703186 12.25600052 1.131181598
10.95976639 13.07639122 1.773620605
12.39026356 14.90171623 2.607186556
12.74916935 15.3662672 3.390378475
12.73355007 15.347435 4.122916222
12.72720337 15.34059525 4.865044117
9.90818882 11.64357758 0.5585730076
10.36407566 12.22151089 1.131845355
10.71381092 12.66511917 1.74788177
12.45349026 14.87470341 2.609521627
12.43427277 14.85140514 3.315660715
12.40665436 14.82320404 4.024419308
12.7854023 15.30464077 4.867323875
12.77790451 15.29671669 5.619036674
9.953164101 11.61049366 0.5591459274
10.41349316 12.18998241 1.132598281
10.59457207 12.42324543 1.733847976
11.63809204 13.73672009 2.4834795
12.49381638 14.81424427 3.317415237
12.46257019 14.77624035 4.024890423
12.8374424 15.25680637 5.621180058
10.00271225 11.57861805 0.5596989393
10.37255764 12.04097843 1.130332589
10.48964214 12.19268894 1.720864654
11.69013309 13.6936264 3.14463973
11.6654911 13.66419697 3.80479455
12.51873779 14.73675442 4.748278618
12.52241707 14.74315166 5.48196125
10.05090237 11.54499626 0.5602874756
10.25027657 11.79288769 1.125412941
10.493536 12.09982777 1.717650771
11.47819042 13.32105255 2.446472406
11.4578867 13.29717731 3.088100195
11.45684338 13.30234814 3.738779306
11.71946049 13.62953758 4.47942543
11.71124077 13.6211338 5.158837318
10.09302902 11.50829506 0.5609369874
10.29194069 11.75395775 1.125963449
10.53998852 12.06472588 1.718410254
11.53384399 13.28871346 2.448085785
11.51710892 13.26953125 3.090809584
11.49231339 13.24555016 3.735973835
11.50496864 13.26280212 4.397100449
11.48392391 13.23874569 5.056433201
10.32112885 11.70432091 1.126155376
10.60403061 12.0510931 1.720734715
11.58309746 13.24845505 2.448802233
11.5713129 13.24058437 3.092991114
11.54752636 13.21312714 3.738284588
11.55395794 13.22776604 4.398555279
11.53520966 13.2067976 5.058935642
7.266205788 7.909268856 0.6266480088
7.267199039 7.914486885 1.025450349
7.277369976 7.92773056 1.425851941
11.62797546 13.21448898 3.095680714
11.60523129 13.1886034 3.741844893
11.58663082 13.17286968 4.39496994
11.59136105 13.18067741 5.063271046
7.285165787 7.872822762 0.6273063421
7.280005455 7.867549419 1.025322795
7.284849644 7.87746191 1.424391031
7.288619518 7.883010864 1.825423956
7.311203957 7.91130209 2.233205318
11.65237713 13.15531349 5.068563461
7.323449135 7.856552601 0.6275981069
7.310531616 7.842105865 1.025782347
7.298957825 7.829295635 1.423312187
7.31911087 7.857569218 1.825883865
7.306126595 7.843162537 2.226650715
7.31444788 7.854332447 2.634997606
11.0485487 12.32649708 4.199556351
11.03952312 12.32250214 4.827290535
7.359364986 7.834250927 0.6280024052
7.354077339 7.829044342 1.026646256
7.326730251 7.800750256 1.423552036
7.354875565 7.835315228 1.826915145
7.331557274 7.808808804 2.225883961
7.335852146 7.818258286 2.633223295
7.342285156 7.827276707 3.046129942
7.345247746 7.832287312 3.464319468
10.38999081 11.34487343 0.5638680458
10.59746265 11.59106255 1.131329417
7.384098053 7.807144642 1.426365376
7.386485577 7.811162949 1.827565551
7.378423214 7.802913189 2.229611158
7.354541779 7.779129028 2.630812407
7.36483717 7.792716026 3.044266701
7.360278606 7.788887024 3.45930624
10.44826698 11.32678795 0.5642011166
10.62708664 11.54219913 1.131596565
10.87258816 11.83146191 1.724993587
7.415430069 7.783867359 1.827857614
7.423825264 7.798087597 2.233320951
7.385859966 7.754992008 2.631603479
7.385739803 7.759387016 3.042382956
7.39128828 7.767508507 3.46066761
10.49789238 11.30269623 0.5646470189
10.66693687 11.50540543 1.13220489
10.90552044 11.7847929 1.724875927
11.11147022 12.03296757 2.943815947
7.428467751 7.747008801 2.635575056
7.424392223 7.746854782 3.045944214
7.428578377 7.753407478 3.464318037
10.54746628 11.27841091 0.5650995374
10.72235775 11.48662663 1.133324981
10.94479752 11.74559498 1.725322485
11.15015984 11.99164867 2.943745852
11.15500069 11.99952412 3.552725554
11.12785912 11.97505283 4.160249233
10.59043026 11.2463932 0.5656963587
10.777771 11.46761608 1.134452581
10.98655319 11.7092886 1.72599864
11.18574333 11.94918251 3.550533056
11.1868639 11.95747089 4.165991306
10.64095974 11.21016216 0.5663759112
10.83303547 11.43519592 1.135481954
11.03739071 11.67007542 1.727012992
10.6929903 11.18830013 0.5667940378
10.88126755 11.40333748 1.136363268
11.10224533 11.65546322 1.729533553
10.73779011 11.1539011 0.5674453974
10.92010403 11.36083412 1.136954069
11.14901257 11.62460423 1.730678797
10.80784702 11.14762402 0.5675867796
10.96812057 11.32863045 1.137848854
11.19787312 11.59161663 1.731867433
10.84850597 11.1083498 0.5683341622
11.01738167 11.29772854 1.13879323
11.25466728 11.56733513 1.733738065
10.75310802 10.91952515 0.5718147755
11.07329369 11.27402115 1.139958739
11.31948566 11.55167389 1.736292124
10.72676468 10.80820084 0.5738834739
11.1324501 11.2579174 1.141266465
11.3816309 11.53277016 1.738630056
10.77096462 10.77845478 0.5744644403
11.16392612 11.20725536 1.14167428
11.41806889 11.48568535 1.73883462
10.81847382 10.74812794 0.5750613809
11.21966743 11.1829052 1.142862201
11.45489025 11.4434166 1.739231586
11.80043411 11.8188076 2.377147436
10.86316967 10.71469116 0.5757184625
11.28357315 11.16707134 1.144317269
11.49778366 11.40341759 1.740011573
11.76268005 11.69310474 2.976008177
11.79791641 11.73851204 3.599539757
10.92010975 10.69418049 0.5761432052
11.35297966 11.15676498 1.14595437
11.56927776 11.39380646 1.743171453
11.75618649 11.59557343 2.361044645
11.7145462 11.5621748 3.570159912
11.77215576 11.62696934 4.204043388
11.81879711 11.68031597 4.849149704
7.796903133 7.319926262 0.6377114654
11.76037121 11.52420616 3.571606636
11.83294201 11.60448647 4.209919453
11.05604744 10.67553902 0.5765955448
7.788096905 7.260502338 1.427220583
7.766866684 7.240403652 1.820579886
7.774487495 7.250612259 2.219742298
11.10609436 10.64698315 0.5771777034
7.824132442 7.236290932 1.03347528
7.803388119 7.22191906 1.82221508
7.786235332 7.206321239 2.217252731
7.771698475 7.196350098 2.615119934
11.16025543 10.6225214 0.5776888132
11.53667831 11.01446438 1.149635196
7.818338871 7.178747654 1.426148891
7.818454266 7.183445454 2.218551159
7.80381918 7.173515797 2.616624355
11.1976223 10.58064651 0.578520596
11.59767818 10.99420261 1.151053429
7.642968655 6.942640781 1.410124421
11.24884987 10.55291557 0.5790982842
11.64046955 10.95511436 1.151910543
11.90737629 11.23471069 1.754848599
7.686846256 6.937566757 2.185544491
7.574975967 6.828571796 2.551448584
11.29157639 10.51644135 0.5798386335
11.67891693 10.91160011 1.152642369
11.95795631 11.20166016 1.756368876
7.639136314 6.840106964 2.560669661
11.33982944 10.48547554 0.5804822445
11.73489094 10.88985157 1.153954744
11.99718189 11.15707779 1.756986141
11.39169121 10.46194172 0.5809900165
11.79085255 10.86785603 1.155275226
12.03698635 11.11728287 1.757794499
11.44209576 10.43678856 0.5815304518
11.85025978 10.84496689 1.156689644
12.07239914 11.07314396 1.758266568
11.50014019 10.41502666 0.5820173025
11.91108131 10.82320404 1.158157349
12.12537861 11.04219913 1.760041833
11.56102467 10.39579487 0.5824618936
11.95044136 10.78019619 1.158967614
12.18399239 11.01662064 1.762281775
11.61187077 10.36653137 0.5830923319
11.87631226 10.62702751 1.156265497
12.23541355 10.98382187 1.763958931
11.6540184 10.32871628 0.583881557
11.92217541 10.59109211 1.15730238
12.31550312 10.97853088 1.767931461
11.70182228 10.29627609 0.5845768452
11.98237514 10.56880379 1.158793688
12.38478088 10.95823956 1.770930409
12.73648739 11.30368805 2.418469667
11.77033424 10.27949905 0.5849975944
12.0179348 10.52280903 1.159531713
12.434659 10.92325306 1.772519708
12.63230515 11.11563587 2.400468111
12.73324108 11.22044182 3.035089254
12.73780441 11.22948265 3.663440704
11.82480049 10.25689411 0.5855164528
12.06349277 10.48632145 1.160589576
12.50186157 10.90451241 1.775493026
12.68781567 11.08881474 2.403372049
12.66709423 11.07381439 3.016990423
12.64430237 11.06114769 3.634304285
12.74005985 11.15667248 4.289011478
12.78233528 11.20184708 4.94507122
11.87535572 10.22650146 0.5861858726
12.11915779 10.45922184 1.161970019
12.56702805 10.88764191 1.778430223
12.70565414 11.02692413 3.017411232
12.70290756 11.03329754 3.639105082
12.69305992 11.02900887 4.265666008
12.68081474 11.02266693 4.899568081
11.93608856 10.2054348 0.5866901875
12.16892147 10.42642593 1.163177967
12.62550735 10.86009598 1.780733705
12.72331142 10.97984219 4.900959492
11.96597767 10.15557098 0.5877190232
12.21713257 10.39206409 1.164348125
12.68980312 10.8377142 1.783506155
11.86894131 9.989356995 0.5908529162
12.2682066 10.36020374 1.165616512
12.69528198 10.76099586 1.781682849
11.8743639 9.918245316 0.5922704935
12.31033802 10.3200407 1.166619778
12.75201225 10.73147297 1.783894062
11.90168381 9.867349625 0.5933260322
12.35974503 10.28643608 1.167857289
12.88914299 10.77050686 1.792275786
11.93512821 9.818324089 0.5943581462
12.40014553 10.24460316 1.16882813
13.09001827 10.86969662 1.805711389
11.96911716 9.777371407 0.595233798
12.46233749 10.2260952 1.170491695
13.26584435 10.94866753 1.817277908
13.21355438 10.90709972 2.435617685
13.27183437 10.96860886 3.072657585
12.02841759 9.758858681 0.595708549
12.52497768 10.20379353 1.172165394
13.34078503 10.93647671 1.821003437
13.25393486 10.86462784 2.436748266
13.25951672 10.87490177 3.064487934
13.21975136 10.8491354 3.689113617
13.27392292 10.90293121 4.34232378
12.10158539 9.748535156 0.5960474014
12.5771122 10.17193317 1.173526525
13.40885258 10.91366577 1.824095726
13.2794466 10.81029034 3.061922073
13.2914238 10.83048439 3.696912766
13.32639599 10.86707306 4.346466064
13.31559753 10.86346722 4.994288921
12.15976906 9.724671364 0.5966340303
12.63218117 10.1424818 1.174987793
13.45738792 10.87343311 1.825691462
13.40615463 10.84920502 3.714118004
12.20283222 9.687416077 0.5974650383
12.68116379 10.10753345 1.176272631
13.51485538 10.8408556 1.82799089
13.45568371 10.81025314 3.717081308
12.25941467 9.661746025 0.5980917811
12.74065208 10.08152103 1.177889705
13.57678795 10.81194115 1.830647826
13.50957298 10.77497101 3.721024513
12.32964706 9.647504807 0.5985177755
12.78036785 10.03832531 1.178911328
13.65233421 10.79441929 1.83436048
13.56787395 10.74331188 3.725949287
12.38163662 9.617369652 0.5992326736
12.81384563 9.989798546 1.179752707
13.70662498 10.75840569 1.836455464
13.62311935 10.7088232 3.730234146
12.42744923 9.581842422 0.6000480056
12.89298058 9.979861259 1.18200171
13.76132679 10.71847248 1.838495612
12.47192764 9.541374207 0.6009646058
12.97525883 9.972075462 1.184356451
13.81696796 10.68325806 1.840724468
12.5449276 9.531947136 0.6013119817
13.00846195 9.922926903 1.185220838
13.8832674 10.65674496 1.843779206
12.59977818 9.503390312 0.6020146608
13.03652191 9.873396873 1.18594563
13.93985558 10.6259737 1.846206069
12.65276814 9.476788521 0.6026764512
13.04462242 9.803767204 1.186064601
14.0107317 10.60265827 1.849631429
12.71709061 9.451825142 0.6033332348
12.98294544 9.673843384 1.184058309
14.04602528 10.549963 1.850375056
12.7531538 9.407392502 0.6043304205
13.01038837 9.620960236 1.184791446
14.09818745 10.51098537 1.852413416
12.80309582 9.374098778 0.6051332951
13.07191658 9.595556259 1.186575651
14.1580286 10.47803879 1.855046749
12.85453129 9.341823578 0.6059221029
13.1209259 9.559873581 1.187988162
14.2240572 10.44978619 1.858159542
12.91530228 9.316764832 0.6065870523
13.16984367 9.523975372 1.189408302
14.28693104 10.41873074 1.861047506
12.95718575 9.276576996 0.607524097
13.23281384 9.498990059 1.191267848
14.33406353 10.37503624 1.862768531
13.00525093 9.241147041 0.6083807945
13.29734612 9.47492218 1.193185568
14.39365196 10.34098339 1.865439653
13.05955029 9.210402489 0.6091587543
13.3729372 9.459095001 1.195451021
14.42793274 10.287076 1.86623311
14.46013451 10.31868649 2.511602163
13.11062717 9.176958084 0.6099885106
13.41825199 9.423269272 1.196804881
14.38134003 10.1709404 1.861010313
14.36176968 10.1625185 2.496429443
14.42940235 10.22541809 3.149133921
14.447299 10.24617386 3.803520679
13.15669155 9.143155098 0.6108162999
13.46685886 9.386117935 1.198268414
14.56252289 10.22986412 1.872801065
14.41400051 10.12702084 2.499400854
14.3970108 10.12084103 3.138716698
14.37109184 10.11191845 3.781131029
14.45023346 10.17976379 4.455439091
14.51071548 10.23360252 5.141067505
13.22196007 9.120137215 0.6114708185
13.51377296 9.347550392 1.199690819
14.63420296 10.20814037 1.876515865
14.42794037 10.07617474 3.786201239
14.40728378 10.06767082 4.436057568
14.42518425 10.08875561 5.105174541
13.27604103 9.08836937 0.6122836471
13.57655811 9.320799828 1.201608181
14.69221497 10.16772366 1.879056931
14.49700737 10.05279446 4.449920654
14.45520878 10.03266239 5.104019165
13.32058048 9.045650482 0.6133056283
13.64909935 9.29734993 1.203834772
14.75940323 10.13796329 1.882378697
13.3793211 9.016971588 0.6140729189
13.68133926 9.247307777 1.204842925
14.83297348 10.11262989 1.886186123
14.89205551 10.16362572 2.542357206
13.43318939 8.984456062 0.6149116755
13.73755074 9.214941978 1.206592798
14.77637482 9.990967751 1.880378962
14.82943058 10.03720379 2.531694412
14.858922 10.06621552 3.188448906
13.49022293 8.954044342 0.6157181263
13.79692364 9.184674263 1.208450437
14.78704453 9.915597916 1.879500747
14.78699017 9.926654816 2.523472786
14.79764938 9.941718102 3.173665285
14.84364033 9.982879639 3.838297367
14.90791416 10.03769398 4.51958704
13.53759193 8.912769318 0.6167324185
13.85787582 9.155282021 1.210367203
14.8174839 9.877291679 3.172034025
14.79983711 9.871922493 3.82282424
14.84416962 9.911883354 4.495471954
14.88369751 9.952580452 5.180958748
13.58629227 8.879528999 0.6175825596
13.9220314 9.127932549 1.212392688
14.83034706 9.819460869 3.822992325
14.84141827 9.835191727 4.487122536
14.83274746 9.83686924 5.156185627
13.65778065 8.858807564 0.6182340384
13.96816254 9.091054916 1.213875413
14.8899107 9.803717613 5.163838863
13.70637894 8.825057983 0.6191014647
14.0224514 9.056174278 1.215621829
13.72880745 8.769109726 0.6203718185
14.10281467 9.039468765 1.218175411
13.66741848 8.654682159 0.6226546168
14.18323612 9.022316933 1.220742583
13.61854362 8.549923897 0.6247700453
14.3556633 9.068601608 1.226132035
13.58228493 8.454694748 0.6267214417
14.4545126 9.062727928 1.229286909
13.55539417 8.363119125 0.628626287
14.47593784 9.003229141 1.230087399
13.56949902 8.306902885 0.6298942566
14.56824398 8.992002487 1.23306632
13.6164856 8.269558907 0.6308585405
15.17293835 9.32556057 1.251731277
13.66504383 8.233112335 0.6318116188
15.36966991 9.38041687 1.257937193
15.73106384 9.634160042 1.931286812
13.70851231 8.19311142 0.6328296065
15.41538811 9.33339119 1.259535789
15.68945885 9.527320862 1.926934958
15.70439434 9.545357704 2.590773344
15.76245499 9.592244148 3.267423868
13.76355934 8.160626411 0.6337239742
15.46263218 9.287272453 1.261193156
15.73076057 9.472020149 1.928565145
15.74885273 9.496066093 2.593048573
15.7225914 9.486995697 3.256798983
15.72282028 9.495594025 3.930070162
13.82849789 8.130918503 0.634593606
15.50807762 9.23984623 1.262807488
16.39451408 9.836545944 2.6640203
15.75700092 9.439723969 3.931068182
15.72871399 9.429855347 4.605609894
15.78067589 9.47688961 5.311208248
13.86676121 8.090474129 0.6356145144
15.58188629 9.210730553 1.265303493
16.45878029 9.78837204 1.978723764
16.46320152 9.803924561 2.669153214
29.91630745 18.5683136 5.4696455
24.38377571 14.98682594 5.643603802
15.79201889 9.397089005 4.614033699
15.76742649 9.390060425 5.298564434
13.93843269 8.068008423 0.6363539696
15.61526489 9.159052849 1.266559839
16.5208416 9.751114845 1.981991291
29.81363297 18.3616066 5.446031094
24.40207863 14.87829304 5.638427258
20.26845932 12.21647167 5.689409256
15.96419621 9.443684578 5.346442223
13.98158073 8.030374527 0.6373357773
15.65695477 9.108846664 1.268094897
16.51741791 9.667642593 1.980481863
16.53691864 9.692905426 2.672073603
29.67648697 18.12708473 5.416797638
24.42717171 14.78046608 5.635125637
20.27173805 12.12398434 5.681490898
16.14036751 9.478588104 5.387894154
14.03463459 7.995453835 0.6382946372
15.72043228 9.072386742 1.270311236
16.42080307 9.529387474 1.97233665
16.45597267 9.560448647 2.660101175
29.55481339 17.9043808 5.390146255
24.44460487 14.672019 5.629955769
20.28347206 12.03229427 5.675252438
16.35631371 9.537493706 5.440568447
14.09269047 7.963474274 0.6392089725
15.77707386 9.031352997 1.272330284
16.3556366 9.408213615 1.966436148
16.39787674 9.443566322 2.650792837
29.43194771 17.68277168 5.363473892
24.47824287 14.57419014 5.628085136
20.28818321 11.93649864 5.667423248
16.4151268 9.495116234 5.448494911
14.16087055 7.937549591 0.640027225
15.84209633 8.995342255 1.274619818
16.28306007 9.283378601 1.960037351
16.35435104 9.336720467 2.643198013
29.31463242 17.46644402 5.337824821
24.46136856 14.44486523 5.616325378
20.32899284 11.86374378 5.66836071
14.21374512 7.901774406 0.641015172
15.91726208 8.965310097 1.277234197
16.2115593 9.156357765 1.953695536
44.13164139 26.51350784 5.787822723
29.18606186 17.24488831 5.310588837
24.48671722 14.33659077 5.612587452
20.33512878 11.76453018 5.660623074
16.40373421 9.329247475 5.427968502
14.38905334 7.937580109 0.6408395171
15.96516037 8.918114662 1.279022932
16.14102745 9.03490448 1.947515845
29.07656097 17.03694534 5.286464691
24.53584099 14.24919415 5.614031315
20.35532188 11.6792717 5.656787395
16.47850227 9.296707153 5.440583229
14.63343525 8.021022797 0.6398460865
16.00779724 8.867588043 1.280662179
16.08006668 8.92029953 1.942057967
43.66520309 25.80436897 5.721356392
28.94568443 16.81754684 5.259186745
24.55514908 14.14941311 5.610093594
20.38303185 11.60372734 5.655260563
16.54330254 9.257656097 5.450408936
14.69015789 7.985442638 0.6408542991
15.97502995 8.771317482 1.279989362
16.00316238 8.800762177 1.935540557
43.48014832 25.48373222 5.693824291
28.83566284 16.61267471 5.235284328
21.80938911 12.3623724 5.063698292
20.40256691 11.51846123 5.651432514
16.75250053 9.306310654 5.500893593
14.73823547 7.944428921 0.6419571042
16.01377106 8.718631744 1.281531334
15.96319294 8.696855545 1.931600809
43.30534744 25.17188072 5.667606354
28.7177887 16.40467453 5.210317135
21.82862663 12.26524448 5.060059071
20.4104538 11.42156219 5.644501686
16.77917099 9.242963791 5.500004768
14.80493259 7.910831928 0.6429647207
16.1124382 8.70162487 1.284935236
15.86959171 8.565472603 1.923902154
43.15045547 24.86427307 5.643467426
28.62433815 16.21298409 5.189254761
21.8265667 12.16082287 5.052690983
20.42925453 11.33636856 5.640679359
16.69721031 9.114530563 5.468732834
14.86162758 7.87798357 0.6439218521
16.26626015 8.71660614 1.29005754
15.818223 8.460278511 1.919259667
42.94740295 24.55077934 5.614693642
28.50261879 16.00596809 5.163986206
21.81672668 12.05733871 5.044234753
20.44897842 11.25676155 5.637570381
16.8117466 9.104137421 5.492630005
14.92668915 7.846304417 0.6448872685
15.69437027 8.30474472 1.272763729
15.7474966 8.348186493 1.913309455
28.3969059 15.8100481 5.141317368
21.84094048 11.96930408 5.042161465
20.46710396 11.17160416 5.63375473
17.03691101 9.158329964 5.547420979
14.99171066 7.814278603 0.6458641887
15.64512634 8.202695847 1.271621585
15.66226482 8.224897385 1.906307101
28.27819824 15.6080761 5.11679554
21.88354492 11.8921957 5.043735027
20.50180626 11.09635448 5.633940697
17.11165047 9.122605324 5.560136318
15.03590679 7.769907951 0.6470469832
15.590168 8.098095894 1.270310283
28.19274139 15.42701912 5.097498417
21.88492012 11.79120731 5.037365437
20.51589012 11.00921059 5.629333019
15.10080051 7.737259865 0.6480449438
15.51732063 7.984062672 1.268451571
