# .PCD v0.7 - Point Cloud Data file format
VERSION 0.7
FIELDS x y z
SIZE 4 4 4
TYPE F F F
COUNT 1 1 1
WIDTH 1306
HEIGHT 1
VIEWPOINT 0 0 0 1 0 0 0
POINTS 1306
DATA ascii
4.5051651 -30.62932587 2.201732635
4.994398117 -33.77291489 3.516843557
5.1156497 -34.52370071 4.778355598
4.719322681 -33.30773163 1.186449885
4.392405987 -30.54918289 2.198796034
4.496168613 -31.2070961 3.304190636
5.018908501 -34.68265152 4.797027111
7.864645958 -53.69671249 8.951523781
4.599171162 -33.27448273 1.187628031
4.278508186 -30.49308777 2.197051287
4.352442265 -30.96210098 3.284246206
4.928769588 -34.85227203 4.817008018
7.818331242 -54.67824173 9.102072716
4.493011951 -33.33983994 1.1900177
4.1656003 -30.44052315 2.19547677
4.228029728 -30.84081841 3.274591208
4.817805767 -34.96827316 4.830646038
7.640014648 -54.77728653 9.11623764
4.392550468 -33.49281693 1.193575382
4.043069363 -30.35260773 2.192265034
4.105562687 -30.76516724 3.268764734
4.710410595 -35.07129669 4.842787266
7.452745438 -54.88485718 9.131748199
5.047669411 -39.36723709 1.26860702
3.931162834 -30.29914665 2.19065094
3.993135929 -30.71994209 3.26546216
4.615057468 -35.26847076 4.866138935
7.020750999 -53.10568237 8.855792999
4.878755569 -39.06039429 1.266509533
3.823519468 -30.27498817 2.190438271
3.884217978 -30.65781403 3.26074791
4.511171818 -35.41025162 4.882953167
6.807425499 -52.89823151 8.822867393
4.724360466 -38.90649033 1.266391754
3.720465422 -30.24384689 2.189848661
3.77486062 -30.62955856 3.258889675
4.413848877 -35.61083603 4.906784534
6.912343025 -55.10086823 9.162473679
4.596144199 -38.90405655 1.268075824
3.615227938 -30.23478508 2.190365553
3.672380924 -30.61214447 3.257924557
4.31347847 -35.74733353 4.923042774
6.695769787 -54.91048431 9.132318497
4.038147449 -35.29701233 1.224095225
3.5157125 -30.22869873 2.190981627
3.566766977 -30.61082458 3.258341312
4.204719543 -35.87244415 4.937990665
6.470402718 -54.55523682 9.07681179
3.512916088 -31.8487606 1.181933641
3.397158384 -30.23654938 2.192462444
3.450822353 -30.61032867 3.258900881
4.086968422 -36.03414154 4.957334995
6.231394768 -54.38598633 9.050016403
3.405762196 -31.86876297 1.183634996
3.301332951 -30.26148987 2.194576263
3.348893166 -30.63991356 3.261928082
3.979055643 -36.18222809 4.975091457
6.190355778 -55.61802292 9.239882469
3.292160749 -31.82873917 1.184559941
3.198731661 -30.27277374 2.196090221
3.241611719 -30.62159348 3.260988712
3.875062704 -36.31748581 4.991352081
5.990315914 -55.56427765 9.231173515
3.380553961 -33.74778366 1.210709691
3.095882416 -30.28171539 2.197498322
3.140984297 -30.66434097 3.265150309
3.766915321 -36.48073196 5.010985851
5.810323238 -55.69459152 9.250979424
3.267668247 -33.71899033 1.211771846
2.993008852 -30.29029274 2.198894978
3.044093609 -30.69432068 3.268238306
3.657266855 -36.63970566 5.030152798
5.686732769 -56.38280106 9.357037544
2.979310989 -31.9206543 1.189946294
2.8968153 -30.31391525 2.200971365
2.94260478 -30.73243141 3.272053719
3.546941042 -36.8022995 5.049789906
5.460974216 -55.98792267 9.295893669
3.010697603 -33.44026184 1.211137414
2.796676874 -30.35162735 2.203781605
2.841074944 -30.77218056 3.276026249
3.438815117 -36.93232727 5.065583706
5.271400452 -56.04369354 9.304428101
2.885774612 -33.38731766 1.21199131
2.690250635 -30.37952042 2.206178188
2.735522747 -30.82793427 3.281387806
3.323730946 -37.13437653 5.090009689
5.364294052 -59.28268051 9.804709435
2.75316906 -33.17200851 1.210630298
2.585051298 -30.42295074 2.209331036
2.634144783 -30.87492371 3.286006212
3.190487385 -37.14612961 5.091884613
5.393997192 -62.07603073 10.23626137
2.633677006 -33.09768295 1.211096644
2.490066051 -30.46713448 2.212427616
2.537999392 -30.98710632 3.296081781
3.044484854 -36.93125534 5.066858768
4.763880253 -57.06665802 9.462709427
2.52753973 -33.11419678 1.212676287
2.391892672 -30.53930283 2.21693325
2.452498436 -31.1740551 3.312379599
2.91882658 -36.86972046 5.060053825
4.56807518 -57.09638596 9.467564583
2.406327724 -30.38730431 6.405357361
2.409717798 -33.05100632 1.213266253
2.299360037 -30.62270164 2.221939564
2.350291491 -31.23002052 3.317814827
2.178457022 -28.96482086 4.121506214
4.451553822 -58.01742172 9.61016655
2.304664373 -30.41880417 6.41125679
2.34281826 -33.69352722 1.223217964
2.196472645 -30.71454048 2.227469206
2.252868891 -31.35520744 3.329048872
2.085604668 -29.04540062 4.131553173
4.237477779 -57.9817276 9.605113029
2.171548605 -30.03063965 6.337257862
2.21629262 -33.52391434 1.222394109
2.101428509 -30.77739906 2.231505632
2.166506529 -31.64907837 3.354390383
1.956134439 -28.61453629 4.080854893
1.926952124 -28.08413124 4.986855507
2.082805157 -30.22792816 6.374857903
2.1007514 -33.50548172 1.223569274
2.001559973 -30.8522644 2.236185551
2.074653625 -31.89100838 3.375429392
1.853405595 -28.46419525 4.063484669
1.821417451 -27.93866539 4.964671135
1.97219348 -30.12109375 6.354574203
1.916406274 -32.35484695 1.209546685
1.902076244 -30.9407444 2.241535664
2.036400318 -33.00388718 3.469257116
1.742983222 -28.25234032 4.038851261
1.728260994 -27.97033501 4.969893456
1.868001223 -30.10208702 6.351079941
1.803293824 -32.30342484 1.210210681
1.807604909 -31.12262344 2.251422167
1.916111231 -32.87739563 3.45960021
1.558624506 -26.78713226 3.865220308
1.770012021 -30.18273163 6.366628647
1.683671951 -32.12379837 1.209132195
1.713345408 -31.33013153 2.262569904
1.798190832 -32.77632523 3.45208168
1.456712484 -26.67356682 3.852317095
1.461074114 -26.61973572 4.761955738
1.641886115 -29.74322891 6.283125401
1.569756389 -32.03159714 1.209215283
1.916246295 -37.31285477 2.553961277
1.681421518 -32.68278122 3.445206642
1.367403269 -26.69621849 3.855610132
1.360315919 -26.51026917 4.74548912
1.441944957 -27.90040398 5.932261944
1.454162002 -31.88904381 1.208599448
1.799703598 -37.40672684 2.559779167
1.56581986 -32.59877014 3.439143181
1.271668315 -26.59161186 3.843792439
1.264604926 -26.30523109 4.71423912
1.334747314 -27.65585709 5.885987282
1.341663957 -31.79401398 1.208612084
1.677901506 -37.53843307 2.567515373
1.450460434 -32.50637817 3.432393551
1.235842228 -27.67084885 3.972829342
1.173530459 -26.26589203 4.708658218
1.236745954 -27.57183266 5.870350838
1.22833097 -31.66061401 1.208085179
1.555200577 -37.66973114 2.575248718
1.335513473 -32.40759659 3.425122976
1.093171716 -26.52800369 3.8375175
1.084351301 -26.26375198 4.708865166
1.136826515 -27.42856407 5.843472481
1.114342809 -31.48283195 1.20693171
1.237675667 -32.80229187 2.339775324
1.221506834 -32.31437683 3.418331861
1.052755833 -27.66185951 5.888419151
1.004508018 -31.39257812 1.20696044
1.129026055 -32.88620758 2.345049858
1.10830915 -32.22473145 3.411854029
1.314085722 -42.45193863 2.812480927
1.164013624 -42.28246689 2.805780649
1.010627747 -42.22246933 2.804497719
-23.73125839 16.36400414 1.719346046
-18.57436943 12.4074297 2.225371122
-18.90389252 12.69931126 2.932088375
-19.78097153 13.4095974 3.763746738
-18.96244431 12.82190609 4.328788757
-18.78802872 12.72869968 4.993277073
-20.83434296 14.35456467 6.321919441
-23.6724968 16.43088341 1.715890765
-18.49461937 12.42969036 2.219952106
-20.07387924 13.73190975 3.816457987
-18.98785973 12.92839622 4.340259075
-18.71274376 12.7561512 4.982065678
-20.78506851 14.41897488 6.318898678
-23.61237526 16.50227356 1.712305427
-21.48416519 14.83369446 2.44392395
-18.61174393 12.64847088 2.902154446
-18.93893814 12.93997002 3.634734392
-18.77906227 12.85674858 4.303026676
-21.84134483 15.30354691 5.790621758
-20.37567711 14.19477177 6.206399441
-23.686306 16.65302849 2.609225035
-18.56759453 12.6989603 2.899268866
-18.89847946 12.99542236 3.632418156
-19.12013626 13.21227837 4.380874634
-18.74617195 12.95975018 5.007207394
-20.62959099 14.49277782 6.294621944
-20.17462921 14.17939091 6.955753803
-23.37232399 16.53374863 1.701744795
-17.91605186 12.2312851 2.178347588
-18.59571075 12.80212975 2.904914141
-18.86715698 13.05812454 3.63162899
-19.03699303 13.23537731 4.3697896
-21.69407654 15.39054966 5.772008419
-20.52746582 14.50966835 6.275090694
-20.24868202 14.3351059 6.995283604
-23.34749985 16.62662315 1.699305892
-18.03033447 12.39933872 2.187414408
-19.12411499 13.3506794 3.678442478
-18.23155594 12.67618179 4.206086636
-18.4268856 12.87438107 4.941171169
-20.32471657 14.4400425 6.224313736
-20.23419571 14.41581345 7.003149509
-17.84810829 12.3368721 2.174322367
-17.77533913 12.31819725 2.811453581
-19.11533165 13.42888737 3.681290865
-18.24426842 12.77137375 4.214941502
-17.81008911 12.46246052 4.790328979
-20.31982803 14.53390598 6.234349728
-20.26487541 14.53849411 7.027779579
-23.2389698 16.7660656 1.692628503
-17.80817604 12.38701725 2.171883345
-17.71067238 12.34822559 2.806040525
-19.10798073 13.51764965 3.684873343
-17.85029984 12.53739452 4.13778162
-17.62678719 12.39662933 4.750916481
-20.34224701 14.65550423 6.253438473
-20.31041336 14.6792202 7.058571339
-17.65584373 12.35036755 2.161051035
-17.75374603 12.46952438 2.81370306
-19.11778641 13.61631012 3.69111824
-18.07052422 12.80522919 4.190942287
-17.78181267 12.61064053 4.79941082
-19.48266983 14.04748631 6.001605034
-20.38285828 14.83835506 7.098447323
-24.45454025 17.99123955 1.72535789
-17.57561874 12.36705208 2.155593872
-17.56535149 12.39846611 2.7934196
-19.36104584 13.91169453 3.736456871
-17.53067017 12.44645214 4.082481384
-17.79389 12.704772 4.810657978
-19.43452454 14.10688686 5.998668671
-23.92224884 17.68202591 1.707566857
-17.7218647 12.57324409 2.167159081
-17.48938751 12.42235279 2.786772728
-19.34469604 13.99141407 3.73852706
-17.48532867 12.4958086 4.079255581
-17.785326 12.7866106 4.817044735
-19.34812546 14.12961769 5.983430386
-19.73146629 14.49891853 6.895431042
-23.78354454 17.68692398 1.701621413
-17.64109802 12.58987141 2.161671877
-17.48595428 12.5018816 2.788764
-19.84863853 14.50928688 3.827688932
-17.43275261 12.53493786 4.074203491
-17.79346657 12.87861824 4.827454567
-19.33840942 14.22109699 5.992442131
-19.10823822 14.07535076 6.687128544
-23.7619133 17.79445267 1.69905448
-17.66267967 12.69542694 2.16390276
-17.59623528 12.6810379 2.804653406
-19.91364479 14.66102886 3.843601465
-17.56381035 12.73258209 4.108765602
-17.75858116 12.93919563 4.827133656
-19.30977821 14.29226398 5.995132446
-19.09904861 14.16199589 6.697518349
-23.67841911 17.84451103 1.694743395
-17.6245594 12.74748898 2.161626816
-17.67547798 12.83173943 2.816727877
-19.61703873 14.50878525 3.799049854
-19.87919235 14.77905083 4.611492634
-17.19812775 12.5486517 4.688747883
-19.17571068 14.2736969 5.965175629
-23.53833389 17.84641838 1.688768268
-17.52981186 12.75175095 2.155096292
-17.55635643 12.81572723 2.804798603
-18.13684654 13.34704018 3.555781841
-17.53962898 12.88146496 4.116312981
-16.89382172 12.37119389 4.617039204
-17.46370506 12.89823627 5.444229126
-19.06775093 14.3255043 6.714011669
-23.74859238 18.14574432 1.693063855
-17.35460281 12.68692207 2.142510653
-17.81617737 13.1223011 2.838880777
-19.0381794 14.20759583 3.711956501
-17.43196297 12.87429905 4.099591255
-16.80183029 12.37365055 4.600926399
-19.29126549 14.56541157 6.024679184
-17.38775253 12.79899788 2.145604849
-17.77200508 13.17115974 2.836105347
-22.40497398 17.20620918 4.283995628
-16.81559753 12.42599869 3.973075628
-16.94542694 12.58012962 4.646934032
-17.40773773 13.02126789 5.447851658
-19.52290916 14.91607761 6.9072752
-17.32051468 12.82535458 2.14114666
-17.82252121 13.30199242 2.844877243
-18.96907806 14.33741093 3.710348606
-16.95393944 12.62854958 4.009244442
-16.91059113 12.6327734 4.64602232
-17.425457 13.12316513 5.464085102
-17.3904171 12.97057247 2.147027493
-17.86629486 13.42809296 2.852873087
-19.00730705 14.46621132 3.721894503
-16.90115738 12.66551495 4.004189968
-17.35830116 13.11066723 4.773047924
-17.35949707 13.15184212 5.454167366
-18.89669991 14.56095409 6.708884239
-23.66867828 18.56909943 1.68305409
-17.48351479 13.13746452 2.154671907
-17.85699081 13.50865555 2.854427576
-17.76236916 13.47000122 3.51638031
-16.86159134 12.71402168 4.002022743
-17.25849152 13.10883045 4.755263329
-17.34516525 13.23055744 5.461064339
-19.19917297 14.93343544 6.834607601
-17.40120888 13.155756 2.149126768
-16.90380859 12.83958912 4.018012047
-17.16697693 13.1180048 4.740088463
-17.229702 13.21458721 5.435575008
-18.72572136 14.60699558 6.676166058
-23.88269615 19.01583672 1.685159206
-17.23747635 13.09694862 2.137401342
-17.14798546 13.06042671 2.773114681
-17.16707802 13.11650753 3.424747705
-16.77398682 12.80770397 3.996251345
-17.09228897 13.13739395 4.728944302
-18.52899551 14.4756422 5.857901096
-18.5864315 14.5781002 6.639672756
-17.14279938 13.09836864 2.130886555
-17.24489021 13.23328018 2.787654638
-17.15246964 13.18974018 3.426942587
-17.46050072 13.51219654 4.152951717
-17.08884811 13.22097588 4.736862659
-17.1594944 13.32608604 5.435392857
-18.54872704 14.64078522 6.640459538
-17.31835556 13.34246159 2.144803286
-17.17081451 13.25339413 2.781233788
-17.18015099 13.30166817 3.436398983
-17.28800011 13.44445419 4.122123241
-17.06471062 13.28616714 4.739316463
-17.15923691 13.41392136 5.446477413
-18.51929283 14.71120834 6.644379139
-20.77248764 16.57809639 1.590689898
-22.15946579 17.82586861 2.511773825
-17.30447197 13.46215439 2.800400734
-17.21675873 13.42705441 3.447694302
-16.868433 13.19330597 4.695531845
-17.08623123 13.43961811 5.435032368
-18.1260891 14.44978237 6.51447773
-20.69265747 16.61535835 1.586671829
-22.04730988 17.83664894 2.504139423
-17.325243 13.56973171 2.805722475
-17.14662361 13.49189472 4.105000019
-17.30779266 13.6871109 4.822965145
-19.08602905 15.38207817 6.08548069
-18.0840435 14.50176716 6.512814045
-21.97790146 17.8920002 2.499788284
-17.26346016 13.60195923 2.800880671
-17.09112549 13.529212 4.099792957
-17.35503006 13.82152557 4.845094204
-18.62034225 15.048769 5.949273586
-18.04084778 14.5575304 6.511520863
-20.59591103 16.74723816 1.580404043
-22.52516556 18.51828957 2.542188168
-17.32564163 13.74916649 2.811388254
-16.97122955 13.46050739 3.419881344
-17.40171432 13.90895367 4.175593376
-17.46442604 14.0155344 4.884231091
-16.2779026 12.94139099 5.208914757
-18.07176971 14.68346119 6.53795433
-20.49380684 16.76315498 1.575756431
-21.5173111 17.70223427 2.466691256
-17.34042549 13.85340977 2.816075087
-16.9982872 13.57438755 3.429469347
-17.35202408 13.95386028 4.171899319
-20.08154106 16.58349609 5.604923725
-16.31078339 13.05770016 5.230520248
-17.98318481 14.69660759 6.519886017
-20.44133759 16.82511711 1.572498083
-17.0989151 13.6709013 2.132226706
-16.80382919 13.43876934 2.752318382
-16.65775871 13.34599209 3.375801563
-17.40531158 14.09644032 4.191121101
-17.26905251 14.01522923 4.850450516
-16.36198997 13.19685936 5.258786678
-17.9090023 14.72789955 6.507954121
-19.86204147 16.37909508 2.342844725
-16.76221466 13.49182129 2.7500875
-16.54680252 13.32788754 3.36147809
-16.64906693 13.47107983 4.030441284
-17.36685753 14.20623302 4.887386799
-16.46081734 13.37885475 5.302145004
-18.47021484 15.3680582 6.734416962
-20.25320816 16.82361794 0.7568188906
-19.80511856 16.43351173 2.339369297
-16.70531464 13.52589893 2.745825052
-16.70459175 13.57111835 3.394058466
-16.5525856 13.46672916 4.016041279
-16.45402718 13.41795921 4.64732933
-16.66957092 13.67385578 5.382125854
-18.48226738 15.48719406 6.755769253
-20.1094799 16.79749489 0.7552999854
-17.05384445 13.90757751 2.130991697
-16.69921684 13.61316586 2.748054504
-17.45240402 14.3828764 3.52929759
-16.71066666 13.71297455 4.058987617
-16.43349648 13.49064541 4.651519775
-16.56651497 13.6633482 5.36036396
-20.03669167 16.83856392 0.752322793
-19.24285507 16.11433601 2.29834199
-16.93224716 13.9284668 2.780080318
-16.93744278 13.97653961 3.44481492
-16.71400261 13.80642605 4.067082405
-16.59978676 13.74240589 4.706751347
-16.24291039 13.43508816 5.266429901
-17.72916794 14.95043659 6.502390385
-19.99108124 16.9057827 0.7487612367
-22.0234623 18.9435997 1.606355906
-19.19690704 16.17630959 2.295692205
-17.14614105 14.22885513 2.809842348
-16.85780144 13.9904108 3.436120987
-16.60844803 13.7934351 4.050747395
-16.24217224 13.47984219 4.617695808
-16.18536758 13.46652699 5.259264469
-17.70209503 15.0227766 6.507785797
-19.18780327 16.27448654 2.295856476
-16.93488693 14.11462593 2.786367178
-16.67652321 13.903512 3.409605265
-16.50174141 13.77846813 4.034111977
-16.05912781 13.38648891 4.576532841
-15.89332676 13.26383591 5.175012112
-17.92574692 15.34651375 6.609035969
-19.45580292 16.60359383 0.7512826324
-19.44883537 16.64847183 1.532481909
-19.44827271 16.63931656 2.316594601
-16.39564133 13.66877937 2.721440077
-16.78178024 14.0994978 3.433340788
-16.40648651 13.77406693 4.020024776
-16.63227654 14.04369259 4.744592667
-16.1635437 13.62252903 5.275738716
-17.97871971 15.50198555 6.645587444
-19.32416344 16.57745743 0.7499144077
-19.3499012 16.66033745 1.527993202
-18.92430687 16.22355652 2.277445316
-16.65437889 14.0163765 2.756967068
-16.30251312 13.75569725 4.003556252
-16.29200554 13.79332447 4.659901142
-16.18852234 13.7330389 5.295399189
-18.07671928 15.69945431 6.698897362
-19.22412109 16.58724594 0.7476436496
-19.3132534 16.7339592 1.525184631
-18.85953331 16.26615143 2.273371458
-16.80681801 14.26148987 2.779232025
-18.79609489 16.31031609 3.799274445
-17.47414207 15.03092098 4.277467728
-16.2442894 13.83572578 4.656433582
-16.05097008 13.68346882 5.261937141
-18.014328 15.74021053 6.69163847
-19.15673065 16.63468742 0.7444168925
-19.27205849 16.80325317 1.522245169
-18.91001511 16.4247036 2.278112411
-18.25627136 15.82087994 2.965577364
-21.46299362 19.13067627 4.277647018
-17.2671051 14.9195137 4.238547325
-16.26231766 13.94529343 4.671395302
-16.23124504 13.96316242 5.334659576
-17.74342537 15.57127857 6.604675293
-19.11865616 16.70615768 0.7407340407
-19.20952797 16.85108376 1.518728971
-21.46593475 19.13287163 2.474611759
-16.17599297 13.80734825 2.705558062
-17.14212608 14.84271812 3.518954754
-17.22816277 14.98316956 4.238304138
-16.49720192 14.27900028 4.747347832
-16.13285828 13.95367527 5.314300537
-17.70032692 15.63024426 6.604726791
-19.26795578 16.96321678 0.7328953147
-19.19718742 16.95013809 1.516541481
-20.24876213 18.01078224 2.382419348
-17.12963486 14.87580681 2.829589605
-17.0132637 14.80808353 3.50178051
-16.96030045 14.80068779 4.184812546
-16.32108307 14.19072056 4.708117008
-16.10042953 14.00744629 5.315322876
-17.51930809 15.54009724 6.55038929
-19.33331108 17.14258003 0.7266715169
-19.58001328 17.45668793 1.52477777
-19.11300468 16.96229744 2.29638648
-17.05869293 14.90066147 2.823848009
-16.59362221 14.46616077 3.432474852
-15.93437004 13.83158302 3.957299232
-16.07920456 14.03190327 4.650156498
-16.03993034 14.03659821 5.307619095
-17.46694565 15.58852673 6.546812534
-18.80036926 16.76426125 1.50233531
-19.03891754 16.99816704 2.291646004
-16.47265053 14.38957024 2.752493143
-16.61084557 14.57951546 3.441166878
-15.82788658 13.81111336 3.940455437
-16.22823143 14.28116798 4.70255518
-15.95123863 14.03579044 5.290440559
-17.30833435 15.52441502 6.501727581
-30.56842995 29.05791092 0.4454371035
-18.72701263 16.79879379 1.498550177
-19.0905323 17.16491699 2.296555519
-16.44347 14.45375443 2.751958132
-16.51112366 14.57094479 3.429001808
-16.05465889 14.14122009 4.000555992
-16.10473633 14.24480438 4.67795229
-15.92814636 14.1040411 5.295363426
-17.35776901 15.68059921 6.538079262
-30.32714081 29.01197243 0.4426435232
-18.66186905 16.84170151 1.494978666
-18.93186951 17.11233521 2.285331964
-16.32351875 14.42248344 2.739836931
-16.40515137 14.55978298 3.415974855
-17.44509506 15.71131802 4.330608845
-16.40066147 14.65447426 4.772662163
-15.86384296 14.13320351 5.287065029
-17.36420441 15.79737091 6.55867815
-30.16021538 29.03259468 0.4384809434
-18.61030006 16.90442848 1.491662383
-18.78466797 17.07603455 2.275029421
-16.27124214 14.46675491 2.736523628
-16.27736855 14.51971531 3.398709297
-15.64285946 13.8925972 3.921241283
-16.36634827 14.71958256 4.774234295
-15.59902573 13.9413166 5.210020542
-17.46043015 16.0069809 6.614089489
-29.9200592 28.98418427 0.4357610047
-16.84365082 15.12096405 2.126656532
-16.22798538 14.51586628 2.734217644
-20.31574821 18.9568634 4.133151054
-15.6163578 13.95565987 3.92291522
-17.40166473 15.93705463 5.081689358
-15.35458374 13.77275181 5.140130997
-17.93532944 16.63709831 6.820907116
-25.49461937 24.44377899 0.5400685072
-18.82663536 17.36783981 1.493302703
-16.80106544 15.18013954 2.124276161
-16.32717323 14.72333717 2.750417471
-16.12723923 14.55473423 3.38337326
-16.79319763 15.32985878 4.206223965
-17.36253357 16.00599861 5.082976818
-16.12507629 14.70644283 5.416204453
-17.30416298 16.05568695 6.588490009
-29.58764076 29.02079773 0.4275348783
-18.75286484 17.40360641 1.489454269
-16.76885986 15.24566936 2.122658253
-16.39100075 14.88989258 2.761984348
-16.02321243 14.53769112 3.370305061
-16.74953461 15.3839922 4.204780102
-15.81623173 14.46407509 5.323918343
-29.3539753 28.96434402 0.425211072
-18.61548615 17.36981964 1.483989596
-20.24101639 19.12685776 2.391366005
-20.2494545 19.20525742 3.263846397
-16.10003281 14.71811676 3.390074015
-16.68972206 15.42045021 4.199579716
-17.34263992 16.19843864 5.101428509
-16.11348534 14.88987446 5.439633369
-17.94322205 16.98313141 6.880279064
-29.20740891 29.00103569 0.4206497371
-16.61338615 15.27770138 2.112411976
-16.98728371 15.74392891 2.845998287
-16.00786018 14.71382809 3.3791852
-16.74493217 15.5842886 4.221505165
-17.24992561 16.20355225 5.086831093
-16.10501289 14.97960854 5.450633049
-17.85887146 17.00276947 6.865574837
-29.02325058 28.99559593 0.4171020091
-18.52582359 17.50309753 1.477761984
-16.55651093 15.31611252 2.108901262
-16.89678383 15.74828148 2.837887764
-16.12426186 14.94083977 3.406380892
-16.17045212 15.04673481 4.094772339
-16.37827492 15.33495331 4.845648289
-16.00153923 14.9631176 5.428873062
-17.54400253 16.76160431 6.757986069
-28.85819817 29.01000977 0.4130695462
-18.48658562 17.57626152 1.474775672
-16.43942261 15.28747177 2.100737095
-16.6375618 15.56371021 2.807836056
-16.16915894 15.09034729 3.420656443
-16.11192513 15.08105659 4.089652538
-15.76154137 14.74111271 4.677397251
-15.93832302 14.99137115 5.421021461
-28.66666794 28.99382019 0.4097842574
-18.4523468 17.65531921 1.47190392
-16.43444824 15.38332653 2.101246595
-16.58640099 15.60974026 2.804787397
-16.18419266 15.20765972 3.429558754
-16.20370483 15.28544331 4.120285034
-15.75867176 14.83606434 4.687806606
-17.20995903 16.54240036 5.878427982
-17.64294243 17.10151672 6.836435318
-28.46226883 28.96170235 0.4068955481
-16.40378571 15.45092678 2.09977603
-16.54827309 15.67052555 2.80345273
-16.05294991 15.15983868 3.411608458
-16.03630066 15.19652176 4.089341164
-15.77466965 14.95335007 4.703876495
-15.92565727 15.17792606 5.445140839
-17.64216423 17.2160778 6.855738163
-28.29811287 28.97345734 0.4029244483
-16.39128876 15.53947639 2.099721432
-16.5295887 15.75369072 2.804682255
-16.01627541 15.21890163 3.411059856
-15.81058598 15.09465981 4.725971222
-15.75607491 15.08334446 5.40014267
-17.03186798 16.62333298 6.626336575
-28.13417816 28.98441124 0.3989691138
-19.1748848 18.82635117 2.316714525
-16.53273392 15.86244965 2.808805466
-18.95439339 18.7055378 3.961315155
-15.35621548 14.61361217 3.94420886
-15.57527828 14.9224081 4.668120384
-15.83484077 15.27623749 5.442335606
-17.00092316 16.69939041 6.632852077
-27.97047424 28.99456406 0.3950301111
-19.1359005 18.90825653 2.314824581
-18.02651405 17.69557953 3.008849144
-18.77692032 18.62599182 3.936203241
-15.32254791 14.67189598 3.944770813
-15.50851822 14.94420528 4.65991497
-15.84667206 15.39270115 5.461236477
-17.14342308 16.98027992 6.710826397
-27.78868294 28.98274612 0.3916410506
-20.29485321 20.39376259 1.506058931
-17.3344593 16.94631004 2.175879955
-17.19415092 16.84550095 2.903462887
-15.69814968 15.15421581 3.370876312
-15.27195168 14.71055889 3.941296101
-15.58157063 15.13039017 4.693295956
-15.63624763 15.2474556 5.401557446
-16.93420601 16.84700203 6.64428091
-27.57860756 28.93662834 0.389123112
-17.26677704 16.98098183 2.171642065
-17.06352615 16.80553818 2.890258074
-15.64200211 15.18951797 3.366720915
-15.19826031 14.7218914 3.932252645
-15.66740036 15.3337841 4.730764389
-15.0608511 14.66495705 5.211728573
-15.48842907 15.23275757 6.065205574
-27.42653847 28.96658325 0.3844925463
-17.21454239 17.033638 2.168610573
-16.98743248 16.82872772 2.884235859
-16.82628059 16.70053673 3.595150232
-15.56195354 15.25327015 4.029424191
-16.69742203 16.66755295 5.051225185
-15.04666615 14.751441 5.221658707
-16.85095406 16.98196983 6.650333405
-27.24846649 28.95503616 0.3811003864
-17.13996887 17.0656147 2.163894176
-16.62921333 16.5160141 2.840807676
-15.57153511 15.31486702 3.366627216
-15.51065636 15.29942989 4.026611328
-15.74736977 15.63718033 4.779081345
-15.04686451 14.85098076 5.236159325
-15.61455441 15.5974741 6.154531002
-27.12198067 28.9935894 0.376603663
-20.38872528 21.06476974 1.498490095
-18.86984825 19.23886108 2.299951553
-15.4917717 15.26475239 2.693652868
-15.48316956 15.31148434 3.356470823
-15.56129265 15.45835304 4.047813416
-17.49612999 17.86211205 5.318619251
-15.04276752 14.94111252 5.248548508
-15.68223 15.78054333 6.200349808
-26.92908287 28.96201897 0.3737257719
-16.73849678 16.80827141 2.134590149
-17.01225853 17.20158768 2.899890184
-15.43921185 15.35609245 3.354353905
-15.59714508 15.60617924 4.066040039
-15.91831207 16.05789757 4.855800629
-14.77804756 14.71770191 5.167819023
-16.71317482 17.15607071 6.652276993
-26.73945999 28.94272423 0.3703502119
-16.7211628 16.90071106 2.134284019
-16.90979958 17.19353867 2.89043045
-14.82229042 14.71215057 3.244399071
-15.54210854 15.64423561 4.062076092
-14.80195045 14.79436111 4.529912949
-14.86371517 14.92790222 5.214147091
-14.8122139 14.92274666 5.871944427
-22.78676414 24.3387413 0.4870561063
-16.62073135 16.89822769 2.127534628
-14.81525517 14.75184822 2.614529371
-14.80294323 14.78736591 3.247019529
-15.47691631 15.67499256 4.056110859
-14.83005333 14.93414879 4.550951004
-14.84903622 15.01076984 5.223682404
-14.9796896 15.23313904 5.960651875
-26.40930557 28.93960762 0.3630456924
-18.93864632 19.87134361 1.454774261
-16.58382988 16.96729279 2.125709534
-14.81589031 14.85185909 2.618234634
-15.25001812 15.44027424 3.33855176
-15.54187107 15.86194324 4.08190155
-14.75778008 14.94509888 4.54091692
-15.22575188 15.58440876 5.376084328
-15.0344286 15.40566921 6.002187729
-26.2484436 28.94149399 0.3592999578
-16.49008751 16.96639252 2.119431734
-14.75590324 14.8724575 2.613646507
-15.41802979 15.75418282 3.377342463
-15.81417465 16.31046677 4.159427166
-14.76999187 15.05670452 4.556172371
-14.9879837 15.39067078 5.304761887
-15.04377842 15.52261734 6.024750233
-26.08018875 28.92309952 0.3562746644
-19.03091812 20.25201797 1.452142835
-16.48061562 17.06401634 2.119717598
-14.69471073 14.89633083 2.609082222
-15.23629761 15.63297653 3.349374056
-15.25200844 15.7077055 4.029016018
-14.55374241 14.88541603 4.501888275
-15.07633305 15.60255527 5.351996422
-15.0156498 15.58753681 6.0305686
-25.88743782 28.88281441 0.3536510766
-19.03158188 20.38471413 1.449806213
-16.34700394 17.01251984 2.110307217
-16.49791145 17.26186752 2.856248379
-15.13819504 15.60987282 3.337011337
-15.09761715 15.61873627 4.000264168
-14.68453312 15.14818764 4.553839207
-15.11757183 15.76195717 5.383061886
-14.97158718 15.63769627 6.030602455
-25.76231194 28.91594315 0.3492532969
-26.71274948 30.2301445 1.619064331
-16.27871895 17.03636169 2.105976105
-15.28807163 15.84584713 2.696726561
-15.26354504 15.87567234 3.368035316
-15.04520798 15.65292168 3.99646306
-14.62881756 15.18000412 4.549028397
-14.88177204 15.56079006 5.311115742
-15.00440407 15.78207684 6.062921047
-25.59028625 28.90914726 0.3455496728
-18.85739517 20.45128822 1.440782666
-16.23934937 17.10834885 2.104036093
-14.75298309 15.27558041 2.628254175
-15.03177738 15.68680859 3.330224752
-15.15728474 15.90952778 4.035089016
-15.51651192 16.43667221 4.838365078
-14.58168888 15.2833662 5.216407299
-25.45801163 28.94174194 0.3409645557
-18.71783638 20.41329575 1.435178995
-16.63381958 17.73082733 2.136279345
-14.69549561 15.30556488 2.624290466
-14.87320805 15.58915043 3.306418419
-14.59560585 15.29006577 3.903310537
-15.46114635 16.4776268 4.834789276
-14.6239872 15.44355106 5.2479105
-14.84167957 15.79201794 6.032166958
-25.27422523 28.90744781 0.3381872177
-16.86995125 18.15728378 2.156099796
-14.69516087 15.40948963 2.628134966
-14.98659039 15.84328079 3.335427046
-14.52740383 15.30565071 3.895776272
-15.35799885 16.45587921 4.81627512
-14.58154678 15.4939127 5.248005867
-14.63581371 15.62877083 5.961879253
-25.11538506 28.91396523 0.3341154754
-25.93084335 30.07961273 1.586534619
-16.77563667 18.15964508 2.149846315
-14.57182312 15.35377979 2.615193129
-14.84392452 15.77039623 3.315023661
-14.55371666 15.44526386 3.912283897
-15.29664993 16.48843193 4.810833931
-14.3402977 15.28594494 5.174255371
-14.58423328 15.67351055 5.959713459
-24.98842621 28.95088196 0.3293898404
-25.70504379 30.00578117 1.577665091
-16.96089363 18.53384972 2.165786982
-14.65036011 15.56746101 2.630109072
-14.78486538 15.80077076 3.310551882
-14.4933157 15.47672176 3.907315731
-15.18294144 16.45683479 4.789577484
-14.29716206 15.33380318 5.173940659
-24.79853058 28.90449905 0.3269512057
-19.63870049 22.20783043 1.444387794
-14.73007011 15.77994156 2.645096064
-14.69231606 15.7864666 3.299509764
-14.17828178 15.16260719 3.836606503
-14.35118771 15.45525169 4.539898396
-14.80978203 16.13020515 5.384212971
-14.47307205 15.74141407 5.950069427
-24.65741539 28.92096329 0.3227787614
-19.55713463 22.25442505 1.439849138
-14.75745964 15.86275196 1.99342382
-14.63394356 15.76027012 2.635933399
-14.62495041 15.80511475 3.29340148
-14.13090611 15.20344067 3.834279299
-14.28173923 15.46837807 4.53095293
-15.11555576 16.65717888 5.517561436
-24.49725342 28.9111824 0.3193306029
-19.38571548 22.18051338 1.433421373
-16.0071373 17.64508247 2.093789577
-14.63325882 15.86805344 2.639951706
-14.64509869 15.94157505 3.304604292
-13.95661831 15.07231426 3.799222469
-14.09365463 15.31965542 4.484100342
-15.12975979 16.79289246 5.540719032
-24.3350296 28.89741898 0.315993607
-25.0590229 29.99151611 1.548654318
-14.63625526 15.91873646 1.985934019
-14.57275867 15.89583969 2.635724068
-14.60676384 15.99995708 3.304314852
-13.85229588 15.03423405 3.782084703
-14.0839119 15.41271973 4.494133949
-15.06518841 16.82156372 5.533936501
-24.18266296 28.89573097 0.31231758
-24.79633522 29.84748268 1.539348006
-16.24424744 18.2132988 2.115098715
-14.5911541 16.0310955 2.642474651
-14.53184509 16.00852203 3.296779633
-14.16341877 15.56645584 3.872900724
-14.01487827 15.42470932 4.485216618
-14.54181957 16.21375084 5.350558281
-24.03765297 28.90299606 0.3083859384
-24.61983681 29.81825447 1.531855345
-14.96979618 16.59638596 2.014719725
-14.4750433 15.98292351 2.630533695
-14.78691673 16.47190857 3.355167866
-14.13310528 15.63292599 3.875324011
-13.91377926 15.39170265 4.465923309
-14.54408836 16.33071518 5.368923187
-23.85048103 28.85140228 0.3061209619
-14.49742603 16.06073952 1.978148699
-14.44227409 16.04884911 2.6302104
-14.7442112 16.52771378 3.354295969
-14.11742687 15.72025871 3.881650925
-14.58457661 16.43980217 4.697021961
-14.88696957 16.92829132 5.519718647
-24.30094528 29.8026123 1.517615438
-14.4410305 16.09428215 1.974755287
-14.13040924 15.72593784 2.59077549
-14.60773659 16.45247269 3.334597111
-14.15787601 15.95289326 4.572460175
-14.80186272 16.92727661 5.505034447
-18.2793045 21.58737183 1.393930078
-14.38221359 16.12436485 1.971171141
-14.08678532 15.77455521 2.588870525
-14.41179848 16.29735756 3.303184509
-14.36627102 16.2941246 3.968571424
-14.06471252 15.93272877 4.556062698
-14.78683186 17.03178596 5.518663883
-23.92044067 29.70592499 1.502023697
-15.23143768 17.44022369 2.04043889
-14.37981796 16.36659431 3.304426193
-14.33486176 16.37000084 3.971870899
-14.01417828 15.97844601 4.554303646
-14.89423752 17.30751228 5.579690456
-18.39813614 22.07199478 1.390423179
-14.01232338 15.89611149 2.587140083
-14.33042812 16.4113636 3.302180052
-14.32719517 16.47479439 3.981012821
-14.55337715 16.87069321 4.746433258
-15.27896786 17.98913956 5.750815868
-19.90373993 24.28405762 0.4200705886
-17.9074173 21.52705193 1.378037691
-14.34912395 16.42474556 1.972016335
-13.84843826 15.77258873 2.568235159
-14.58978939 16.90173721 3.362964153
-14.23133945 16.45277596 3.966721773
-13.90446472 16.04622841 4.546641827
-15.18965244 17.98750305 5.735517502
-17.79556465 21.51967049 1.373048306
-15.0818119 17.59699631 2.032163858
-13.8362112 15.86625862 2.57082963
-14.36622429 16.6968441 3.325329304
-14.47208214 16.9213562 4.042645931
-13.67005348 15.81669712 4.483127117
-18.09094238 22.10320854 1.375766039
-14.28873158 16.70223808 3.317489386
-14.38398266 16.91264343 4.030684948
-13.64449501 15.89178658 4.488906384
-23.75380898 30.55319023 1.478685141
-15.00462532 17.73541641 2.028498888
-13.98175335 16.30607033 2.600490332
-14.22359276 16.72537231 3.312185049
-14.33257389 16.95760727 4.028603554
-13.64155388 16.00115013 4.502385616
-23.74012375 30.75610161 1.474274516
-14.70926189 17.42670441 2.005927563
-14.0083456 16.46175575 2.608870983
-14.16618824 16.75978279 3.308487177
-14.29639149 17.02541161 4.030693531
-13.61071777 16.06978416 4.506643772
-23.75875854 31.00904846 1.47040987
-14.54226685 17.30341911 1.993695736
-14.01289082 16.58634949 2.614158869
-14.082201 16.75432396 3.299282551
-14.20952225 17.0173912 4.019042492
-14.33334923 17.27802849 4.765974045
-23.74477768 31.21592331 1.465896249
-14.13874149 16.82364655 1.962272167
-13.95707703 16.62153053 2.610791206
-14.23538876 17.10625267 3.339530706
-14.60841942 17.74530983 4.140303612
-14.22986126 17.24572182 4.746857643
-23.72518158 31.41639328 1.461235762
-14.07215309 16.84414673 1.958119512
-13.66719913 16.30211067 2.573512316
-14.47138405 17.58895302 3.397471428
-14.59733772 17.85732841 4.14995718
-14.15892792 17.26231194 4.738754749
-23.71102715 31.62712097 1.456626415
-14.03959656 16.9161129 1.956734896
-13.53591061 16.21933365 2.559087038
-14.56192493 17.85552025 3.425327063
-14.54898739 17.91308212 4.149466038
-14.33139038 17.6550827 4.814109325
-23.71750832 31.87160683 1.452328444
-13.95969009 16.91610909 1.951505184
-13.53246689 16.33139038 2.563247919
-14.4868803 17.87634277 3.418955803
-14.08574104 17.3253212 4.034034252
-14.32500648 17.77454948 4.828607082
-23.72361755 32.13011169 1.447741151
-13.90102386 16.95445251 1.948069692
-14.30800247 17.65843964 2.681705475
-14.3879528 17.8531208 3.407071114
-15.04940128 18.96600914 4.315556049
-14.28962994 17.856287 4.834123611
-23.70114899 32.33506775 1.442831755
-13.79531479 16.91345787 1.94073236
-14.22590733 17.65937042 2.674812317
-14.69086456 18.45946884 3.480624676
-14.97263813 18.98506355 4.308017254
-14.29036236 17.98928833 4.85146904
-23.7076149 32.58746338 1.438359857
-13.75127411 16.96793556 1.938430309
-14.01460743 17.45627975 2.64887619
-14.58821106 18.43333054 3.4681952
-14.91169357 19.02890968 4.304920197
-14.16188335 17.91753769 4.823915958
-23.63983536 32.72535706 1.43260026
-13.98700428 17.46460533 1.95905292
-13.83992958 17.30757523 2.628216028
-14.5598135 18.52450752 3.47164011
-14.74893665 18.90981674 4.273141861
-13.98835373 17.77160072 4.780370712
-23.52454567 32.78865051 1.426039219
-13.92603588 17.49614525 1.955412507
-14.09561539 17.84420776 2.671272993
-14.49835491 18.56340599 3.468046427
-14.73303986 19.02519035 4.282756805
-13.92954159 17.80876732 4.77693224
-14.69831657 18.87187767 1.279692888
-13.8057785 17.43250465 1.946903348
-14.49590874 18.62171745 2.736174822
-14.44825172 18.62068939 3.466929913
-14.67916965 19.08001518 4.281716824
-14.04767227 17.95279884 1.968190789
-14.44974232 18.67870331 2.734616995
-14.62117672 19.042099 3.51427412
-14.03716373 18.06270981 1.968681931
-14.37214279 18.69155502 2.728658915
-14.88114643 19.61266518 3.581041574
-14.00640297 18.14727783 1.967589498
-15.57609749 20.90460396 3.743092775
-13.88836098 18.08819389 1.959289789
-13.5582428 17.62102127 2.617364168
-14.48100758 19.2423439 3.514165401
-13.8808794 18.21881866 1.960212827
-13.48679256 17.64089966 2.612243891
-15.28216839 20.89641953 3.712752342
-13.61271 18.04154015 1.940916419
-13.29405785 17.57484627 2.593584538
-14.62107086 19.89433098 2.026327372
-13.30617905 17.72977638 2.600950718
-13.87838173 18.7685318 1.966021419
-14.97385216 20.75093269 2.862756252
-17.00324059 24.25001907 0.3415394723
-14.13904667 19.37280083 1.989473224
-13.10243607 17.65466881 2.581085682
-14.06643581 19.40311432 1.985118032
-13.03418541 17.67786598 2.576444626
-15.03406334 21.26218414 2.067984343
-12.92377663 17.61920547 2.564970732
-15.04330349 21.44530487 2.070599794
-12.82654476 17.58260536 2.555502892
-14.95899773 21.46290588 2.065365553
-14.8968792 21.45401955 2.885602474
-14.88630962 21.50115585 2.061112642
-14.80405903 21.45551682 2.878108263
-14.2343359 21.13930893 2.015221119
-32.75452805 62.48913956 6.058594227
-32.62343979 62.40945435 1.278512478
-6.06893301 13.81566525 3.280663967
-8.056423187 24.09172058 3.329529524
-5.987077236 13.87674141 3.282732487
-5.64728117 12.23718166 3.421719074
-5.648302555 12.3245945 3.018068552
-5.612254143 12.28014088 3.426463604
-5.729864597 13.07516575 4.0397892
-5.790385246 13.1703186 2.712710142
-5.605793953 12.32888985 3.015051126
-5.574720383 12.29946041 3.426580906
-5.682645321 13.05661964 4.030922413
-5.572642326 12.37343025 3.018967628
-5.527780056 12.26653481 3.416071892
-5.640306473 13.06472206 4.028524876
-5.534734249 12.39261627 3.018651247
-5.474002838 12.19285011 3.397325516
-5.597278118 13.06884193 4.025204659
-7.718121529 23.97201538 0.8288246989
-5.638328552 13.05973053 2.687840939
-5.472096443 12.26972675 2.994674206
-5.438306332 12.22137165 3.399417877
-5.554248333 13.07280922 4.021884918
-7.634288788 23.94446945 0.8249945045
-5.601347446 13.0986948 2.689519167
-5.480455399 12.54699707 3.037536383
-5.400166988 12.23624134 3.398755312
-5.501907825 13.00711346 4.00211525
-7.554498672 23.93828201 0.8209158778
-5.437691212 12.52853966 3.031152964
-5.375367165 12.32030964 3.412307501
-5.433223248 12.83744621 3.957535982
-5.389974117 12.75181675 4.381130219
-7.474793434 23.93182182 0.8168432117
-6.006298065 15.83412361 2.504896164
-5.538699627 13.22253323 2.699173927
-5.387440205 12.46317291 3.017027378
-5.352210999 12.41789532 3.428570271
-5.451334476 13.20765686 4.042160988
-5.353741169 12.77767754 4.384183884
-7.394506454 23.92114067 0.8128256798
-5.514728069 13.33330059 2.710310221
-5.411162376 12.85757923 3.079057932
-5.334227562 12.55227089 3.452229738
-5.241995335 12.12778568 3.780405521
-5.313868046 12.78054142 4.380908966
-7.301551342 23.93255234 0.8076587915
-5.393240929 12.71030521 2.204771996
-5.49244976 13.51604271 2.730027914
-5.250577927 12.14199543 2.956834793
-5.299141407 12.63566875 3.464828253
-5.21156168 12.23151779 3.800802231
-5.264021873 12.77318192 4.374009609
-7.226543903 23.95285606 0.8032467961
-5.347351074 12.67342663 2.19852376
-5.470385075 13.65031719 2.744101763
-5.331382751 12.92279148 3.082478762
-5.164970875 12.17599487 3.784014702
-5.224467278 12.77765369 4.371264458
-7.140241623 23.92811394 0.7991970181
-5.964270592 16.72735214 2.012261868
-5.289335728 12.55566597 2.184779644
-5.284270763 12.89434147 3.074327469
-5.17538023 12.33377457 3.397265196
-5.14374733 12.30750179 3.811568499
-7.066675186 23.98408318 0.7940868139
-5.913011551 16.76168633 2.01061964
-5.332118988 13.51820374 3.173406839
-5.127738476 12.29951668 3.386722565
-6.980823517 23.96072197 0.7900214791
-5.861543655 16.79585266 2.008966208
-5.272604465 13.02381706 2.222213984
-5.263870716 13.1625309 2.671389341
-5.296188831 13.58160019 3.180222988
-5.179472923 12.96230793 3.516023159
-5.080753803 12.4550705 3.838976383
-5.126306057 12.99012375 4.417258263
-5.810727119 16.8357811 2.007639647
-5.232607365 13.0459137 2.221285343
-5.330088615 13.92899609 2.766350269
-5.220954895 13.36328793 3.140901327
-5.178910255 13.25790215 3.571703911
-5.044069767 12.47232628 3.839560032
-5.756025791 16.84984589 2.004841566
-5.60285902 15.99899483 2.490413904
-5.102212906 12.60276413 2.593670845
-5.19833231 13.52418137 3.163719893
-5.031171322 12.48840714 3.41417551
-5.008782864 12.51679039 3.846415997
-5.710187435 16.94917488 2.00668931
-5.054946423 12.57541752 2.586996794
-5.099658966 13.12941647 3.095626593
-6.650638103 23.97559738 0.7720867395
-5.671513081 17.08560562 2.010773182
-5.716975689 17.71873474 2.640247345
-5.057305336 13.13726425 3.093542814
-5.617405415 17.08891487 2.007529259
-5.133725166 13.61897564 2.26189971
-5.006584167 12.84839535 2.615621805
-5.559471607 17.08448219 2.003684759
-5.086428642 13.58302402 2.255743742
-5.559946537 17.55152893 2.026077032
-5.368391037 16.47060776 1.962356448
-5.002798557 13.65384197 2.256016254
-5.04782629 14.30349255 2.790037155
-5.316205502 16.49504852 1.960284472
-5.25806284 16.44358635 1.954214096
-5.214335442 16.54507256 1.956380248
-5.14696312 16.42997742 1.946706414
-5.099969864 16.5053215 1.94743681
-5.826066971 23.84745216 0.7305092812
-5.824370384 23.83840179 1.536757469
-5.058766365 16.64412308 1.951579332
-5.743735313 23.83146477 0.7263997793
-5.748311043 23.88624954 1.533010364
-5.663796425 23.83907127 0.7219055295
-5.675136566 23.96769142 1.52987802
-5.582926273 23.83644104 0.717576921
-5.502796173 23.84149551 0.7131176591
-5.423490524 23.85622978 0.7084890604
-5.342185974 23.84677124 0.7042697668
-5.25744915 23.79117012 0.7008561492
-5.272876263 24.00249863 1.507277012
-5.183106899 23.8167305 0.6962495446
-5.103360653 23.82437325 0.6917308569
-5.022655487 23.81777 0.6874631643
1.039703965 23.66347313 0.3452880383
1.044813395 23.67285347 1.156827092
1.277490377 23.61432076 0.3322200775
2.099584818 23.71647835 1.924090028
2.434278011 23.73560905 1.910568237
2.513817787 23.71494484 1.906214714
1.449323654 19.26566315 2.411104441
1.441760063 18.98679161 2.388951302
1.556407452 19.15623474 2.398776293
1.766703367 19.64885521 2.431413174
1.282119393 17.7924118 2.916657686
1.73038137 19.27369118 2.402539492
1.802109122 19.282444 2.400943041
1.411359787 17.79949379 2.914540052
1.39867568 17.67523003 2.28529048
1.145504355 16.30960274 4.481470585
1.522069216 17.75306702 2.906845808
1.516542435 17.65538216 2.280015945
1.323236585 16.88249779 2.81222558
1.334368944 16.5520134 4.535700798
1.573751807 17.62378502 2.275732517
1.352718711 16.78030014 2.800022364
1.022166371 15.35422039 4.27336216
1.649569273 17.66345406 2.276571751
1.800293446 18.02100945 2.93144846
1.095354676 15.42000675 4.288377285
2.144504309 19.06049538 2.372633457
1.161863565 15.46309948 4.298452854
1.659893155 17.18577003 2.839765549
1.278306603 15.76324272 3.798918962
1.421897411 16.0936451 4.437656403
3.731973171 23.78027153 1.8589077
1.460330009 16.02412605 4.423185349
1.121014357 15.13175392 2.618218184
1.579557776 16.20808029 4.46442461
3.968776941 23.80010796 2.694390059
2.134607792 18.06018639 2.929466486
9.258978844 40.131073 0.9445505738
4.044536591 23.77554893 2.690263987
2.206898689 18.0785656 2.930236101
9.156988144 39.38372803 0.9404042959
1.395709515 15.47564793 2.651976585
1.413437724 15.42368698 3.189343929
4.189079285 23.84237099 1.843614459
1.385002494 15.27792072 2.629966736
1.463356256 15.4050045 3.186322212
1.590325952 15.60901642 3.21535635
1.037534714 13.92676735 3.466884375
4.38989687 23.76129532 2.679424763
1.481793284 15.23471737 2.623524189
2.455094337 17.96234703 2.276967287
1.791665673 15.95728588 2.699383259
4.395000458 23.57879639 0.9840489626
2.491622686 17.8862896 2.270009279
1.797512531 15.81620884 2.683535814
2.550842524 17.71492195 4.156580448
4.473367214 23.56194305 0.9799197316
4.657978058 23.77386093 2.673136234
1.807187796 15.68836403 2.669127941
4.559002399 23.55283546 0.9755271077
1.153841376 13.64161873 2.931469917
4.647269249 23.53822136 0.9709407091
1.07580173 13.20534992 3.338199139
1.028801322 12.92289543 4.22429657
4.739637852 23.53453827 0.9662893414
2.013409138 15.85523224 2.123818398
1.136555672 13.3190937 2.884901762
1.056899548 13.02550602 3.305990219
1.147004247 13.18360233 3.810459137
4.824198723 23.53338623 0.9620631337
2.01460743 15.69959354 2.111658812
1.173486471 13.28651524 2.880156517
1.103289127 13.02734947 3.306833029
4.912788868 23.53045464 0.9576194882
2.548090935 16.86540794 2.789572954
1.094433904 12.9500761 2.831767559
1.356622815 13.56210709 3.404733658
5.009197235 23.54777145 0.9530391693
2.637116194 16.93192291 2.795798302
1.138514996 12.93987656 2.830289841
1.239661932 13.13003922 3.326691628
1.200062633 12.87187862 4.218060017
5.092340469 23.52916908 0.9486856461
5.274842739 23.87528992 1.803623915
2.626153231 16.73812866 2.774518967
3.129836559 17.83271217 4.183773994
1.120888114 12.6266222 3.692135572
2.276806593 15.47334385 4.897770882
5.173662663 23.51737404 0.9445100427
2.273007631 15.67984581 2.661957741
1.536478996 13.63935947 3.420742989
2.333289623 15.468297 4.898786068
5.258219719 23.5018959 0.9401343465
5.430764198 23.81538773 1.795170784
2.744562149 16.72453499 2.771627665
1.229913235 12.8178091 2.812851191
1.08202076 12.3732214 3.1907444
1.163877726 12.50503922 3.667714596
2.402568817 15.50187111 4.909813404
5.346853256 23.50813293 0.9358247519
2.19719553 15.19893169 2.609859228
1.269183278 12.79606533 2.809809923
1.134702802 12.39495182 3.195356607
1.17204237 12.41557407 3.649158716
1.299729347 12.65627098 4.169331551
5.446187019 23.52920532 0.9311702847
2.177114248 15.00570869 2.588842154
1.294220567 12.73927879 2.801756382
1.547345161 13.29417992 3.360045433
1.190566659 12.34713936 3.63534379
1.249477744 12.41899967 4.109361649
5.539834023 23.53499985 0.9266175032
2.214227915 14.95662117 2.58307004
1.369202018 12.80540276 2.81139493
1.306174159 12.58569717 3.23161602
2.819309235 16.07694435 5.067671776
5.645606518 23.57009315 0.9218245745
1.177512527 12.29267597 2.301543474
1.365228176 12.67874813 2.79334569
1.293885708 12.4417963 3.206149578
1.371409535 12.5574131 3.684749126
1.523235917 12.84740257 4.225526333
5.741168022 23.57879257 0.9172227979
1.202688217 12.24160099 2.295713663
1.455836296 12.78098774 2.808227777
1.271040916 12.20687962 3.608458042
1.364974022 12.35972881 4.10005188
5.858209133 23.6388855 0.9121855497
5.980395794 23.81080437 1.774991632
1.360569954 12.50814247 2.323378563
1.707452774 13.26917171 2.878623962
1.301861048 12.23820305 3.170629025
1.305007935 12.17805004 3.6035285
2.534568787 14.98574924 4.790029526
5.941119671 23.62620735 0.907959938
3.213339329 16.8711853 2.173566818
1.384237647 12.45737171 2.317631721
1.533317685 12.74038124 2.802819014
1.349424243 12.24620152 3.17290926
1.334546804 12.14453793 3.597513914
1.478170872 12.40963554 4.117372513
6.01949501 23.5912838 0.9036961794
3.27084589 16.86009407 2.171450615
1.414312601 12.41671467 2.312949419
1.779416919 13.20046806 2.869254112
1.372496724 12.19160366 3.163823366
1.494616628 12.40674305 3.657324076
1.433392882 12.19855309 4.064245224
6.107888222 23.58002853 0.8992284536
6.297763348 23.89474869 1.767407417
3.363353491 16.92284966 2.174229145
1.460704923 12.41437817 2.312322378
1.837208509 13.21690559 2.871913195
1.492146254 12.35940456 3.195427418
2.710381031 14.9898777 4.799380779
2.587129831 14.9751997 2.042404175
1.493641496 12.38082504 2.308427334
1.803787351 13.0241766 2.844503641
1.432764769 12.11663914 3.151982307
1.562736988 12.34575748 3.647017717
1.613133788 12.39247704 4.119760513
6.257026672 23.49222946 0.8908863664
2.631344318 14.9431057 2.039022923
1.552014351 12.4055109 2.310680151
1.561625004 12.36202431 2.749552727
1.45739007 12.06732559 3.143934011
1.559414148 12.23190022 3.623347282
1.56786418 12.18534088 4.067681313
6.346897602 23.48371124 0.8863946795
2.641587973 14.83415127 2.030527353
1.595294356 12.3953495 2.309283257
1.604747295 12.35187817 2.748441458
1.676130652 12.45181942 3.215347052
3.272296906 15.84217167 5.032481194
6.449719429 23.50412941 0.8816181421
2.71038866 14.8584404 2.030949593
1.903619289 12.97744942 2.370193243
1.708067536 12.47539234 2.766598463
2.312990904 13.75343609 3.454890251
1.738019705 12.41679287 3.668027401
3.525727987 16.25965691 5.145678997
6.51733017 23.46545792 0.8778660893
