# .PCD v0.7 - Point Cloud Data file format
VERSION 0.7
FIELDS x y z
SIZE 4 4 4
TYPE F F F
COUNT 1 1 1
WIDTH 1316
HEIGHT 1
VIEWPOINT 0 0 0 1 0 0 0
POINTS 1316
DATA ascii
-12.60558987 22.86702347 1.932201266
-12.43113327 22.58127403 2.739881992
-16.93256187 33.69893265 4.823380947
-12.99435234 24.23103333 4.63699913
-9.820015907 16.53115082 4.069679737
-10.06142807 17.22671509 4.835537434
-11.45390511 20.82402611 6.441560268
-10.27729416 17.99255943 6.364657402
-11.08765411 19.27483559 0.4039025605
-12.35478592 22.61074257 2.735391855
-12.23879814 22.45219612 3.538791656
-9.905863762 16.80039406 3.503854275
-9.883387566 16.84808159 4.122340679
-10.01321888 17.27202415 4.83724308
-12.18549919 22.87969971 6.979820728
-13.41471291 26.16307259 8.86503315
-11.02355862 19.30103302 0.4002148807
-12.29184628 22.66244125 2.732919931
-12.14365959 22.43315697 3.528846741
-9.858514786 16.84332657 3.503716707
-9.649840355 16.41372108 4.033096313
-10.24794102 18.03629112 5.002706051
-12.11740875 22.93267059 6.981204987
-10.09772968 17.87711525 6.307938099
-10.97233772 19.3497963 0.3957884312
-12.24338341 22.7618103 2.733677149
-12.05904484 22.43959045 3.521826506
-9.824645042 16.9126339 3.507882595
-9.572751045 16.37695122 4.018919468
-11.0214901 20.18844604 5.483301163
-12.04309082 22.9585495 6.976046562
-10.03583431 17.89384079 6.302339077
-10.88864231 19.32735634 0.3939360082
-18.71692276 39.33657837 3.960549116
-11.99937057 22.49787521 3.521044731
-11.900033 22.38644791 4.322184563
-9.604391098 16.61894989 4.057275295
-10.053936 17.88243294 4.950477123
-11.00964928 20.49347687 6.308197021
-10.00263691 17.98583031 6.319801807
-10.82436275 19.35285759 0.3902409673
-19.61226654 42.01674271 4.147541523
-12.00927448 22.74655914 3.541156769
-9.72223568 16.98128319 3.50505209
-9.642194748 16.88159561 4.09933567
-10.01012325 17.94613647 4.95617342
-10.88012505 20.35900497 6.261425972
-13.87094975 28.43955231 9.496364594
-10.80385017 19.489748 0.382232368
-19.3700676 41.81837845 4.120489597
-11.93669415 22.78583908 3.537813663
-11.75227547 22.45127869 4.314397335
-9.575996399 16.87586975 4.09096384
-9.465800285 16.68628693 4.663131714
-10.86485386 20.52555847 6.294572353
-9.761311531 17.70474815 6.213149548
-10.74517632 19.54042435 0.377381891
-18.50881767 40.00191879 3.974660873
-11.86296177 22.83379555 3.535068035
-9.631818771 17.08262062 3.507148027
-12.26124859 24.18086433 5.448031902
-9.405989647 16.70324135 4.658575535
-10.6802702 20.24948502 6.210174084
-10.03141117 18.61900902 6.480511665
-10.65862846 19.50945854 0.3758254349
-18.31297493 39.8978653 3.955358028
-11.86164379 23.06244087 3.552717209
-11.5435133 22.50238037 5.124825954
-9.357713699 16.74277496 4.659536839
-10.7841444 20.7419548 6.329264164
-11.00756168 21.48899078 7.339538574
-10.59838676 19.53665924 0.3721389771
-15.66941452 33.27807617 3.461041212
-11.87135792 23.32489586 3.573983431
-11.85458183 23.42235947 4.432242393
-11.43758678 22.44786835 5.105040073
-9.328144073 16.82522774 4.670536041
-10.03886795 18.89647865 5.833519936
-9.551537514 17.67818069 6.174592018
-10.55029774 19.60602951 0.3666478097
-15.54269505 33.26626205 3.451081514
-17.73098564 39.41075897 5.336005688
-11.66278744 23.14326096 4.382181168
-11.37232971 22.49142838 5.104034901
-9.278653145 16.86270332 4.671056747
-9.956473351 18.86526299 5.815533161
-9.446875572 17.56136513 6.129836559
-10.50438595 19.67220116 0.3613965213
-15.43605709 33.3253479 3.445824385
-18.19102097 41.08657455 5.506555557
-16.01720047 35.36196899 6.172332764
-11.30243587 22.53434181 5.102460384
-11.24642181 22.52249908 5.927157879
-9.930854797 18.98254395 5.837042809
-9.451599121 17.76075554 6.180073261
-10.42041111 19.65630531 0.359081924
-15.33851051 33.42741776 3.443201542
-18.07529068 41.20573807 5.50588131
-11.30945683 22.64896584 4.292267799
-9.735789299 18.39121437 4.327929497
-11.1620903 22.53692627 5.919332504
-10.9645586 22.13588524 6.651175499
-9.272691727 17.4473896 6.075485706
-10.37432098 19.74331284 0.3526850045
-15.49073982 34.20679092 3.489635706
-17.98000336 41.4058342 5.51334095
-11.19122028 22.5571804 4.270428181
-9.67287159 18.40789413 4.323407173
-11.10491657 22.62862015 5.928751945
-9.867933273 19.23100853 5.881605625
-9.194353104 17.4083519 6.054167271
-10.31402302 19.78205109 0.3483179808
-15.41277599 34.35599136 3.490634203
-17.76320076 41.24307251 5.482017994
-11.09227848 22.52974701 4.257696152
-11.6476326 24.2688942 5.39241457
-11.1207571 22.92045975 5.98307085
-10.26459694 20.59480286 6.226979256
-9.178465843 17.5510807 6.087418556
-10.2554903 19.81566238 0.3442807794
-15.19710064 33.88102722 2.226821423
-19.42613983 46.12585449 4.318604469
-17.65541077 41.38729477 5.484126091
-11.01286316 22.53288841 4.250320435
-11.59767056 24.3892746 5.404475689
-10.63509941 21.74080276 5.712078571
-9.464065552 18.45370865 5.660895824
-9.104486465 17.52433014 6.069921494
-10.18352318 19.82198334 0.3411805034
-15.0291748 33.77091217 2.215111971
-18.3175602 43.45101166 4.116016865
-16.95936584 39.81012726 5.301036358
-10.74184608 21.98986053 4.163253784
-11.47067833 24.28574753 5.375572205
-10.54867935 21.72564888 5.698909283
-9.406625748 18.4863205 5.660255909
-9.058753014 17.58124352 6.077498436
-10.09379864 19.77709007 0.3401340246
-14.82162285 33.54640961 0.9912679791
-14.89425087 33.75255966 2.206573248
-19.02549744 45.98983383 4.283075333
-16.80377388 39.79925537 5.286983967
-12.00713348 26.14821243 5.705435753
-10.48108864 21.76583481 5.698025703
-9.053628922 17.76233864 6.122077465
-10.00642681 19.73746872 0.3388821185
-14.66884804 33.47213745 0.9851483703
-14.76803017 33.75825119 2.198874235
-19.1718483 46.93595505 4.336764812
-16.59297943 39.62377548 5.25535059
-11.92662621 26.20104218 5.704480648
-9.541077614 19.16818047 5.117125988
-9.294927597 18.5620594 5.66181469
-10.27972317 21.73007011 7.292196274
-9.909721375 19.66910362 0.3388022184
-14.53342628 33.44644165 0.9788850546
-14.64832306 33.78239059 2.191811085
-16.42772102 39.57939529 5.237931728
-11.1037693 23.82285118 4.40378809
-11.8532486 26.27607918 5.70759058
-11.37685108 25.00180817 6.388828278
-9.088418007 18.13587761 5.54302454
-8.978527069 17.934515 6.154492855
-9.777132034 19.49235916 0.3431488574
-14.42120171 33.48846817 0.9723744392
-14.53493977 33.82504654 2.185372829
-11.03375626 23.87998199 4.403546333
-9.213734627 18.46392632 4.28187418
-11.22007084 24.80469704 6.334654331
-9.02541256 18.14686584 5.537209034
-8.926774979 17.97833633 6.15816021
-9.693306923 19.45710564 0.3417623043
-14.32139015 33.56807327 0.9657002091
-14.40756798 33.82556534 2.177561522
-19.08997536 48.31629562 4.393717766
-14.47995186 34.53070831 4.676002979
-9.167611122 18.53126717 4.286851883
-8.938606262 17.94372749 4.824512005
-8.971196175 18.18540001 5.538526535
-8.843654633 17.92283058 6.13249588
-9.622323036 19.45944977 0.3388382792
-14.2398262 33.70439911 0.9587581754
-14.28591919 33.84268951 2.170314312
-19.01100922 48.63669586 4.402644157
-14.35294914 34.5391655 4.66608429
-10.26748943 22.04020882 4.123624325
-9.130636215 18.62855148 4.297227383
-11.2158947 25.37539291 6.437522411
-9.197969437 19.1230545 5.770308495
-8.821992874 18.06367874 6.164914131
-9.556970596 19.47862625 0.3352146447
-14.19075394 33.94115448 2.165708303
-14.30972672 34.56716537 3.41989255
-14.25866222 34.64952469 4.666993141
-10.17827415 22.01512718 4.112401962
-9.072401047 18.65997696 4.295725346
-9.100408554 18.8838253 5.013834953
-9.093212128 19.01005745 5.732491016
-8.745305061 18.02788734 6.145229816
-9.491559982 19.49757195 0.3315887153
-14.11329079 34.09647369 2.162900925
-14.16157913 34.5080719 3.406523466
-14.25938606 35.06332397 4.699867725
-10.09700394 22.01427078 4.104695797
-9.01343441 18.68932343 4.293877602
-10.94565678 25.10684776 6.357438087
-8.954170227 18.78131866 5.665306091
-8.69456768 18.07653046 6.150488853
-9.415178299 19.48200989 0.3293819427
-14.04442024 34.54547119 3.399826765
-10.02283287 22.03582191 4.10022068
-11.65120506 27.5287571 5.870306492
-8.871436119 18.58291817 4.932749748
-10.38750935 23.76660919 6.92710638
-8.77521801 18.56593895 6.28514576
-9.337181091 19.46042061 0.327424854
-13.94069958 34.62630844 3.396109343
-16.30780411 42.58055496 5.465703964
-9.863078117 21.77653694 4.056015015
-8.815806389 18.48513985 4.243277073
-10.86297989 25.4472065 6.40987587
-8.821216583 18.79273987 5.651077271
-8.698446274 18.53351593 6.266479015
-9.27481842 19.48813629 0.323408097
-17.23752022 45.83009338 4.146613598
-16.23533821 42.8657341 5.482461929
-9.760620117 21.70047379 4.037919998
-8.723519325 18.40027237 4.221246243
-11.00991917 26.25869942 6.574445724
-8.501062393 17.93389511 5.424567223
-8.614973068 18.47673035 6.240801334
-9.204125404 19.4888916 0.3205070794
-17.07050323 45.84390259 4.135345459
-16.97110558 45.85415268 5.780576229
-9.743461609 21.90892601 4.060012817
-8.662540436 18.41897774 4.217763901
-9.852629662 22.62943459 5.781635284
-8.421715736 17.88299942 5.40367794
-8.57502079 18.5694828 6.25892067
-9.140455246 19.51233482 0.3166449964
-17.5490818 48.02222061 4.269723892
-11.81635952 29.00867462 4.017961025
-9.604403496 21.70671082 4.024291039
-9.780186653 22.66364479 5.77974081
-8.49247551 18.51395607 6.233807564
-9.072675705 19.52215385 0.313344419
-16.45806694 44.89472198 4.048102856
-16.67765045 46.01755142 5.769794941
-9.148144722 20.40333176 3.834372759
-10.576828 25.53248787 5.465224743
-8.87604332 19.77770233 5.151216984
-8.332901001 18.02330971 5.423366547
-8.369842529 18.30137253 6.163564205
-9.014377594 19.55185509 0.3093365431
-16.32141685 44.99767685 4.043188095
-17.14668465 48.23654938 5.985011101
-8.428961754 18.13363075 3.510544062
-10.50175476 25.59578896 5.467036247
-10.638134 26.28468323 6.537530422
-8.261631012 17.9875927 5.40692091
-8.300524712 18.28766251 6.150938511
-8.949886322 19.5727253 0.3055443764
-13.40015125 35.67349243 4.678503036
-8.350057602 18.08440399 3.497801781
-10.39605045 25.55063248 5.449730396
-8.573874474 19.18866348 5.009920597
-8.179440498 17.92246246 5.382778645
-8.230859756 18.27182198 6.137784004
-8.895273209 19.6279335 0.300272584
-17.53663635 50.46431732 4.381668091
-8.532126427 18.81201553 2.937896729
-8.167864799 17.66246414 3.433250904
-10.3578949 25.74833298 5.475287914
-10.44617176 26.28114128 6.515744686
-7.970092773 17.38608742 5.240409851
-8.17035675 18.28918266 6.134333611
-17.7454052 51.43716049 2.601715565
-8.071116447 17.53954315 3.410544157
-10.21174908 25.55412865 5.431906223
-10.61658192 27.26515579 6.71491909
-7.920198917 17.43054008 5.244197845
-8.126561165 18.36964226 6.149178982
-17.54992485 51.41744995 2.589627504
-16.0896492 46.56754303 4.099575996
-8.328987122 18.56130219 2.901593924
-8.050977707 17.69549942 3.426587582
-13.55637646 38.35535431 7.667319298
-7.996029377 17.79092789 4.690359116
-7.891361237 17.55566978 5.268198967
-8.066696167 18.39037323 6.146787643
-17.25213242 51.02296829 2.566615343
-16.8711319 50.07097244 4.316811562
-12.9711132 36.0203743 4.672130108
-8.011383057 17.7825737 3.43304491
-9.656794548 24.1551075 5.168948174
-7.92226553 17.75034142 4.674944401
-7.845085144 17.61684036 5.276174068
-8.052836418 18.58999443 6.195985794
-17.11811447 51.22140503 2.561029911
-16.70386314 50.13332367 4.308051586
-11.64552212 31.52954483 4.206319332
-7.925778389 17.69704247 3.415685892
-9.547874451 24.07036209 5.145674706
-7.883682251 17.84411621 4.688068867
-7.787820339 17.63645935 5.273796558
-8.004490852 18.65903473 6.207514286
-17.35921097 52.82958984 2.595999956
-16.52959251 50.13491058 4.296010494
-12.75041389 36.17934036 4.667523861
-7.852789402 17.65717125 3.404699326
-10.40351677 27.71203232 5.772314072
-7.889041424 18.11249924 4.738078594
-7.737138748 17.68227386 5.277985573
-8.180411339 19.6130619 6.473599434
-17.13529205 52.67827225 2.580568075
-16.62101936 51.18885422 4.35142374
-12.59457397 36.08486557 4.647697926
-7.827825069 17.79098892 3.417880297
-10.34162617 27.86109352 5.788603306
-7.778082371 17.91288185 4.689530373
-7.670804977 17.65359116 5.264038086
-7.83865881 18.5078373 6.148082733
-15.23361683 46.09611893 2.382210016
-16.59487915 51.81486893 4.37879324
-12.49135303 36.16751862 4.646303654
-7.757797718 17.76220703 3.408477068
-9.965894699 26.75872993 5.587677956
-7.750856876 18.05772209 4.713394642
-7.640235424 17.78213882 5.28883028
-7.770975113 18.49761772 6.137088776
-15.06514168 46.09437943 2.372043371
-16.41740227 51.86083984 4.368693352
-11.62457466 33.26238632 4.344368458
-7.661221027 17.62539864 3.384373665
-7.60711813 17.57247734 3.987538815
-9.413285255 25.14830589 6.196809292
-7.597197533 17.87552834 5.304511547
-7.710137367 18.51525116 6.134137154
-16.34676361 51.87896347 2.522907972
-16.20863342 51.81933975 4.352390766
-11.49170589 33.20998001 4.329838276
-7.539178848 17.39254951 3.347044706
-7.509405613 17.43655396 3.957898617
-9.311422348 25.09734917 6.176812172
-7.561448097 17.98889732 5.325471878
-7.651897907 18.5578289 6.137966156
-14.75836658 46.24232864 2.355487347
-15.29712868 48.8787384 4.152378082
-11.03273678 31.81669235 4.181733608
-7.455204487 17.29709816 3.328841925
-7.508590221 17.68887711 3.995652437
-7.637836933 18.39777374 4.764522076
-7.495722294 17.97726059 5.315543652
-7.530869007 18.31595039 6.061195374
-14.63367271 46.41648483 0.7117643356
-15.91363811 52.15628433 4.347931385
-7.64424181 18.17098236 2.816644669
-7.423267365 17.41732025 3.339982033
-7.449643612 17.70138931 3.99199605
-7.715072632 19.00642204 4.885153294
-7.419219494 17.91799545 5.293947697
-7.484770775 18.3947506 6.075919628
-14.43795967 46.30134201 0.7040831447
-14.2716341 45.61268234 2.318228722
-14.2516222 45.98035431 3.945232153
-7.570316792 18.12753105 2.807462454
-7.348554611 17.35795784 3.326783419
-7.284377575 17.25438881 3.909436703
-7.905422688 20.12784386 5.112385273
-7.35478735 17.90960693 5.28497839
-7.412886143 18.36059761 6.058569908
-14.29765797 46.41499329 0.6944117546
-14.40694427 46.87768936 2.342543125
-13.15714931 42.0263443 3.685364246
-7.506215572 18.12449265 2.802325487
-7.364144802 17.68861771 3.366304636
-7.346970558 17.79310799 3.996221066
-7.96516943 20.70597649 5.225669861
-7.325592041 18.0585289 5.314718246
-7.377390862 18.48991394 6.087671757
-14.27075195 47.01885223 2.336202145
-13.00165462 42.00774002 3.673931599
-8.503031731 22.75545502 3.253909826
-7.218034744 17.31562805 3.31088686
-7.241101265 17.59715462 3.956976175
-7.923332214 20.84468651 5.247215271
-7.264161587 18.06497955 5.309459686
-7.333283901 18.58341026 6.106593132
-15.45368385 52.90188217 2.482473612
-12.87076855 42.09560776 3.669192553
-8.40280056 22.66635895 3.239085913
-7.323861122 18.0605526 3.4059515
-7.160422325 17.50854301 3.936235428
-8.701815605 24.74838257 6.050219536
-7.293345928 18.49140739 5.407084465
-7.315096378 18.80125618 6.16065836
-15.26357365 52.90449524 2.471151114
-10.11375904 30.45135689 2.935675383
-9.456255913 27.78026962 3.734233141
-7.205899239 17.80884171 3.366976261
-7.044471741 17.25374985 3.887273073
-8.404172897 23.76686859 5.838198662
-7.234494686 18.51677513 5.406396389
-7.260265827 18.8512764 6.167238712
-12.68356323 42.16672134 2.179022312
-12.37673283 41.18841934 3.59320569
-7.101314068 17.42521667 2.71491313
-7.134027481 17.76199722 3.355592728
-7.039722443 17.49744987 3.923590183
-8.631027222 25.23865509 6.134417057
-7.213603497 18.72476768 5.450320721
-7.176761627 18.74749374 6.130867481
-12.59237289 42.40171432 0.6910509467
-12.53234577 42.13069534 2.169543266
-10.10898018 31.4016304 2.98007226
-6.944438934 16.97464371 2.666491985
-7.071215153 17.74137497 3.348022699
-6.91875124 17.20900345 3.869161606
-7.169352055 18.59580231 4.754358292
-7.175710201 18.84067726 5.472053051
-7.193386555 19.15044975 6.236907959
-12.44900131 42.40414047 0.683526814
-12.38945198 42.16603851 2.161488533
-13.52819252 47.93417358 3.988186598
-6.881361961 16.93949318 2.658928394
-7.006055832 17.72309113 3.340555906
-6.857999325 17.18789482 3.860531807
-7.099099636 18.56693268 4.742148876
-7.087507248 18.72644806 5.437416553
-7.042354584 18.70779037 6.10538578
-12.30553627 42.44086838 0.6752595305
-12.26190758 42.2384758 2.15483427
-12.22176743 42.51779938 3.645453215
-7.113627911 18.53160095 3.443264008
-6.802819252 17.2077713 3.858621597
-7.036399841 18.55828094 4.734480858
-7.036453247 18.77910995 5.443809032
-6.992166996 18.7815609 6.118865013
-12.1533556 42.43597412 0.667414248
-12.13778019 42.36487961 2.149088621
-12.07509708 42.54061508 3.63675046
-7.011480808 18.34233665 3.412966013
-8.229469299 24.67806244 5.114656448
-7.84758234 23.00920486 5.642891407
-7.028325558 19.07102013 5.507921696
-6.917554855 18.73021126 6.097288132
-12.01375103 42.49126816 0.65893507
-11.96360207 42.73707199 3.638614893
-6.840308666 17.79649734 3.335634232
-6.719020844 17.38446045 3.877958775
-7.068280697 19.38667679 4.892174721
-6.936993599 18.93689346 5.468688011
-6.850472927 18.71644974 6.086342335
-13.82615662 52.26066971 2.377316475
-9.446158409 30.82947922 2.908880472
-6.756870747 17.68191147 3.315588713
-6.713217735 17.66549873 3.92001462
-7.116991997 19.99693871 5.010824203
-6.879536629 18.978302 5.472066402
-6.773739338 18.64933777 6.060564995
-10.91396809 38.44883728 0.6875393391
-13.52086163 51.6571312 2.351405144
-7.548508644 21.91296005 3.114243984
-6.722144127 17.81829262 3.328702927
-6.648971558 17.64611626 3.911495686
-7.034617901 19.94337082 4.99307251
-6.866355419 19.28046036 5.538106441
-6.698545933 18.58758926 6.036406994
-10.72403431 38.20468521 0.6827838421
-13.29478168 51.48563766 2.33579731
-9.635400772 32.97999573 3.0231359
-7.494884014 22.03103256 3.120008707
-6.651872635 17.78558159 3.319302559
-7.836383343 24.43508911 5.043593884
-6.761760235 19.06693459 5.479990959
-7.852786064 25.48464394 7.951327324
-9.903988838 34.59876251 0.7167152762
-9.272096634 31.66129303 2.936775684
-7.444401741 22.19081116 3.129440784
-6.58232069 17.73835754 3.308294058
-7.106776714 20.86586571 4.43935442
-6.662308693 18.89180946 5.43101263
-7.748715878 25.39457512 7.916862011
-10.38228703 37.78092957 0.6738717556
-13.14737701 52.60502243 2.341618538
-9.765263557 34.9106102 3.123150587
-6.543190956 17.61910057 2.689754009
-6.557796955 17.92264175 3.327879906
-6.97836256 20.52659035 4.376889229
-7.41779995 23.28987122 5.655181408
-6.60690546 18.90815163 5.42920351
-7.110548496 22.13330269 7.001610756
-10.23606014 37.70821762 0.6677265763
-12.96209431 52.61104202 2.330760956
-9.654172897 34.97389221 3.118885756
-6.489124298 17.65343857 2.688687086
-6.530119896 18.11336327 3.347995043
-6.868794441 20.30200386 4.333483696
-6.902855873 20.754776 5.132911682
-6.532841682 18.85254669 5.409531116
-7.0445261 22.19447708 7.010630131
-9.497490883 34.32993317 0.7010576129
-8.985881805 31.89110756 2.928956509
-6.438969135 17.71114349 2.689835548
-6.472502232 18.13793755 3.346384525
-7.223031044 22.79503059 4.742348671
-6.822011948 20.69766998 5.114878178
-6.45348835 18.76207161 5.381597519
-7.335986137 24.45268822 7.628692627
-9.350469589 34.17722321 0.6965665817
-12.4809885 51.99090576 2.294336081
-8.802806854 31.47759247 2.897404909
-6.802862167 20.18889236 2.919223547
-6.380401134 17.95889282 3.318313599
-7.606928349 25.57319641 5.197111607
-6.750508785 20.69442749 5.107842922
-6.693709373 20.64263725 5.82557106
-7.279462337 24.62721634 7.668355942
-9.199828148 33.99630356 0.6924809813
-12.43793297 52.80637741 2.30243063
-8.726988792 31.67733765 2.901980877
-6.731361866 20.17510414 2.913020372
-6.730928898 20.7374115 4.388202667
-6.738171101 21.05885696 5.175190926
-6.622211933 20.63726425 5.817546844
-7.208712101 24.71777534 7.684765339
-9.066480637 33.90939713 0.6872889996
-12.24236107 52.75069046 2.29020834
-8.786064148 32.69630814 2.954267263
-6.744149208 20.67397499 2.954941511
-6.225388527 17.75615501 3.282679796
-7.368517876 25.18567657 5.118367672
-7.138731956 24.0683403 5.776233196
-6.543063164 20.58161354 5.797590733
-8.951397896 33.92851639 0.6807847023
-12.11761189 53.12040329 2.287708998
-8.529052734 31.81620407 2.895801306
-6.46601963 19.3818264 2.829078436
-6.210341454 18.04227448 3.315062284
-7.291501999 25.24855232 5.121638775
-7.047019958 24.01005554 5.757215977
-6.480332851 20.63150978 5.802891731
-6.658281803 22.15759659 6.961745739
-8.853464127 34.05384445 0.6729050279
-11.46838951 50.25654221 2.212212563
-8.50757122 32.37617493 2.92108655
-6.138189316 17.97166252 3.301321507
-6.597706318 21.25989532 4.456917286
-6.972630978 24.06392097 5.760864735
-6.385766029 20.46743393 5.757295132
-6.539676666 21.86216354 6.872891903
-8.714173317 33.92209244 0.6683382392
-11.33312798 50.51728821 2.207695007
-8.456165314 32.76866913 2.936491728
-6.305173397 19.19405174 2.802380085
-6.090552807 18.05964851 3.3080585
-6.535769939 21.33175087 4.462872505
-6.680605412 22.63272667 5.466188908
-6.29681921 20.33374977 5.7190938
-6.477223396 21.94826889 6.889264584
-8.590504646 33.88463593 0.6625704765
-11.03576469 49.73823547 2.180094957
-8.262004852 32.23927689 2.898831129
-6.294226646 19.55661774 2.831501007
-6.043493271 18.1553669 3.315771818
-6.452975273 21.26276016 4.445692062
-6.450726986 21.56478119 5.245317459
-6.225348473 20.31728745 5.708864689
-6.421589851 22.0877285 6.920310497
-8.4824543 33.90914154 0.6562963724
-10.92960072 50.18951035 2.179794788
-8.158237457 32.25519943 2.892971992
-6.219703674 19.50154686 2.821810246
-6.081680298 18.84799385 3.399956465
-6.385307789 21.27109146 4.441566467
-6.350072384 21.3697834 5.200000763
-6.35459137 22.121315 6.922651291
-8.382536888 34.02909851 0.6483983994
-10.79931545 50.43757248 2.175433397
-8.340950012 34.28530502 3.001496077
-6.142507076 19.42448997 2.81014204
-6.08492136 19.30289078 3.453647375
-6.774485588 24.61408043 4.983252525
-6.326706409 21.70645332 5.261498451
-6.171476841 20.9218998 5.839859009
-6.253629208 21.92558861 6.861843109
-8.263055801 34.01811218 0.6422641277
-10.86968136 52.15314865 2.202031136
-8.249202728 34.4763298 3.004799843
-6.073763371 19.3801918 2.801776409
-5.839935303 17.99118614 3.281416893
-5.916149616 18.85991478 4.035971165
-6.236734867 21.58472824 5.230995178
-6.105008125 20.95711327 5.841858864
-6.168217182 21.84044647 6.831509113
-8.153708458 34.07798767 0.6351401806
-10.51718998 50.93913651 2.165554285
-8.136001587 34.52074432 2.999762297
-5.780911922 18.00359726 3.278558016
-5.853068829 18.86488152 4.031802177
-6.168944836 21.62802696 5.233527184
-6.026859283 20.90130806 5.82240963
-6.096962452 21.86414337 6.831061363
-8.048875809 34.173172 0.6274910569
-10.31568718 50.76538467 2.151537657
-8.018294334 34.53310776 2.992930174
-5.716467381 17.97447586 3.270444155
-6.324606895 23.06482315 4.711121082
-6.081876278 21.51924896 5.205807686
-5.960288048 20.93603706 5.82440567
-6.052100658 22.10799408 6.890787125
-7.953992844 34.34731674 0.6186683178
-10.01837635 49.86142349 2.122366428
-7.964523792 35.03413391 3.013514757
-6.088127136 21.04924393 2.940667152
-5.65846777 17.99433327 3.268588305
-6.170192719 22.45212555 4.605419636
-5.992267609 21.41252518 5.178319454
-5.976134777 21.69425774 5.996499538
-5.970862865 22.05461502 6.869366646
-7.838934422 34.37444305 0.6119220853
-9.626174927 48.23923111 2.078250885
-6.028335094 20.76907921 2.209419727
-6.002361298 20.93397713 2.925363302
-6.39128685 24.49258995 4.086654663
-6.099359512 22.49727058 4.606916428
-5.929783821 21.49788284 5.189380169
-5.916461468 21.81399155 6.018351078
-5.89828825 22.07380867 6.867826939
-7.718732834 34.36148453 0.605755806
-9.643958092 49.64419174 2.097760677
-5.938493729 20.61150932 2.196258068
-5.928229332 20.9073391 2.918194056
-6.311552048 24.48879242 4.080510616
-6.041537762 22.65593338 4.626839638
-5.863638878 21.52411461 5.189017773
-5.858561039 21.9234314 6.038092136
-5.825403214 22.09083748 6.86576128
-7.625695705 34.52008057 0.5973459482
-9.285128593 48.12334061 2.056936264
-5.872992992 20.61769485 2.192471266
-5.922225475 21.42598343 2.960729361
-6.233699799 24.53648376 4.0806036
-5.943491459 22.43532181 4.585627556
-5.795486927 21.56617928 5.191534996
-5.767882824 21.77176857 5.996264935
-5.761843681 22.1609211 6.878509998
-7.504467964 34.50039673 0.5912553668
-9.142951012 48.26154709 2.050518274
-7.83004427 37.96793365 3.145626783
-5.572495461 19.0043869 2.736959934
-6.196660042 24.91277313 4.122365952
-5.867822647 22.43849754 4.580450058
-5.773346424 22.00367546 5.272554398
-5.69597578 21.75294685 5.986021519
-5.671811104 22.01422501 6.832104206
-7.385725021 34.50014496 0.584872663
-8.922981262 47.80636597 2.031790257
-7.713892937 38.09828568 3.144677162
-5.775902748 21.38130188 2.947336197
-6.032735348 24.18473053 4.024963856
-6.124187469 25.5616684 5.078666687
-5.781603336 22.79696655 5.423342705
-5.615465164 21.68390846 5.963792324
-5.599820137 22.03815079 6.832132339
-7.319613934 34.96847153 0.5712148547
-8.781978607 48.02587509 2.026530743
-7.591227055 38.17667007 3.140856266
-5.696497917 21.34827614 2.939375639
-6.014760017 24.79400063 4.095620632
-6.024533272 25.43785667 5.052313805
-5.616938591 21.96441269 5.252903461
-5.556200504 21.86310959 5.999386787
-7.208702087 35.10935211 0.5621960163
-8.643326759 48.35718155 2.02289176
-5.635576248 21.03733635 2.197903156
-5.628744602 21.38985062 2.938387394
-5.909303665 24.62594795 4.06846714
-5.872014999 24.81493187 4.945507526
-5.550581932 22.04474831 5.263004303
-5.502638817 22.07668304 6.043266296
-7.107177258 35.29101562 0.552796185
-5.561525345 21.00712395 2.191904068
-5.581382751 21.67340279 2.958823204
-5.795660973 24.31873512 4.024350643
-5.87860775 25.76352882 5.091687679
-5.532317638 22.68614388 5.383136272
-7.009245872 35.45983887 0.5438605547
-5.543169498 21.95775414 2.979940891
-5.715155125 24.29513168 4.016049385
-5.710079193 24.83785629 4.937312126
-5.463675022 22.68925285 5.378526688
-6.895984173 35.54539108 0.5358861089
-7.125679493 38.80023956 3.142239332
-5.474270821 22.05274963 2.98337841
-5.655272484 24.54047203 4.040973663
-5.667753696 25.30848122 5.006617546
-7.017308235 41.59416962 9.07942009
-6.78969574 35.71020126 0.5265706182
-7.011371613 39.00595093 3.14516592
-6.907792091 38.84052658 4.469545841
-5.573634148 24.60416794 4.042984962
-5.56258297 25.08049011 4.964098454
-6.880116463 41.66250992 9.082177162
-6.691903114 35.98024368 0.5154357553
-6.900612831 39.26702499 3.150994062
-6.787240028 38.98780441 4.474071503
-5.501505375 24.68660736 4.047889709
-5.51361227 25.51940727 5.028151989
-6.591920376 36.24602127 0.5042664409
-6.7138834 38.65617371 3.110315323
-6.740565777 39.95609665 4.551559925
-5.420866013 24.72171211 4.046658993
-5.364650249 24.71965981 4.89470911
-6.478577137 36.3740387 0.4953406155
-6.599853992 38.88251877 3.114324093
-6.617259026 40.12869644 4.558094978
-5.363822937 25.06528854 4.083536148
-5.291987419 24.86463928 4.911980629
-6.377687931 36.6671257 0.4835168421
-6.490193367 39.18419266 3.122244835
-5.271617889 24.96333313 4.065389633
-5.221007347 25.04684258 4.935143948
-6.274329185 36.95396042 0.4716863632
-6.482174397 40.87578583 3.203193426
-5.195977688 25.08677101 4.075053215
-5.145979404 25.18746185 4.951675415
-6.191348553 37.45741272 0.4562754631
-5.109601498 25.06142235 4.066431522
-6.074492931 37.52584839 0.4484168589
-5.034149647 25.13849068 4.07068491
-5.96014452 37.73399353 0.4376658499
-5.964099884 41.9883461 6.127044678
-5.860245228 42.69339371 6.203980446
-5.717880726 37.99350739 0.4187900722
-5.700979233 42.58185196 6.180665016
-5.6038661 38.27240753 0.4065027237
-5.554884911 42.42526627 6.152904034
-5.478863716 38.37921906 0.3973295391
-5.406116486 42.34391022 6.133955002
-5.360233784 38.6294136 0.3853942752
-5.576551914 49.75839233 7.023958683
-5.237687588 38.83128357 0.3742818832
-5.114766121 39.05673218 0.3626302481
-5.015764713 42.43773651 3.19216156
-5.087122917 48.99137497 3.512556314
1.000854492 52.57060623 5.173791885
2.700470209 70.24274445 9.015942574
1.013955116 52.01079178 3.326020479
1.189814568 52.75475311 5.179930687
1.163890839 51.68875885 3.302854776
1.313751817 52.13539124 5.122533321
3.135196447 69.82616425 8.947036743
1.431564093 52.71974945 3.338737965
1.489524126 52.09130478 5.110461712
1.610541463 52.68677139 3.32804656
1.825722098 53.63768387 5.222789764
3.522119284 68.99565887 8.831756592
1.781615138 52.57764053 3.314131498
1.96010685 53.23577118 5.183102131
3.79384923 69.29637146 8.855364799
1.917127967 52.13807678 3.286182642
2.000865459 51.90477753 5.07082653
4.037737846 69.3234024 8.847984314
2.070459366 51.8888855 3.266505957
2.240339994 52.44097519 5.104096889
2.297137737 52.30443954 3.275070429
2.634760857 54.29155731 5.239135265
4.476315022 68.94846344 8.785036087
2.690692902 54.12829208 3.342854738
2.820740223 54.27065659 5.228841305
2.994578838 54.15013123 5.210912704
4.718167305 66.38380432 6.144832134
5.397069931 72.29831696 1.561992526
4.91309166 66.09861755 6.112449169
5.68211031 70.80345917 8.953587532
5.631099224 72.15190887 1.547514081
5.142289639 66.08570099 6.101106644
5.118649483 65.30555725 3.758068085
5.227866173 65.01675415 6.008975029
5.973798275 69.41920471 8.779053688
5.373477936 65.49737549 3.754781008
5.446103096 65.03186798 6.00056982
5.455758572 64.45341492 3.700884342
5.702251434 65.23025513 6.005692005
5.678302765 64.43023682 3.688978195
5.890460491 64.95406342 5.974694252
6.103499889 64.85484314 5.95728159
6.272994518 65.3694458 3.705103636
6.490839481 65.29205322 3.690960884
9.035018921 81.03666687 1.482426882
6.724569798 65.31655121 3.680955648
7.359357357 66.43738556 3.704146385
7.680512905 66.05714417 5.989563942
7.835093498 66.14170074 8.324651718
7.953384876 67.22563171 3.713602781
7.803965092 65.49412537 5.938242435
8.050508499 66.03663635 8.304767609
8.160411835 67.11696625 3.698726892
8.054141045 65.66145325 5.941732883
8.309114456 65.84745789 5.946622849
8.524600029 66.19603729 8.306928635
8.502590179 65.63033295 5.921019554
8.571491241 65.49204254 3.602490902
8.7799263 65.86344147 5.929003239
8.895143509 65.18445587 5.868850231
8.855318069 64.55187988 3.544876575
9.47565937 66.18148804 8.273428917
9.072932243 64.54637146 3.534638882
9.029006958 63.58652878 5.732942104
9.731043816 66.33441162 8.282944679
8.619855881 61.14821625 3.39468503
9.927495003 66.19418335 8.260359764
8.858272552 61.19203568 3.385910034
9.084100723 61.17230606 3.374749184
9.262483597 60.97994232 3.357629776
9.546520233 61.70236206 5.559358597
9.805062294 61.8717804 5.563420773
10.08171177 62.47846985 7.82447958
10.14237881 62.43978119 5.597031116
10.35760021 62.75655365 7.848437786
10.24783993 61.95914459 5.554050446
10.45193672 62.22676849 7.784360409
10.05570602 60.70516205 3.309259176
10.69863892 62.32246017 7.788253784
10.95780087 62.4186058 7.791936874
10.45158577 60.47532654 3.280993938
10.62358284 60.36942673 3.268481255
11.20654583 61.67058182 7.698671341
13.42404079 71.07307434 3.64748168
10.89694595 60.06554413 5.377000809
11.12309074 60.09719086 5.371576786
11.33119678 60.05443573 5.360836983
11.72275543 61.05069733 7.61337471
11.50376129 59.87173462 5.340097427
11.9025259 60.88294601 7.589394569
11.69717121 59.7735405 5.325522423
11.96497726 60.26808929 7.517200947
12.36580944 60.94973755 7.585224152
12.34877396 60.57802963 5.368182659
12.43582821 60.41769409 7.522513866
12.61285019 60.25168991 7.499168873
11.72234726 56.69000626 5.076552391
12.84167862 60.27697372 7.496541977
9.512556076 48.35025024 2.755393744
11.91983032 56.64892578 5.066748619
9.149520874 46.43518829 2.6817801
8.284083366 42.96240234 4.088005543
13.29117203 60.33160782 7.492215157
9.313540459 46.4103775 2.673776388
8.435763359 42.96786499 4.083530903
15.21129131 67.02761841 0.9797893763
8.714121819 43.70927048 2.573668003
8.397576332 42.28416061 4.030040741
8.894307137 43.77426147 2.569208145
8.487005234 42.05526352 4.008897305
14.20710945 61.20174789 7.570730686
15.39279461 65.93524933 0.9567530751
8.938579559 43.37236023 2.548815966
8.627882957 41.97917557 3.998383999
14.3989172 61.07990265 7.5527215
13.39003468 58.25670624 0.9620645046
8.640238762 41.82465744 2.489656448
8.823530197 42.11310959 4.002963543
14.54888058 60.78291321 7.51581192
13.61984062 58.33460617 0.9513570666
8.769904137 41.76534653 2.481618166
9.377187729 43.45159531 4.092500687
9.004108429 42.02478027 2.484021664
8.78055954 41.00133133 3.915743351
14.90847111 60.54658508 7.481592655
8.825613976 40.93618393 2.441200018
9.50880146 42.85723114 4.041203499
15.22295475 60.82514954 7.506812096
8.971004486 40.91233063 2.434232473
9.405117989 42.01634979 3.977537394
15.44360161 60.7987175 7.499488831
9.094718933 40.81931686 2.424989939
9.544667244 41.96027374 3.968934536
11.27243423 47.50660706 0.9347720742
9.301250458 40.98680878 2.424396038
9.383452415 40.96900558 3.895143032
9.265049934 40.39819336 2.398899317
9.71809864 41.52408218 3.92930603
15.80826664 59.80696106 7.380755424
11.54316807 47.26429749 0.9180870056
9.3708992 40.27994537 2.389292479
9.923598289 41.69671631 3.937014103
16.02314758 59.80430984 7.376583099
10.37272739 43.15463638 0.925998807
9.533779144 40.3129158 2.384360313
9.698139191 40.52321625 3.850811481
16.32185936 60.01635742 7.395149708
10.56826878 43.22691345 0.9170528054
9.678026199 40.28835297 2.377563953
9.832924843 40.46805954 3.842645645
9.834428787 40.29924774 2.371932745
9.993891716 40.48988724 3.839853764
10.71528625 42.71745682 0.9033586383
10.09919071 40.62536621 2.376440048
10.23017502 40.75117874 3.853852034
17.31562233 60.89621353 7.477091789
10.79656696 42.48038101 0.896353364
10.22969437 40.5553093 2.36819005
10.73864937 41.76467133 3.919513702
17.60751915 61.06114578 7.490865707
11.01102161 42.63049698 0.8874588609
10.38731289 40.58534622 2.36345911
10.87696171 41.70405579 3.910999298
17.72382355 60.72588348 7.451600552
11.38585186 43.2557869 0.8763964176
10.47950268 40.40690994 2.351826429
11.16372108 42.0603447 3.931209564
17.94452858 60.72015381 7.447604656
11.17777348 42.20292664 0.8738583326
10.62651348 40.38454437 2.345181465
10.8023386 40.62997818 3.828879833
11.34462357 42.21546936 0.865680337
10.90614414 40.72821808 2.35004282
10.9946022 40.72858429 3.831526041
20.19718933 65.15565491 10.33551407
11.7022543 42.75181198 0.8544123769
10.90273571 40.31062698 2.331329584
11.18564987 40.82071686 3.833743811
19.01223183 61.69456482 7.540646553
11.07738972 40.36169815 2.327027082
11.59941769 41.50877762 3.876725435
19.12127304 61.37482834 7.503674984
11.20502186 40.28467178 2.318757296
11.28881836 40.27445984 3.788547277
11.60474014 40.92921829 2.332743406
12.05771351 41.88771439 3.89459753
11.79555511 41.03240204 2.330255985
12.14468193 41.68842697 3.876960039
11.95418549 41.04893112 2.325105667
12.34088898 41.79512024 3.880399942
21.13978767 63.74687958 10.13211727
12.10124397 41.01369858 2.318092346
19.31176758 59.21814728 5.059559345
12.23655319 40.94815063 2.310184479
19.77744865 59.80362701 5.093612194
29.89030647 85.01358795 3.629359961
19.86856842 59.43743515 5.063174248
21.01792908 61.94126511 7.543363094
30.10880852 84.71163177 3.607943773
19.99444389 59.13390732 5.036817551
21.21097565 61.80874252 7.526795387
20.21528053 59.09679794 5.028835297
20.2665329 58.6753273 4.995266438
21.67281342 61.72948074 7.513551712
21.95070648 61.83066177 7.522027493
20.3197937 57.73384476 4.921864033
20.54779625 57.69487 4.913838863
22.37461853 61.65427017 7.499102116
23.97677994 64.69680786 12.75944519
20.85763359 57.54527283 7.064417839
23.82433701 63.71192551 12.58479404
20.9797554 57.58543777 4.896120071
21.85399437 58.96772003 9.454839706
24.0746479 63.6907959 12.58619881
24.28223038 63.6012764 12.57498646
21.21641922 57.08298111 4.852890015
23.56505775 60.88360596 12.08824444
21.2465744 56.1317482 4.780119419
22.40501785 58.07771683 9.333799362
23.70021057 60.62947083 12.04736423
28.62077522 72.28652191 3.112569571
21.24309158 55.61297226 4.740936279
22.67807198 57.62886429 9.273432732
23.75201416 59.65877533 11.88112831
21.76575089 55.74882889 4.740869999
23.25374603 58.664505 7.17009306
22.07283592 55.91097641 4.747140884
16.17446709 42.99518204 5.522685051
23.27356148 57.90150452 9.317389488
23.91797066 58.95778275 11.76472282
32.07593918 77.17934418 3.207836151
22.4327755 56.20627213 4.76247406
24.04881096 58.74040222 11.73080826
32.14912796 76.64646149 3.182290077
22.39377594 55.65154266 4.72158289
16.02861786 41.97371674 5.414021492
24.11188126 58.38405991 11.67144871
29.86255074 71.5243454 0.3071835637
16.59659767 43.01382446 3.882323742
16.21808815 42.00318909 5.416503906
24.72838211 59.14892578 11.81882191
26.5050087 63.54616928 2.804750443
16.75706482 42.9728508 3.876331091
16.32299805 41.85619354 5.400522232
23.82856178 57.092659 9.211455345
24.65893364 58.49565887 11.70541954
29.07027626 68.29853821 2.924492598
17.05882072 43.22218704 3.889518023
16.4645462 41.80366516 5.39454937
26.8531971 63.47933197 0.3593133092
27.22478867 63.9184494 2.796977997
16.76666641 42.27227783 3.823909521
25.04239082 58.29284668 11.68180656
27.20770645 63.3304863 2.772298336
16.67718315 41.72938538 3.785088539
15.67455006 39.50199509 5.152171135
16.52153206 41.00049973 6.895354271
16.70173645 41.42348099 3.761954069
15.84815598 39.51404953 5.153171062
16.63092613 40.88899231 6.881567955
17.26977348 42.20239639 3.810084343
15.89054394 39.28168106 5.128586769
16.49529266 40.27851486 6.795808315
25.86009979 58.45245361 11.73333836
25.95242691 59.25680161 2.638859272
16.5856514 40.51517868 3.696643353
15.95361805 39.07625961 5.10688448
16.57988167 40.10729218 6.773628712
26.05493546 58.34131622 11.72063446
26.05946732 58.96521759 2.622992754
17.53798676 42.0203476 3.792208195
16.33955574 39.50138092 5.151425838
16.11548424 38.87497711 6.597897053
26.17452621 58.95520401 0.3400759995
26.36856842 59.04549026 2.616514206
16.246418 39.16692734 3.602684975
16.1258316 38.74520493 5.072049141
16.2505722 38.79702759 6.589429379
26.33270454 58.76595688 0.330360651
26.59125137 58.98039246 2.606662512
15.98886967 38.33162689 3.54531455
16.60456848 39.34084702 5.134618282
26.59976578 58.81223679 0.3181254864
33.5018959 71.74404907 2.92833066
16.62654877 39.26264572 3.603759766
16.47720718 38.79214096 5.07713747
16.96074104 39.51944351 6.699678898
33.68331909 71.49118805 2.911923885
16.2297039 38.19029999 3.531240702
16.6689167 38.83559418 5.081877708
16.29184341 37.99494934 3.516019821
16.77084541 38.70968246 5.068903446
16.7579174 38.51875305 6.560393333
36.20840073 75.05910492 2.983307123
16.43232346 37.9473114 3.510472536
17.00190926 38.83932495 5.082803249
16.97780991 38.61286926 6.577179432
16.65383911 38.06410599 3.515774488
17.25210762 38.98526382 5.098496437
17.4882412 39.23493576 6.670797825
36.4374733 74.25441742 2.942439318
16.91540718 38.23587799 3.524546146
17.30601883 38.77035522 5.076368809
17.03293228 38.09617233 6.508581638
17.02416039 38.12650299 3.515092611
17.08644676 37.9041481 6.483836651
16.98530388 37.76729965 3.489610672
17.23012924 37.87485504 6.482832909
17.72596359 38.58112717 8.130861282
17.09259033 37.67358017 3.481395245
17.30669785 37.88340378 4.984839439
17.57748413 38.19033813 6.532313347
17.82906914 38.4741745 8.117145538
23.76652145 49.19675064 4.224703312
17.80683708 38.46628189 5.046756268
17.78190231 38.24872971 6.544472694
17.9548893 38.39240646 8.108552933
17.42341614 37.66196823 3.476244926
18.04783821 38.25378799 8.089420319
25.00931358 50.79459 2.312429667
18.59522057 39.23296356 5.128919125
18.25774765 38.30239487 8.105783463
25.16173553 50.63820267 2.301431179
17.9465313 37.79573441 4.978783607
18.91189766 39.28135681 6.707073689
18.70145798 38.76248169 8.199103355
18.89742661 38.92116547 9.82505703
25.43533707 50.71113968 2.296335936
7.103628635 19.07888603 2.271880865
17.26535225 36.33980942 4.826634407
18.98560143 38.77033615 9.800940514
7.143463612 19.08355141 1.534347534
7.195244789 19.0902462 2.271607399
17.3441143 36.19248581 4.812113285
18.26535606 37.4357605 7.964511395
19.18529129 38.82189941 9.822922707
7.224935532 19.0844593 1.531997323
7.281858921 19.09962273 2.271272421
17.40885353 36.03666306 4.796701908
18.25008583 37.30146027 6.429551125
18.44403267 37.46126556 7.976216793
19.27110481 38.68264771 9.801140785
7.299381256 19.07299614 1.529357314
7.368654251 19.1086235 2.270928621
17.82513618 36.46848297 4.843183041
18.23940659 37.01262283 6.391247272
18.65171814 37.53329849 7.996809483
19.39233017 38.58797836 9.790265083
7.386275768 19.07478523 1.526910424
7.439240456 19.08283615 2.268318415
17.7511673 36.08124161 4.803527355
19.59826279 38.97019958 6.682596684
18.71114922 37.35984802 7.97128582
19.46873283 38.43491364 9.765461922
7.403969765 19.04080391 0.7853406072
7.454713821 19.04537582 1.523737311
7.509717941 19.06381416 2.266209841
17.82802582 35.93281555 4.789117336
18.53600502 36.93676758 6.388795853
19.50348473 38.20098495 9.722596169
7.569853783 19.0925808 1.522354007
7.624993801 19.11076736 2.268307447
17.92701721 35.8216362 4.778686523
19.05704117 37.5027771 6.476415634
19.93292427 38.77186966 8.253394127
19.61872673 38.09892654 9.710281372
7.649909019 19.08124542 1.519610047
7.711411476 19.10952187 2.267329216
17.82538605 35.38658905 4.734184265
19.31003952 37.62729263 6.499374866
18.67501068 36.46272278 7.824938774
20.23456955 38.79653168 9.883415222
7.730024338 19.06957054 1.516863942
7.792688847 19.09941292 2.265802383
17.915905 35.26542282 4.722803593
19.16195679 37.10786438 6.427716255
18.74724007 36.30459595 7.802841187
20.48054695 38.89619446 9.918382645
21.52575111 41.24960709 0.3640366197
21.53190804 41.08662796 2.016530514
7.885680199 19.10758209 2.265465498
19.36205482 37.14720535 6.438316345
18.93907166 36.33660126 7.816841602
19.85016441 37.61510468 9.632699966
21.64821243 41.1331749 0.357093811
21.71645355 41.07044983 2.010699511
19.81015587 37.88990021 3.466011286
18.17932129 35.15543747 4.714173794
19.16007805 36.41265488 7.839350224
19.98526955 37.54672623 9.628598213
21.81433296 41.102005 0.3490348458
21.85678291 40.99874115 2.003900051
19.32238579 36.85189819 3.398074389
18.26900864 35.04718399 4.704250336
19.36372375 36.61191177 6.369019985
19.27210236 36.33036804 7.831530094
20.53640175 38.1365509 9.777407646
33.22935104 58.53769302 2.391440868
19.40661621 36.70866013 3.387338161
18.45459747 35.07572174 4.708906174
19.43829727 36.31840897 7.837591171
20.67125702 38.06246185 9.772441864
19.69571495 36.88419724 3.397001266
18.58434486 35.01642609 4.704352856
20.02022171 36.9425087 7.964934349
20.24978828 37.15303802 9.571772575
32.95871735 57.28616333 2.348888874
19.52866173 36.36709976 3.3625772
18.82008743 35.13235855 4.71829319
19.80807114 36.51151657 6.369077682
20.37281609 37.08067703 9.566558838
19.73119736 36.42144394 3.36466074
19.88579369 36.50935745 4.865664005
19.95600891 36.46754074 6.367897034
20.16879463 36.65346146 7.926510334
20.50733948 37.01198578 9.562942505
19.50154686 35.79139709 3.323030472
19.30937958 35.37002945 4.747108459
19.94088554 36.03073883 7.816856384
21.27297783 37.87147141 9.777955055
20.15119171 36.50667191 3.367221117
19.46295357 35.3285141 4.744812489
19.9010849 35.70916748 7.764239311
21.30709839 37.6466713 9.738238335
19.40032387 35.24470139 1.841917872
18.33448792 33.52481079 3.176124573
19.38272285 34.95132828 4.706929207
20.06980133 35.69901657 7.771298885
21.64576149 37.87171555 9.804456711
19.50052452 35.14890671 1.835467458
18.35311699 33.3081665 3.161152601
19.68440056 35.14263153 4.729323387
19.9047966 35.34000015 6.222559929
20.19084167 35.61795807 7.764882088
21.55905914 37.47136688 9.723555565
19.5603466 34.98090363 1.827275515
18.40193367 33.13804245 3.149188995
19.89301109 35.20627213 4.738162041
19.82050705 34.96110535 6.171820164
20.51031113 35.83848572 7.816069603
22.84288406 39.07515335 10.11515522
19.09724617 33.92616272 3.198206425
20.06765938 35.20571518 4.740376472
20.71504402 35.87608719 7.832767963
23.11354065 39.19736862 10.15766239
19.27897453 33.95679855 3.199106932
20.04767227 34.81106949 6.160395145
20.62725639 35.50527573 7.770422459
22.36314201 37.85761642 9.854140282
19.23682404 33.66335297 3.179469347
20.66666985 35.58480835 4.785178185
20.72230721 35.39895248 7.759064198
22.19979095 37.35493469 9.749108315
19.00064468 33.08342361 3.141659737
20.81853294 35.40752029 6.261517525
21.00543976 35.54625702 7.797298431
22.61987495 37.67985153 9.840553284
18.90907097 32.71617126 3.117408514
20.55802917 34.92238235 4.71980381
20.63615036 34.91006851 6.192935467
21.09842873 35.4233284 7.783449173
22.69294739 37.51363754 9.815542221
19.11456871 32.77184296 3.120019436
19.88342094 33.73789978 4.596178055
20.20257187 34.05475235 6.070936203
21.24015045 35.38145447 7.78488636
22.7760334 37.3757515 9.796610832
19.85743904 33.58935547 3.170973539
19.17074776 32.50411224 4.467315197
20.58589172 34.35726166 6.122223854
21.4758091 35.45645142 7.809639454
22.70514297 37.02629852 9.727231026
19.72053528 33.17175674 3.143702269
19.10836983 32.19852066 4.437168121
22.80828094 36.91872787 9.715616226
19.83660507 33.10801315 3.138886452
19.16143227 32.05482483 4.424311161
20.53977013 33.82110977 6.054031372
22.13135338 35.8760643 7.911177635
22.33419418 36.0138855 9.513809204
19.76145363 32.77035904 3.116737127
19.58192062 32.40224457 4.464074612
21.04603577 34.27067947 6.128235817
22.07815742 35.55098343 7.858558655
22.50307083 35.98837662 9.522511482
19.76114082 32.53821564 3.101315975
19.7838192 32.44731903 4.471656799
21.19994354 34.23694992 6.129813194
22.29652405 35.59455109 7.877910614
22.87177658 36.22967148 9.595547676
19.84344292 32.4083519 3.092377186
19.85553169 32.31545639 4.460393906
20.96202087 33.67746353 6.052056789
22.67556763 35.83812714 7.937143803
23.25102615 36.46741104 9.668909073
20.09643745 32.51929092 3.098739624
19.89980316 32.13637161 4.444269657
21.05786324 33.55699921 6.040944099
22.74470329 35.67861938 7.917134762
23.33081436 36.31770325 9.648409843
20.38123131 32.65823364 3.106876373
20.06849289 32.1348114 4.447066307
21.18824387 33.49432755 6.038315296
23.92297745 36.96636963 8.181933403
23.59954643 36.40368652 9.685770035
19.93404198 31.87246323 3.056742191
20.08916664 31.95975113 4.431021214
21.31196594 33.4460144 6.037251472
24.09684563 36.97403336 8.193599701
23.41140938 35.94302368 9.587802887
20.25912857 32.064888 3.068341494
21.81966782 33.998909 4.652999878
22.16527557 34.32415009 6.177715778
24.25269699 36.90555191 8.192831039
23.57540321 35.89264679 9.592377663
20.54519272 32.2135849 3.077239275
20.95515633 32.62828445 4.509263515
20.97441864 32.54538345 5.914468288
24.3052063 36.7163353 8.167759895
23.73807335 35.86480713 9.600986481
20.54241562 31.99668121 3.063113928
21.10645294 32.60760117 4.51018095
21.04239655 32.41806412 5.901805878
20.82615662 32.02288055 7.25179863
23.79659843 35.70336151 9.577218056
20.8022747 32.11902618 3.0704422
21.81737709 33.30233002 4.588180542
21.25681877 32.47816467 5.917787075
21.0438633 32.08929062 7.275295734
23.56329155 35.16110992 9.461386681
21.1056366 32.28289795 3.080405712
21.66448784 32.88848114 4.546938896
20.70213318 31.55104065 5.78342104
21.12482262 31.98111725 7.264349461
23.52485085 34.88222122 9.408824921
20.50389481 31.30791473 3.018567085
21.67304993 32.67160416 4.527107239
20.83346176 31.4984951 5.782576561
25.87256241 37.7109108 8.413978577
23.73756218 34.90750504 9.431541443
21.90505981 32.8537178 3.115792751
21.09493256 31.72136116 4.428117275
20.95230484 31.42991447 5.779363632
25.71583176 37.25541306 8.336725235
21.59796906 32.24301147 3.077007771
21.58667946 32.11455917 4.474208832
21.0759449 31.36706161 5.777112007
22.18550873 32.63656998 7.429047585
23.93779564 34.6758461 9.408267021
21.81486702 32.28946304 3.079719305
21.7303791 32.07097244 4.47320509
22.21595764 32.4500351 7.403667927
24.13110924 34.67438126 9.424969673
20.63946533 30.61985016 2.974250555
21.49881363 31.5664196 4.422332287
22.36203384 32.40575027 7.406782627
24.40878677 34.78594208 9.468931198
20.752882 30.55866051 2.970270395
21.63809586 31.53031731 4.422031879
21.36728668 31.10135651 5.758201122
22.62098885 32.50851822 7.438909531
24.34389305 34.48164368 9.410292625
21.04644966 30.71604538 2.980109453
21.73424911 31.44137955 4.416060448
22.51944542 32.27817917 5.947789669
23.99079514 33.94402695 7.739028931
24.53871918 34.47951889 9.427363396
21.08898926 30.55686569 2.970021725
22.0215168 31.57143974 4.434144497
21.66363144 31.03275681 5.763253689
