# .PCD v0.7 - Point Cloud Data file format
VERSION 0.7
FIELDS x y z
SIZE 4 4 4
TYPE F F F
COUNT 1 1 1
WIDTH 1295
HEIGHT 1
VIEWPOINT 0 0 0 1 0 0 0
POINTS 1295
DATA ascii
21.11974144 -8.29853344 1.956445694
21.92416191 -8.555603027 2.814832211
22.33595276 -8.678447723 3.686861753
23.15709496 -8.942405701 4.664976597
22.40932846 -8.656851768 5.391590595
61.65650558 -22.11645508 18.24243736
7.664649963 -3.657279491 0.3610960543
22.45492172 -8.874997139 1.202352881
21.08050537 -8.367450714 1.958332896
21.91964912 -8.639917374 2.819640398
23.21837425 -9.07660675 3.808011055
23.13592911 -9.025615692 4.669096947
22.33159256 -8.717298508 5.384068012
7.679440498 -3.69288969 0.3606929183
21.03915977 -8.435521126 1.960112333
21.38941383 -8.536767006 2.775621414
23.12767029 -9.135463715 3.802846193
23.13494682 -9.116023064 4.676660538
22.68865013 -8.931204796 5.466219902
61.45212173 -22.52680206 18.24320793
5.206987858 -2.819823265 0.3037232459
7.680953979 -3.723811865 0.3610245585
23.62610626 -9.476942062 1.230965614
21.14219666 -8.555744171 1.969975233
21.25373459 -8.572031975 2.768150806
21.92365837 -8.793128014 3.652215004
23.18938065 -9.226570129 4.693626404
21.99084663 -8.770703316 5.330797195
55.68420792 -20.77180481 14.44492626
55.68139648 -20.71466255 16.63097191
5.198451042 -2.837302446 0.3045462966
7.684216022 -3.755476713 0.3612551987
29.62593651 -11.77167225 1.347961545
21.12086678 -8.631453514 1.972922564
20.73063278 -8.465108871 2.724455595
21.88822174 -8.8667202 3.65396452
23.14862823 -9.303228378 4.694630623
21.92953682 -8.835157394 5.326653004
23.43299675 -9.355882645 6.545138836
61.21228027 -22.92358017 18.23462868
5.165613651 -2.845621109 0.30762133
7.700438976 -3.792111635 0.3607635498
29.48277664 -11.83600903 1.34965384
21.08189392 -8.69652462 1.974685192
20.71325111 -8.540760994 2.727914095
21.88047791 -8.950463295 3.659380913
23.14064407 -9.387242317 4.700819016
21.88831902 -8.906721115 5.326706886
61.11716843 -23.1184063 18.23616028
5.15326643 -2.861526489 0.3087864816
7.690863132 -3.817631483 0.3616779745
23.19190598 -9.590497971 1.233026505
21.08624649 -8.781868935 1.97911334
20.77960968 -8.647679329 2.739264488
21.85151672 -9.022143364 3.661728621
23.09010315 -9.46020031 4.700251102
21.84462166 -8.972933769 5.325855255
61.01016617 -23.32082176 18.23599434
5.155752182 -2.883081198 0.3085674942
7.678826809 -3.843745708 0.3627436757
14.85406208 -6.578560829 0.5216646791
29.68063164 -12.13964558 1.362115145
21.07718277 -8.86237812 1.982806802
20.7797184 -8.726265907 2.744188309
21.99555969 -9.163104057 3.687238216
22.94869423 -9.498977661 4.684288979
22.54223251 -9.32016468 5.479780674
60.90793228 -23.52475548 18.23737526
5.1525774 -2.902518749 0.3088687062
7.6904006 -3.880526781 0.3625185788
14.71108055 -6.582803726 0.5257169008
21.02116394 -8.92513752 1.983851075
21.08769608 -8.930549622 2.778736591
21.91060829 -9.218547821 3.682632208
23.13610077 -9.661351204 4.724244595
22.28481483 -9.317207336 5.43562603
60.80501556 -23.72828865 18.23875427
5.141908646 -2.919047117 0.3098601699
7.735809326 -3.929193258 0.360402137
14.53558731 -6.576311111 0.5303904414
21.1610508 -9.067459106 1.996300459
20.74510002 -8.883104324 2.751627684
21.78885841 -9.263792038 3.673485756
21.9154892 -9.291156769 4.524717331
22.20896339 -9.377216339 5.428832531
21.69641685 -9.159889221 6.16735363
55.47878647 -21.96102715 16.73997307
5.127484322 -2.934054852 0.3111947775
7.732676506 -3.959118366 0.360964179
14.41899872 -6.588842392 0.5339179039
21.12671852 -9.139015198 1.998634696
20.87288857 -9.01598835 2.769035339
21.64068413 -9.272644997 4.48559761
22.14944839 -9.44315815 5.425477982
21.62869644 -9.220626831 6.160583973
60.55692291 -24.1307106 18.23147964
5.131159306 -2.957290173 0.3108410537
7.722011566 -3.986092091 0.3619368374
14.30621052 -6.602115154 0.537356019
21.10515594 -9.215545654 2.001715183
20.96291351 -9.135285378 2.782951355
20.47821999 -8.925206184 3.512470007
21.70659637 -9.385335922 4.504693508
21.60324478 -9.319246292 5.320048332
21.79325676 -9.371336937 6.211655617
60.45559311 -24.33415031 18.23387337
5.136940479 -2.980428219 0.3102861047
7.705154896 -4.012135029 0.3632641137
14.18980122 -6.613171101 0.5408348441
20.79754639 -9.178316116 1.988299608
20.9712677 -9.227369308 2.789429426
22.01477814 -9.615938187 3.723767042
21.80137634 -9.510182381 4.528856277
21.53339577 -9.38302803 5.314833641
21.92284393 -9.514280319 6.25477457
60.34998703 -24.53576851 18.23521996
5.131554127 -2.999110699 0.3107628226
14.03914928 -6.612377644 0.5449541807
20.72989464 -9.239487648 1.988901377
20.94372177 -9.301148415 2.792246103
21.94551468 -9.681651115 3.721747398
22.19481468 -9.75966835 4.604927063
21.49770737 -9.455738068 5.316387653
21.94276237 -9.610621452 6.270198345
60.21788788 -24.73891068 18.23069954
5.102157116 -3.007895231 0.3134649396
13.93777847 -6.62789917 0.5481250286
46.69207382 -19.91565895 1.742128253
20.73015213 -9.323740959 1.993236542
20.95653915 -9.391282082 2.798960924
20.88761902 -9.343094826 3.586902142
21.9197464 -9.73868084 4.565732479
21.54008102 -9.559791565 5.334471703
22.06353188 -9.747794151 6.310983658
60.13243103 -24.94817162 18.23827744
5.091151714 -3.024168968 0.3144522011
13.94544792 -6.687997341 0.549413681
19.98364258 -9.101819038 1.954010844
20.06738853 -9.112714767 2.718915462
20.81546974 -9.398556709 3.583859444
21.90299606 -9.820911407 4.571023941
21.55652046 -9.653905869 5.347187042
59.98539734 -25.13248825 18.22815132
5.076422691 -3.038845062 0.3157797456
14.01373577 -6.773714066 0.5496753454
19.99168396 -9.18672657 1.958697557
20.14887047 -9.228251457 2.732111454
23.18907356 -10.46195221 3.910159111
21.2138195 -9.626708984 4.45996666
21.54170036 -9.735574722 5.35337162
22.0789032 -9.910310745 7.219060421
5.063488483 -3.054218769 0.3169347048
14.05764961 -6.849853992 0.550363481
46.71886063 -20.49908066 1.764592171
19.69908714 -9.146128654 1.945739508
16.39120674 -7.742498875 2.373856068
21.21568298 -9.714139938 4.468343258
21.38513374 -9.758682251 5.329522133
21.66005898 -9.850372314 6.241800308
21.65921974 -9.827389717 7.108784676
5.045013428 -3.06717515 0.3185990155
14.07914066 -6.916929722 0.5514372587
46.71269226 -20.68843842 1.771832705
19.64984894 -9.206191063 1.947040796
16.35421562 -7.794166565 2.374685287
16.72155762 -7.932567596 3.050124645
21.66698456 -9.990384102 4.55493784
21.17255211 -9.757313728 5.293693542
21.69641876 -9.954174042 6.261775494
21.55595016 -9.872966766 7.090672493
5.026510239 -3.08002615 0.3202603161
15.11575794 -7.422250748 0.535592854
23.6102829 -11.00008488 1.288807988
16.90768623 -8.116966248 1.788873315
16.36655426 -7.866720676 2.380326986
16.71859932 -8.000083923 3.055217981
16.54698753 -7.91076231 3.671089649
21.13018608 -9.826372147 5.294063091
21.09329033 -9.789093018 6.120214939
21.49890518 -9.937397003 7.086101055
5.004325867 -3.091179371 0.3222582638
15.03794193 -7.451006889 0.5384272337
23.58220482 -11.08552647 1.291964293
16.3577652 -7.949872971 1.759844661
16.07294464 -7.808103085 2.356148958
16.25936508 -7.872180462 2.998315096
16.4821701 -7.951253414 3.666213036
21.14535904 -9.919877052 5.306774139
21.00600433 -9.838783264 6.108814716
4.985390663 -3.104681969 0.3239450455
15.04249001 -7.515508652 0.5398902297
16.39706802 -8.034737587 1.765748382
16.06868172 -7.872796535 2.360159874
16.10539818 -7.872802734 2.982756853
16.44628143 -8.003904343 3.666403532
21.27008057 -10.06093025 5.343043327
21.10474968 -9.967925072 6.14464283
59.37194061 -26.34349442 18.24951172
4.985006332 -3.125327349 0.3239041269
12.92464924 -6.638279438 0.5760884285
22.0939064 -10.62630367 1.267213345
16.24398232 -8.035654068 1.76017344
16.08847046 -7.951529026 2.366784811
16.0661869 -7.922506809 2.982818604
21.67938995 -10.35357571 4.591004372
21.40141869 -10.21059895 5.381419182
22.35186005 -10.60082722 6.473332405
59.28089142 -26.54979706 18.25705719
4.980905533 -3.144358397 0.3242028952
12.82975674 -6.64981842 0.5789555907
22.05259705 -10.7047205 1.270052552
16.02902412 -8.008068085 1.750835061
16.37328911 -8.144542694 2.399319887
16.05826569 -7.989230156 2.98745513
22.10672379 -10.63184452 4.67480278
22.09417343 -10.60376453 5.540287495
21.81240273 -10.45735359 6.347491741
59.17321777 -26.74879265 18.25990105
4.969473839 -3.160092592 0.3251779079
12.71671963 -6.65253067 0.5820977688
22.02175903 -10.77856064 1.272768736
16.02954865 -8.075322151 1.7544204
16.57328224 -8.302257538 2.423673868
15.98551178 -8.020537376 2.982680559
21.13389587 -10.291852 4.512251854
20.67998314 -10.06470108 5.24519825
21.79606819 -10.5364666 6.354227543
59.03835678 -26.93570328 18.25489616
4.958388329 -3.174905539 0.3261198699
12.59936428 -6.649830341 0.5852223635
23.50453949 -11.54222202 1.309262276
16.67718315 -8.431599617 1.797017097
16.29060173 -8.240908623 2.400158405
16.02549744 -8.105461121 2.993692398
21.10406685 -10.36251545 4.515134335
16.52401161 -8.292409897 4.357105732
58.90760422 -27.11172867 18.24950409
4.94866991 -3.19137311 0.3269242942
12.48843288 -6.65194416 0.5882869959
19.84950638 -9.967019081 1.231225371
15.98017025 -8.184129715 1.758415699
16.70352364 -8.497163773 2.445804358
16.00672722 -8.160907745 2.996387959
16.79093742 -8.49952507 3.760194063
16.47222137 -8.334898949 4.35330534
21.37898636 -10.52660847 6.269940853
58.79803467 -27.30925751 18.25232124
4.956555367 -3.217093706 0.3260783553
12.39658737 -6.66478014 0.591090858
46.80838776 -22.48637772 1.841814995
15.94238949 -8.237573624 1.759902358
16.65864372 -8.547005653 2.446141481
16.06637383 -8.259061813 3.010522842
16.53637123 -8.457466125 3.722293139
16.44983101 -8.397480011 4.35668087
58.67778397 -27.51418495 18.25393867
4.968329906 -3.243735313 0.3248688579
12.29133797 -6.66808033 0.5940240622
46.80519104 -22.68325996 1.849469185
15.77369213 -8.21098423 2.362837791
15.86023903 -8.231731415 2.987597227
16.47372818 -8.498464584 3.718034744
20.14898872 -10.17235374 5.169442177
21.84819412 -10.93110466 6.415176392
58.58617401 -27.7196331 18.26249886
4.985377312 -3.273057222 0.323161304
12.2133255 -6.68355608 0.5965108275
26.22737122 -13.22424793 1.387187362
17.04605293 -8.890013695 1.834989786
15.73169041 -8.258302689 2.363237143
16.3149395 -8.51455307 3.056762695
16.42532921 -8.545765877 3.716318846
20.59829712 -10.46634769 5.277139187
21.82835197 -11.01441574 6.422084332
58.47631454 -27.91671181 18.26582146
4.98071909 -3.292179346 0.323469311
12.11911583 -6.690800667 0.5992345214
27.18556976 -13.78460884 1.413396597
19.24201584 -10.00109768 1.974351406
15.66792679 -8.295230865 2.361460686
15.68793297 -8.285434723 2.974898577
16.37679291 -8.592840195 3.714597464
20.94979286 -10.71414852 5.363479614
21.78883934 -11.08401585 6.423378468
58.35879135 -28.11005974 18.26704407
4.997934341 -3.320845127 0.321739167
12.02861309 -6.699183464 0.6018825769
22.95161819 -11.87646675 1.319775939
16.37511253 -8.715424538 1.801329494
15.62338829 -8.337649345 2.361385107
15.64750385 -8.333212852 2.97491312
16.3013649 -8.626986504 3.708075047
20.70030594 -10.68554211 5.319188595
21.80715561 -11.18549538 6.440333366
58.27555847 -28.31938553 18.27873802
4.989517212 -3.338283777 0.3223851621
11.9615736 -6.71838522 0.6041536927
26.91299057 -13.88616276 1.41615355
16.21629906 -8.709235191 1.795280457
15.61872482 -8.402389526 2.365576506
15.62123966 -8.387674332 2.97693038
16.2009697 -8.64877224 3.697061539
20.62835693 -10.73978901 5.313695908
21.7423954 -11.24789715 6.435832977
58.1636734 -28.51522827 18.28204727
4.994915485 -3.363611221 0.3217293024
11.84607506 -6.713403702 0.6071503758
16.1071701 -8.742297173 1.166505694
16.20142746 -8.77182579 1.798159122
16.20709229 -8.754650116 2.429891825
15.80200672 -8.542224884 3.00806427
16.14507484 -8.691410065 3.694030762
20.62347984 -10.83041286 5.323487759
58.0859642 -28.72724915 18.2958374
4.993056774 -3.385462999 0.3217431009
11.75841618 -6.723936081 0.6097643971
26.13194466 -13.74057293 1.406989098
16.04507256 -8.768670082 1.792387605
15.55717182 -8.510271072 2.368982315
16.23192215 -8.823616982 3.074781656
16.42315483 -8.899908066 3.751638412
20.55997849 -10.89284897 5.320449352
57.95381546 -28.92568588 18.29531479
4.979069233 -3.400202751 0.322889924
11.66649151 -6.72918272 0.6123642921
26.36591148 -13.97565269 1.417260766
16.86402321 -9.243302345 1.84768343
15.50579357 -8.555685997 2.368729591
15.65609932 -8.61376667 2.999777317
16.4834156 -9.000569344 3.769791365
21.40522766 -11.39611721 5.517732143
22.43881607 -11.87870312 6.656781197
57.81561661 -29.10837555 18.29125214
4.975708961 -3.420278072 0.3230389357
11.59788895 -6.745562553 0.6145988703
26.28840065 -14.04592991 1.419692278
15.44317055 -8.591914177 2.367092848
15.60889626 -8.654942513 2.998684406
20.27170944 -10.94981384 4.464195728
21.33642006 -11.45031166 5.512966156
22.41391754 -11.9588232 6.662744999
57.72531128 -29.31434059 18.3018856
4.963394642 -3.435826063 0.3240179718
11.52931499 -6.761534214 0.6168201566
26.72256279 -14.3797636 1.434737325
21.23031616 -11.58802032 2.132348776
15.51176834 -8.690355301 2.378673077
15.62940598 -8.733257294 3.007512331
16.09920692 -8.951809883 3.714672089
22.03256607 -11.89516258 5.67915678
57.57206345 -29.48910332 18.29359818
4.954132557 -3.454011202 0.3246971071
11.44907093 -6.773617268 0.6192598343
26.03854942 -14.15464783 1.422908187
21.01462173 -11.57614326 2.124038696
15.83826828 -8.927090645 2.417351723
15.74731064 -8.864676476 3.030576229
20.38002396 -11.18583202 4.502675056
22.04589653 -12.00293732 5.694248676
55.24638748 -28.58729553 17.6252861
4.938175678 -3.467620373 0.326004833
11.38132668 -6.791625023 0.6215012074
25.68382072 -14.09279823 1.418949008
20.92013931 -11.62475586 2.123394012
15.45746708 -8.805477142 2.383272171
15.76902771 -8.948361397 3.040048122
20.21162033 -11.1939764 4.481667519
22.47345161 -12.31677055 5.801290989
57.27781296 -29.86862946 18.28508568
4.915121555 -3.477451563 0.3279708624
11.30576706 -6.802619457 0.6237837672
25.53992844 -14.13171005 1.419881105
16.43209648 -9.396920204 1.840863228
15.37829781 -8.832809448 2.379971266
15.74414062 -9.005057335 3.042608261
16.32802582 -9.288326263 3.779385328
22.48181534 -12.4199543 5.815147877
57.1882515 -30.07455635 18.29674911
4.90263176 -3.492739916 0.3289436996
11.21611595 -6.805703163 0.6262547374
25.36417389 -14.15312195 1.419991136
16.4217205 -9.46430397 1.844261527
15.42456532 -8.9249506 2.389686108
15.59402943 -8.996771812 3.027212381
21.19537544 -11.88196468 4.681073666
55.3478241 -29.50238419 13.19465637
55.39352417 -29.46537018 15.47737217
55.30674362 -29.358675 17.75877762
4.895375252 -3.510780573 0.3294211924
11.14070892 -6.815738678 0.6285052896
25.90856552 -14.55280304 1.438143373
16.39693451 -9.524292946 1.846750975
15.45979881 -9.011953354 2.398316622
15.76757145 -9.156861305 3.058359146
21.43293571 -12.10009575 4.73474741
55.33504486 -29.74105453 13.22181702
55.28157806 -29.65243721 15.48184586
55.24464035 -29.57123375 17.7781105
4.891561031 -3.530692577 0.3295702338
11.04597759 -6.8149333 0.63101542
22.04499245 -12.61560726 1.345048666
16.37722588 -9.587004662 1.849583268
15.52100754 -9.113273621 2.409722328
15.82088757 -9.255253792 3.072328806
21.3671093 -12.16084766 4.732714176
55.31608582 -29.97719955 13.2478199
55.27584457 -29.89518738 15.51478958
55.25523376 -29.82215309 17.82010078
4.861382484 -3.536363363 0.3321827948
10.96722603 -6.822088718 0.6332825422
22.04270172 -12.71320438 1.348926902
16.25867081 -9.596966743 1.845999122
15.47802925 -9.159811974 2.410282612
15.82116413 -9.326161385 3.078712463
22.05932426 -12.62417126 4.871023655
55.29957962 -30.21545601 13.27462673
56.68085861 -30.82103348 18.29964447
4.850462437 -3.552370787 0.3329862356
10.90787888 -6.839289665 0.6352639794
21.99251175 -12.78524303 1.351594806
16.21405983 -9.646016121 1.84721458
15.55593491 -9.271242142 2.423563719
15.77045059 -9.369957924 3.077741861
55.28380203 -30.45487595 13.30184364
56.53504181 -30.99703598 18.29493904
4.844727516 -3.571219206 0.3332977295
10.84153557 -6.852293968 0.6373314261
21.47152519 -12.60071754 1.342107654
21.47195625 -12.57842731 2.196317196
15.72951031 -9.435558319 2.447028875
21.57938194 -12.58629608 3.930088282
55.33092117 -30.80184555 11.08331776
55.26186371 -30.6917305 13.32790279
56.42098236 -31.18972778 18.30024147
4.849376678 -3.595865488 0.3326287568
21.36392975 -12.63894176 1.343202233
20.89870262 -12.36137867 2.164088249
15.84622002 -9.570596695 2.46462965
21.04364777 -12.39140987 3.86071372
55.33259964 -31.05282593 11.11063766
55.22513199 -30.92132378 13.35084629
3.994782448 -3.139395237 0.4126097262
4.003838062 -3.140204191 0.5726899505
3.976570845 -3.120752096 0.7333219051
21.3607769 -12.68437195 3.055426598
21.02742767 -12.47802162 3.867047787
55.32280731 -31.29848289 11.13604069
55.27690887 -31.20001602 13.39419746
56.14346695 -31.54800034 18.29605103
3.955750704 -3.135689735 0.4160723686
3.950777292 -3.128664732 0.5756469369
3.930465221 -3.113043308 0.7343668342
3.962657213 -3.115149975 0.892103374
3.990234852 -3.126327991 1.052491069
4.02368927 -3.139777184 1.21614933
56.00723648 -31.72812271 18.29499245
3.95663619 -3.154423475 0.4157823026
3.9430089 -3.14244175 0.576169908
3.934910774 -3.133649111 0.7347233295
3.940962553 -3.12110734 0.8922569752
3.949351072 -3.121636868 1.050814152
3.941122532 -3.111903429 1.208700538
3.969252825 -3.123407602 1.372218728
3.930190563 -3.097269535 1.5266819
3.943479061 -3.099432468 1.691523552
3.946015835 -3.096405745 1.856780648
3.955709457 -3.17219758 0.4156567752
3.923448324 -3.148555517 0.5773169398
3.939651966 -3.153627872 0.7350566983
3.933575869 -3.134151697 0.8927525282
3.948894978 -3.138638973 1.051775455
3.926798105 -3.121017694 1.208452463
3.93243432 -3.119963169 1.368379354
3.91937542 -3.108319998 1.526526928
3.891623259 -3.087491274 1.681803584
3.945399761 -3.113238573 1.859120011
3.929143429 -3.099591255 2.021558523
10.4229393 -6.907349586 0.6496961117
3.930958986 -3.150836706 0.8934140205
3.960110903 -3.163283348 1.053579807
3.965307236 -3.161991835 1.214021802
3.952198505 -3.149332762 1.372986436
3.920156717 -3.126818657 1.528667927
3.90908289 -3.116191387 1.688241124
3.901572704 -3.107519388 1.849980712
3.91291523 -3.108500481 2.019433498
4.792227745 -3.696886778 0.3364656866
10.34901428 -6.915351391 0.6518307924
21.51500702 -13.31521416 1.370969653
3.901595116 -3.148867369 1.050747156
3.924545527 -3.156946659 1.211008549
3.921503544 -3.150941372 1.370213151
3.910180092 -3.140155554 1.528888822
3.90464139 -3.131724119 1.689545631
3.927551746 -3.140347481 1.859727979
3.906341076 -3.123720646 2.02050662
4.773907185 -3.708551407 0.3379130363
10.27621746 -6.921104431 0.6538816094
21.4887886 -13.40023422 1.374301195
20.82915115 -12.99418449 2.198065042
29.05039406 -17.69716644 5.116199017
3.909105301 -3.157696486 1.530707479
3.888241529 -3.140406132 1.688095808
3.899354219 -3.142357349 1.854707718
3.900102615 -3.138246775 2.021553755
4.755070686 -3.720959663 0.3393896818
10.21555901 -6.933539391 0.6557621956
29.29993439 -18.08041382 1.593107343
21.3897934 -13.41967964 2.241840601
28.9475441 -17.80444336 3.931111813
18.9349823 -11.93744659 3.617260456
55.27082825 -33.05311203 11.32323742
55.2062149 -32.9407196 13.60655022
3.567585707 -3.037755966 0.3044044375
4.741836071 -3.735500336 0.34034729
10.15322876 -6.944593906 0.6576529145
28.81973267 -17.93428612 1.585386038
21.26501656 -13.44647312 2.239172459
17.07297134 -10.95498943 2.648014784
18.86357117 -11.98422146 3.614910603
16.53761482 -10.59941101 3.948675871
55.17839432 -33.19567108 13.63553905
55.06771088 -32.99027252 18.29678726
4.733677864 -3.753073215 0.3408202231
10.09093857 -6.955295563 0.6595320106
39.40420151 -24.3848381 1.886294961
28.80257034 -18.02875519 2.76162672
16.99991989 -10.99205399 2.646173
16.65699196 -10.77019882 3.291965723
16.58487701 -10.70511627 3.966509104
55.1889267 -33.46120071 13.67206573
54.99339676 -33.20495605 18.31684113
4.723752499 -3.769586802 0.3414539993
10.01329899 -6.956319332 0.6615928411
39.06892014 -24.36086845 1.884081602
16.84576607 -10.99867058 1.946820259
16.89093208 -11.00727367 2.640383959
16.67332268 -10.85473442 3.301525354
16.36544609 -10.65270233 3.933206797
55.21422958 -33.72356415 13.71061802
54.79713821 -33.34776306 18.29819107
4.706965923 -3.781906366 0.3427303135
9.942605019 -6.961042881 0.6635524631
39.49645233 -24.80548859 1.903715014
18.15349197 -11.8687706 2.041878462
16.38989639 -10.78147125 2.591113567
16.35974312 -10.72688007 3.940936804
55.18036652 -33.96487045 13.73733521
54.63863373 -33.51233292 18.29171371
4.686757088 -3.792050838 0.3443253636
9.88733387 -6.974766254 0.6653082371
39.2641983 -24.85250092 1.904782414
16.75247574 -11.1023798 1.949788332
16.19174576 -10.74311924 2.575568438
16.99127579 -11.20615196 3.36488986
16.45837212 -10.86449528 3.968902826
16.50765419 -10.8754921 4.672594547
54.54409409 -33.71497726 18.30591583
4.680082321 -3.810505152 0.3446349502
9.824232101 -6.985677719 0.6672031283
39.15734863 -24.98459053 1.909777641
16.61278152 -11.10095406 1.945035458
16.03316879 -10.72355366 2.564007282
16.57578278 -11.03748608 3.309863567
16.66898727 -11.07569218 4.019217968
16.46897697 -10.93083191 4.674015522
54.52865219 -33.9788475 18.34809303
4.678402424 -3.832124233 0.3444649875
9.770724297 -6.999803543 0.6689167619
47.31852722 -30.23195457 2.152964354
18.14400864 -12.12838173 2.05689168
16.05791283 -10.81596661 2.572752714
16.0926075 -10.8194046 3.243796825
16.49858665 -11.05095482 3.995315313
55.15694046 -34.75471115 13.83930588
54.53273773 -34.24259949 18.39470673
4.674946785 -3.852699041 0.3444564641
9.698617935 -7.001913071 0.6708446741
11.56653881 -8.127403259 1.123636246
18.19945908 -12.2507267 2.065996885
16.08219528 -10.9086771 2.581512451
16.10312653 -10.90364742 3.252924919
16.32019043 -11.01994228 3.969739199
55.15711212 -35.02065277 13.87519932
54.53232956 -34.50479126 18.44028854
4.669718266 -3.872218609 0.3446090519
9.63506031 -7.008953094 0.672657311
11.46170044 -8.117631912 1.122868776
18.02607346 -12.2301836 2.059030294
15.86481476 -10.85040665 2.563287497
16.14015007 -11.00492001 3.266193628
16.28778458 -11.07878494 3.972590208
55.17271805 -35.29741669 13.91507912
54.50783539 -34.75312042 18.47845268
4.661054611 -3.889586687 0.3450811803
9.581689835 -7.022073746 0.6743376255
11.3300581 -8.09008503 1.121283412
17.24081612 -11.82080746 2.008662939
15.84327507 -10.91413593 2.566939592
15.97537994 -10.97958088 3.248473406
16.41377831 -11.23740292 4.006546021
55.13395691 -35.54127502 13.94231224
54.4985733 -35.01194382 18.52195168
4.657351017 -3.910172701 0.3450758457
9.536748886 -7.040317535 0.6759100556
11.24592018 -8.091853142 1.121066093
17.25296974 -11.91306782 2.014583349
15.77950287 -10.95110035 2.565862179
15.93315601 -11.03090477 3.249596357
16.42224693 -11.32301331 4.017608166
55.14051056 -35.81470108 13.98066139
54.49142456 -35.27317047 18.56654358
4.663585186 -3.937296152 0.3441184759
9.475017548 -7.047438622 0.6776697636
11.13501167 -8.075808525 1.12002933
15.72997761 -11.01850605 1.910916924
15.79107666 -11.03611851 2.573301554
13.73994255 -9.704169273 2.917330027
16.48516273 -11.44389248 4.039500237
55.12927628 -36.07804871 14.01507473
54.49615479 -35.54299927 18.61541557
4.659685612 -3.957937479 0.3441170752
9.410007477 -7.05201292 0.6794558167
11.02603054 -8.060166359 1.119018435
15.6710062 -11.05808067 1.911366463
15.68353748 -11.04459 2.567282915
13.72390842 -9.761650085 2.921521902
16.28043175 -11.39327145 4.008593559
55.11360168 -36.33959961 14.0487175
54.48987579 -35.80708694 18.66112328
4.644055367 -3.970894098 0.3452260494
9.351758957 -7.060612202 0.681153059
10.93402863 -8.054792404 1.118489623
17.75817871 -12.49895954 2.066356659
15.74627686 -11.16330051 2.580616474
15.59771824 -11.04866314 3.220530748
10.49689293 -7.718308926 2.870515347
55.1164856 -36.61429214 14.08714676
54.45488739 -36.05375671 18.69779587
4.643326283 -3.993725777 0.3449092805
9.306898117 -7.077720165 0.6826887131
10.82717514 -8.038967133 1.117483854
17.74582291 -12.57944298 2.070819616
15.8516407 -11.3109951 2.598919392
13.62645817 -9.834191322 2.919792414
10.4051342 -7.710520267 2.858469725
13.78035069 -9.899388313 4.122300148
10.43427753 -7.702156067 3.767098188
10.60679626 -7.80156517 4.285636902
4.647462368 -4.019919395 0.3441206217
9.250397682 -7.086811543 0.6843468547
10.71723652 -8.020264626 1.116352081
17.65991402 -12.6114397 2.069972038
16.20023346 -11.62104034 2.645246744
10.62480259 -7.919762135 2.455407381
10.40744305 -7.764069557 2.865144491
10.66344833 -7.917582035 3.375470161
10.35976219 -7.705298424 3.754083395
10.54519463 -7.81408596 4.274815559
4.653122425 -4.047298431 0.3431777954
9.144095421 -7.072469234 0.3011938035
9.187307358 -7.091117382 0.6860678196
10.61918926 -8.008673668 1.115555286
17.69683456 -12.72504616 2.07806778
13.38788986 -9.827583313 2.328169346
10.53568935 -7.913868904 2.446715355
10.4883728 -7.870124817 2.887617588
10.59451103 -7.925399303 3.366185427
10.32428074 -7.733770847 3.752232313
10.34853268 -7.737023354 4.219180584
4.648762226 -4.06801796 0.3431840837
9.096130371 -7.086375237 0.3038500845
9.129267693 -7.098424435 0.6877219081
10.52135849 -7.996479034 1.114737034
13.79444504 -10.1683569 2.380568743
10.51591873 -7.953831196 2.448932648
10.50967026 -7.937314034 2.898265362
10.51098633 -7.923019886 3.35330677
10.30976868 -7.776102543 3.756434679
10.1381073 -7.649074554 4.158696175
4.636092663 -4.083107948 0.343978256
9.059719086 -7.107926369 0.3058843911
9.067983627 -7.103147984 0.6894007921
10.44028091 -7.994925976 1.114415288
18.24804878 -13.27843189 2.129551649
13.89045906 -10.30340004 2.397356749
10.45491982 -7.965989113 2.444639921
10.48319244 -7.972752571 2.899370909
9.772325516 -7.479122162 3.179989338
10.2272768 -7.77286768 3.741057634
10.16056442 -7.715392113 4.17555809
4.622266293 -4.099759102 0.3448348045
9.00301075 -7.119960308 0.3089990616
9.027106285 -7.123841286 0.6909000278
10.4162426 -8.03718853 1.116091847
15.92980957 -11.79157257 1.964300156
13.08121395 -9.829133034 2.309528112
10.49963951 -8.055113792 2.457682133
9.814224243 -7.57404995 2.770980358
9.712664604 -7.493361473 3.173094034
9.751237869 -7.507613659 3.612453222
10.1543026 -7.765384674 4.183423519
4.634029865 -4.131845474 0.3432742357
8.931554794 -7.114411354 0.3128766418
8.969213486 -7.130206585 0.692522645
10.40073204 -8.07733345 1.117709994
15.87514782 -11.83571625 1.96526432
13.04653931 -9.872403145 2.310937881
10.52965736 -8.126829147 2.467657566
9.735334396 -7.570271015 2.761107445
9.71155262 -7.539801598 3.179537773
9.685617447 -7.510197639 3.601121187
9.978590965 -7.697565079 4.134059906
8.857515335 -7.10886097 0.3168879449
8.926138878 -7.146557331 0.6939793229
10.40022469 -8.130680084 1.119925261
12.95111275 -9.870199203 2.304968596
10.4781065 -8.145410538 2.464924097
9.708545685 -7.601878643 2.761782408
9.730041504 -7.602445602 3.191236258
9.678219795 -7.55485487 3.607117176
9.936972618 -7.720211983 4.129547596
8.801582336 -7.115542412 0.3199294806
8.853632927 -7.141950607 0.6957344413
10.39128399 -8.178372383 1.121882319
16.09271049 -12.15199852 1.991655469
12.88366127 -9.890205383 2.302524567
9.671943665 -7.626614571 2.760472536
9.543707848 -7.523423672 3.152276516
9.629065514 -7.570745468 3.60097146
9.617894173 -7.550868988 4.031461716
8.74244976 -7.119596004 0.3231334984
8.797579765 -7.148483753 0.6973066926
10.38866901 -8.230703354 1.124054432
15.95858002 -12.14134598 1.986757874
12.83576965 -9.923594475 2.302376032
9.655961037 -7.677234173 2.343564987
9.638511658 -7.653450489 2.759819269
9.48816967 -7.534122944 3.14560461
9.546422005 -7.563016415 3.585003853
9.644887924 -7.619497299 4.049899578
8.696390152 -7.132621765 0.3256357312
8.748088837 -7.15936327 0.6988025904
10.36951733 -8.271524429 1.125700116
17.0555191 -13.0031929 2.074717283
12.85603714 -10.0050745 2.310303211
9.641807556 -7.717688084 2.346466303
9.724270821 -7.764289379 2.783641338
9.431064606 -7.543398857 3.138523579
9.524409294 -7.597286224 3.586785316
9.662046432 -7.681756973 4.065139294
8.637388229 -7.136043549 0.328818351
8.693762779 -7.16646719 0.7003384829
10.36322021 -8.321601868 1.12777257
16.35371017 -12.59128857 2.027098894
12.74786949 -9.995467186 2.303022623
9.835084915 -7.894098282 2.812788725
9.415568352 -7.581839561 3.1418221
9.464185715 -7.604516506 3.577339649
9.586048126 -7.678584099 4.04880476
8.585458755 -7.146506786 0.3316200078
8.629784584 -7.166214943 0.7019603252
10.35344696 -8.369394302 1.129742265
16.1733799 -12.54790115 2.018755436
12.68196964 -10.0188036 2.301015377
9.856271744 -7.973064899 2.391867876
9.826441765 -7.939774513 2.817459822
9.387576103 -7.613905907 3.142387629
9.474067688 -7.663873672 3.589007139
9.568268776 -7.716324806 4.052269459
8.531435013 -7.152817726 0.3345235586
8.572369576 -7.170318604 0.7035061717
11.57286739 -9.313526154 1.172744632
16.1228199 -12.59717846 2.020254612
12.85951328 -10.21472359 2.327876329
9.521621704 -7.78601408 2.342908859
9.664052963 -7.874682903 2.790313482
9.301833153 -7.601853848 3.128082752
10.09264183 -8.158766747 3.780879498
9.572257996 -7.769756794 4.06323576
8.478562355 -7.157348633 0.3373578489
8.524695396 -7.181210041 0.7049469948
26.9907608 -20.65682983 1.69159627
16.1140213 -12.67685604 2.02496624
12.80587196 -10.2442131 2.327146053
9.633229256 -7.915502548 2.366226912
9.476716995 -7.789995193 2.757820368
9.244433403 -7.607248783 3.120500088
9.748522758 -7.960577011 3.687117815
9.482291222 -7.755571842 4.042049885
8.428383827 -7.168114185 0.3400446773
8.485078812 -7.197809219 0.7063026428
26.71238136 -20.59660721 1.688293934
17.55651474 -13.82517338 2.141643763
12.80676079 -10.31011963 2.33270669
9.423769951 -7.801962852 2.753160954
9.208463669 -7.63287878 3.119043112
9.128170967 -7.560173512 3.510855675
9.537402153 -7.846325397 4.070709705
8.360646248 -7.165421486 0.3436562419
8.433137894 -7.20729351 0.7078169584
26.61428261 -20.67520905 1.691325665
17.57944489 -13.94166279 2.149673939
12.78803349 -10.36874676 2.336514711
9.343304634 -7.807331562 2.329498529
9.360115051 -7.808254242 2.746564865
9.218187332 -7.692032337 3.129203081
9.427684784 -7.831819057 3.609242201
9.517735481 -7.885637283 4.074245453
8.310083389 -7.172901154 0.3463482261
8.381239891 -7.216485977 0.7093216181
26.60398865 -20.81925011 1.69735539
15.49446774 -12.48339367 1.993690729
12.85999393 -10.49520588 2.351384163
9.311407089 -7.836713314 2.329811335
9.419987679 -7.905960083 2.7658813
9.260271072 -7.773097038 3.147326708
9.211308479 -7.725011349 3.553389549
9.516498566 -7.938642979 4.084221363
8.251613617 -7.174063206 0.3494533896
8.324120522 -7.219090462 0.7108166814
26.79761314 -21.11053276 1.710137486
13.03792858 -10.71837807 1.806966782
13.06656647 -10.7205143 2.382508993
9.261613846 -7.850057125 2.326892614
9.524721146 -8.035640717 2.794467211
9.287775993 -7.843976974 3.161856651
9.190258026 -7.759323597 3.55561161
9.449808121 -7.940599918 4.071051598
8.205933571 -7.184607029 0.3518729508
8.267082214 -7.221376896 0.712300837
12.94472504 -10.73488045 1.236231208
12.99712372 -10.75893974 1.808289886
12.85429764 -10.63142681 2.362554789
9.246636391 -7.889438629 2.329769373
9.107542992 -7.773004532 2.712926626
9.175581932 -7.810250282 3.140674114
9.288751602 -7.883503914 3.593986511
9.394014359 -7.950267792 4.061627865
8.151269913 -7.190233707 0.3547620773
8.202212334 -7.217234612 0.7138447762
12.90235043 -10.77389145 1.237767458
16.13339806 -13.22640324 2.060231209
12.81997108 -10.67959309 2.364638567
9.256743431 -7.948003769 2.336871147
9.188502312 -7.884606361 2.736513615
9.128091812 -7.827136517 3.136397839
9.324781418 -7.964313984 3.614139795
9.32750988 -7.951508999 4.048433781
8.094617844 -7.191674232 0.357750833
8.158485413 -7.231309414 0.7152369022
8.295009613 -7.297027588 1.079057336
16.13385773 -13.32068539 2.066242456
12.80770779 -10.74117088 2.369164467
9.723052025 -8.359445572 2.420944214
9.05303669 -7.834209919 2.714536428
9.078707695 -7.839814663 3.13124609
9.299773216 -7.996692657 3.615445137
9.359485626 -8.029844284 4.07022953
8.044346809 -7.197726727 0.3603944182
8.108000755 -7.237565994 0.7166327834
8.250508308 -7.308751106 1.079440951
16.07768059 -13.36704922 2.067503452
12.82035255 -10.82227612 2.37681675
9.725040436 -8.415065765 2.427069187
9.378359795 -8.135457039 2.790507317
9.234287262 -8.009969711 3.179160357
9.069645882 -7.871449471 3.554213285
9.325028419 -8.055290222 4.068314552
8.000408173 -7.208452702 0.3626953363
8.044994354 -7.233659744 0.718128264
8.196581841 -7.312849522 1.07948041
15.98832893 -13.38738918 2.066117048
15.5077486 -12.98857403 2.717375278
9.26051712 -8.108002663 2.354321957
9.48521328 -8.270882607 2.820189714
9.25097084 -8.07446003 3.191319227
9.183321953 -8.01002121 3.59782362
7.953369141 -7.21645689 0.365154624
7.988383293 -7.234355927 0.7195572853
8.111316681 -7.291905403 1.078383565
16.12182045 -13.58247948 2.08261013
15.44492531 -13.02654457 2.717016697
9.19614315 -8.109629631 2.349002838
9.533765793 -8.36218071 2.837553024
9.142250061 -8.041481018 3.170885086
8.946602821 -7.876974583 3.53416872
9.301529884 -8.141215324 4.080617905
7.904805183 -7.222968102 0.3676887453
7.93296957 -7.233355522 0.7209191918
8.034127235 -7.276663303 1.077550411
16.10773277 -13.65810394 2.087044001
15.30707741 -13.00497818 2.707251549
9.17076683 -8.141609192 2.350299597
9.558341026 -8.432709694 2.849521875
8.970744133 -7.958180428 3.133913517
8.961375237 -7.936487675 3.547136307
9.239238739 -8.142175674 4.06840229
7.844941616 -7.217821598 0.3708197474
7.883887768 -7.237063885 0.7222188115
7.983246803 -7.279538155 1.077551723
23.29724121 -19.47769737 2.675144196
15.30249119 -13.08408737 2.713814497
9.179149628 -8.197804451 2.357102156
9.071209908 -8.09786129 2.750836611
8.92249012 -7.968327045 3.1286695
8.870623589 -7.913016319 3.527611732
9.382692337 -8.30506897 4.129421234
7.785200596 -7.212343693 0.3739389777
7.831757069 -7.238005161 0.7235351801
7.9246521 -7.275874138 1.077258945
23.23534775 -19.55474281 2.678277016
15.34725857 -13.20311832 2.726663113
9.131537437 -8.209552765 2.354352474
9.073298454 -8.148730278 2.757742167
8.900309563 -7.998991489 3.130270243
8.825759888 -7.925328732 3.522204876
9.466340065 -8.422258377 4.169471741
7.737968922 -7.216646194 0.3763882518
7.770405769 -7.231089592 0.7249168754
7.875485897 -7.279448509 1.077297926
23.10179901 -19.57385826 2.67557025
15.33872509 -13.2800951 2.732854366
9.212065697 -8.324290276 2.373653173
9.047491074 -8.17745018 2.758627892
8.867326736 -8.021006584 3.129046917
8.826418877 -7.973881245 3.530934095
9.098081589 -8.17917347 4.047857285
7.682415962 -7.218317032 0.3792671561
7.705874443 -7.227872849 0.7264513373
7.814860344 -7.277912617 1.077095151
23.04676056 -19.67616653 2.680576086
12.87778854 -11.3723774 2.427561283
9.019267082 -8.212028503 2.760038853
8.85614872 -8.065660477 3.134402275
8.827613831 -8.030780792 3.541271687
9.041205406 -8.190923691 4.039029598
7.622341156 -7.215837479 0.3823801577
7.64060545 -7.21903944 0.727886498
7.757012367 -7.275933266 1.076882005
22.88524055 -19.67789459 2.675959587
9.573558807 -8.744337082 2.011875153
9.013346672 -8.259583473 2.765677929
8.893352509 -8.149929047 3.152682543
9.040819168 -8.257991791 3.617620468
9.076663971 -8.272063255 4.062428474
7.558879375 -7.207846165 0.3856713772
7.585151672 -7.220107079 0.7292792797
7.69661808 -7.273698807 1.076654673
9.542729378 -8.789908409 1.578829408
9.530651093 -8.764976501 2.011267185
9.56828022 -8.78372097 2.453900099
8.885918617 -8.195732117 3.158795595
9.616081238 -8.782108307 3.807753801
8.967244148 -8.238060951 4.03410244
7.491413593 -7.19822216 0.3891655803
7.537020206 -7.224683285 0.7305606604
7.642066479 -7.273612976 1.076534033
9.496664047 -8.807790756 1.578657508
9.512358665 -8.808688164 2.014075756
9.125600815 -8.472750664 2.38273406
9.049634933 -8.397899628 2.788108826
9.723773956 -8.943395615 3.391758442
9.441427231 -8.697140694 3.763374329
8.962047577 -8.286314011 4.042936802
7.451141357 -7.208844185 0.3912124038
7.475628376 -7.219976425 0.7319776416
7.589559078 -7.27712059 1.07657373
9.462955475 -8.838651657 1.579698801
9.541707993 -8.87723732 2.462032318
8.974959373 -8.391753197 2.779052734
9.448548317 -8.771593094 3.326814175
9.23005867 -8.577076912 3.706596136
9.396845818 -8.702724457 4.212783337
7.404805183 -7.214072227 0.393576026
7.424612045 -7.221389294 0.733261466
7.539764881 -7.280308723 1.076607585
22.41986275 -19.83940697 2.673012972
21.57920456 -19.09505081 3.592491388
8.919230461 -8.410042763 2.358693361
8.974210739 -8.444506645 2.786049843
9.516796112 -8.884964943 3.354063988
9.193964005 -8.601632118 3.705078363
8.88906765 -8.333897591 4.038530827
7.335776806 -7.199532509 0.3971420527
7.358074665 -7.206923008 0.734602809
9.401357651 -8.911594391 1.150387645
22.40086746 -19.95104027 2.679791927
15.73216438 -14.25980568 2.840822458
8.924560547 -8.46796608 2.36558485
9.060325623 -8.56837368 2.812157631
9.511049271 -8.936973572 3.361499548
8.966190338 -8.464404106 3.642540693
8.866993904 -8.365674019 4.040819645
7.286179066 -7.198996544 0.3996745646
7.316353798 -7.215572357 0.7358008027
7.438474655 -7.281974792 1.076475859
22.42804909 -20.10949707 2.69098568
23.8923912 -21.33249474 3.918590784
9.488734245 -9.000548363 2.471404076
9.43933773 -8.930290222 3.350642443
9.02520752 -8.565667152 3.67073369
8.78178978 -8.34663105 4.020462036
7.228032589 -7.192903519 0.4026516378
7.268623829 -7.218760014 0.7370337844
10.48880291 -9.961958885 1.197676897
21.87554741 -19.76911545 2.652844906
15.61786747 -14.34687805 2.842247248
9.419652939 -8.998655319 2.465538979
9.404118538 -8.972763062 2.904327154
9.358927727 -8.918480873 3.337812185
9.173837662 -8.747279167 3.728363991
8.76566124 -8.385844231 4.025508404
7.177527905 -7.193070889 0.4052166343
7.204409122 -7.207199574 0.7383708358
8.493268967 -8.290184975 1.121893525
22.60798454 -20.53889847 2.724412918
15.75107956 -14.55764198 2.868333101
9.38517189 -9.026211739 2.465823412
9.703807831 -9.28904438 2.979809999
9.131910324 -8.779561043 3.284818411
9.113695145 -8.751224518 3.719263792
8.83695507 -8.500358582 4.063024521
7.127114296 -7.192960262 0.4077717662
7.158369541 -7.211137772 0.7395735383
8.438837051 -8.294727325 1.121987581
22.6818428 -20.74240494 2.739959717
15.71660995 -14.62420464 2.872395039
9.28614521 -8.984947205 2.893208265
9.189846992 -8.885766029 3.309666872
8.878969193 -8.603338242 3.65376687
8.778013229 -8.503282547 4.052387238
7.072702408 -7.19115591 0.4105280638
7.112388611 -7.214830875 0.740767777
8.423449516 -8.333369255 1.123626709
21.73018646 -20.04429245 2.666950464
15.57334995 -14.60011292 2.862436771
9.168710709 -8.939246178 2.87430644
9.223613739 -8.974734306 3.328516006
8.872315407 -8.654868126 3.662222624
8.767040253 -8.547652245 4.059610367
7.031407833 -7.198474407 0.412586689
7.056417942 -7.211521626 0.7420629859
8.420041084 -8.385408401 1.12586832
21.58506203 -20.05745697 2.663767338
15.44479656 -14.5830164 2.853928804
9.484684944 -9.290846825 2.503791094
9.109416962 -8.946592331 2.868946552
9.136348724 -8.954968452 3.313602686
8.8551054 -8.694646835 3.666825056
13.72547054 -12.96095753 5.928943634
6.974208355 -7.193419456 0.4154810905
7.007619381 -7.212008476 0.7432575822
8.378948212 -8.401394844 1.126487851
21.28873444 -19.92775917 2.646883726
15.39433575 -14.63942051 2.856280327
9.262784958 -9.152451515 2.470217705
8.877790451 -8.79746151 2.823647499
8.973245621 -8.869952202 3.278009653
9.000628471 -8.881578445 3.725108624
8.832509041 -8.717051506 4.107730389
6.937467098 -7.204286098 0.4172863364
6.953351021 -7.209424973 0.7445216179
8.308326721 -8.393199921 1.126012921
20.98730659 -19.79721642 2.629821539
15.92038631 -15.20905399 2.936016083
9.368011475 -9.308024406 2.496382952
8.848574638 -8.829842567 2.825000286
9.073571205 -9.015982628 3.315093517
9.110089302 -9.035740852 3.771509647
8.909783363 -8.844005585 4.149197102
6.881563187 -7.197442055 0.42010957
6.915070057 -7.218802929 0.745634079
8.227341652 -8.37240696 1.12497735
20.93879318 -19.88633919 2.634441853
15.67242336 -15.08549976 2.911538601
9.214924812 -9.228978157 2.475126743
9.220180511 -9.221074104 2.918631315
9.033295631 -9.036998749 3.31315732
8.772168159 -8.789373398 3.67120409
8.984790802 -8.967498779 4.189543724
6.830207825 -7.194340706 0.4226855934
6.867600918 -7.217323303 0.7467514873
8.167265892 -8.370017052 1.124776363
20.93304634 -20.00803757 2.642436743
15.62703514 -15.14401722 2.914422989
9.168992043 -9.23029995 2.914491653
9.039391518 -9.099936485 3.3242414
8.765842438 -8.836544991 3.679068327
13.57501793 -13.16984844 5.945010662
6.775649071 -7.185702801 0.4254370332
6.839300156 -7.23325634 0.7477489114
8.095365524 -8.353710175 1.123954654
20.91350937 -20.11774445 2.649265766
15.86544895 -15.45798588 2.955663919
9.205918312 -9.335523605 2.486642838
8.751264572 -8.904088974 2.825000525
8.974306107 -9.095432281 3.314905643
8.789450645 -8.911245346 3.696917772
9.02154541 -9.109525681 4.226764679
6.715749741 -7.173853397 0.4284614027
6.817173481 -7.257081509 0.7487514019
8.054461479 -8.365539551 1.124405861
20.86811447 -20.21084023 2.654290438
15.28186989 -15.01625347 2.884456158
9.040802956 -9.239635468 2.462551594
8.846315384 -9.04798317 2.855083942
8.883412361 -9.069598198 3.298696041
8.776877403 -8.956195831 3.703431845
8.98964119 -9.138209343 4.226994991
6.670938969 -7.177884579 0.4306653142
6.763237476 -7.253259659 0.7499725223
8.037256241 -8.404529572 1.12607646
21.54738426 -20.98650169 2.724968433
15.34928036 -15.18320274 2.90327239
8.985327721 -9.249695778 2.459349394
8.798838615 -9.064160347 2.852374077
8.827280998 -9.078036308 3.29272294
8.714170456 -8.957839012 3.693837404
13.34374714 -13.21794796 5.91236639
6.621475697 -7.175020218 0.4331227541
6.691984653 -7.232639313 0.7512773871
8.018416405 -8.442126274 1.12768662
22.93120193 -22.43401527 2.860035896
15.23999405 -15.18617916 2.897797585
14.76066303 -14.71646786 3.545607567
8.846406937 -9.16891861 2.872052193
8.788407326 -9.099332809 3.291161776
8.722650528 -9.025328636 3.708028555
12.69606495 -12.70688915 5.682369232
6.572116375 -7.171884537 0.4355704486
6.642349243 -7.229735851 0.7524092197
7.990574837 -8.468663216 1.128804326
22.90790749 -22.56316948 2.868149996
15.20141411 -15.25010014 2.901647806
14.68467808 -14.74194145 3.542636156
8.983780861 -9.356337547 2.912737846
8.762335777 -9.132523537 3.293268204
13.48296547 -13.54698372 5.318725109
12.60087967 -12.70092297 5.663573265
6.51565218 -7.161561012 0.4383948147
6.59281683 -7.226564407 0.7535313964
7.995916367 -8.526833534 1.131350517
48.35788727 -46.94893646 5.201331615
15.34861851 -15.49077415 2.93148613
15.13474655 -15.26633167 3.638753414
9.024092674 -9.453976631 2.930707455
8.693468094 -9.125268936 3.283124924
13.22785091 -13.39504242 5.249729156
12.54929733 -12.73537922 5.66161871
6.467959881 -7.159254551 0.4407451749
6.541945457 -7.221738338 0.7546513081
8.005280495 -8.589278221 1.134091139
22.39420891 -22.37563133 2.841732264
15.3232708 -15.5689106 2.937380791
14.953866 -15.19434357 3.616326571
13.65919781 -13.93754387 4.044371605
8.658779144 -9.150050163 3.282771826
13.1555481 -13.41416359 5.242145538
12.48228168 -12.75503731 5.653672695
6.417499542 -7.153901577 0.4432399273
6.486887932 -7.212450027 0.7557823062
7.989869595 -8.628264427 1.135776281
22.13231087 -22.2733326 2.827839613
15.41360569 -15.75889778 2.959631443
15.04637432 -15.38372135 3.645654678
13.55074978 -13.92490292 4.031421185
13.50823784 -13.85992813 4.695353508
13.04819965 -13.39935207 5.222631454
13.02172375 -13.35429573 5.883017063
6.367153168 -7.148276329 0.4457248151
6.4391222 -7.209850311 0.7568677068
10.05807972 -10.69640732 1.228887439
16.64497948 -17.08737946 2.329682827
15.0644598 -15.52424049 2.919878483
13.36485195 -13.85560322 3.336857796
13.55303764 -14.01856041 4.044998646
13.47237778 -13.91633892 4.700213432
13.1172781 -13.5538311 5.263196468
13.05249119 -13.47153473 5.91434288
6.328300476 -7.153608799 0.4475884736
6.380059719 -7.195761204 0.7579968572
8.897677422 -9.627130508 1.180636168
27.52301598 -27.85268784 3.350304604
14.94766903 -15.51264095 2.912806749
14.76423931 -15.31236362 3.615610838
13.43061829 -13.99136066 4.028615952
13.42505455 -13.96174431 4.701800346
12.96807194 -13.49785137 5.229349613
13.05082512 -13.558321 5.933159828
6.278150082 -7.147473335 0.4500550032
6.33536911 -7.195424557 0.7590492368
8.642400742 -9.436182976 1.171964526
26.62998772 -27.1609745 3.279664278
14.89778805 -15.56601715 2.915230513
15.05696678 -15.70117569 3.683855772
13.26917553 -13.92481709 4.002665043
12.7902422 -13.43158627 4.531458855
13.09572315 -13.71124363 5.290471077
12.68799496 -13.29299259 5.809227943
6.228120327 -7.141064167 0.4525115788
6.285096645 -7.189202309 0.7601183057
8.852091789 -9.704470634 1.183978558
27.17373276 -27.88496399 3.343430758
14.83358097 -15.60521317 2.915623903
13.22770882 -13.99446106 3.342792749
13.20789433 -13.95566177 4.000887394
12.72513199 -13.45536423 4.527216911
13.16668892 -13.87115288 5.332537174
12.62492561 -13.31809616 5.803481579
6.188383102 -7.146813869 0.4543983638
6.232126236 -7.179867744 0.7611893415
8.67014122 -9.583938599 1.178485751
26.91264534 -27.81299019 3.331743956
15.6016283 -16.48038292 3.036468029
14.80114174 -15.65457821 3.658931255
13.03760242 -13.87781334 3.972488165
12.53839016 -13.36236668 4.487820148
13.15854073 -13.95878124 5.348452091
12.89817905 -13.67599392 5.931867123
6.141363144 -7.142735958 0.4566851556
6.173996925 -7.167041302 0.7623129487
7.883900166 -8.854709625 1.14559412
26.9654274 -28.06424522 3.350398779
15.33788967 -16.32442284 3.008528233
13.02130318 -13.97621059 3.325034857
12.90472603 -13.84023762 3.95370388
12.53317547 -13.44466305 4.501171112
12.90360165 -13.79577446 5.27775383
12.66271687 -13.53540802 5.858607292
6.101433277 -7.145553589 0.4585861862
6.135320187 -7.171389103 0.7633057833
8.370738983 -9.404948235 1.17030561
26.89684296 -28.18504906 3.356979847
15.17469978 -16.26732826 2.994961262
12.8917408 -13.93693066 3.310622454
12.86054516 -13.8864584 3.955976009
13.16039848 -14.16485119 4.702803612
12.85119724 -13.83365154 5.277291298
12.75646019 -13.71840477 5.91616106
6.055987835 -7.14243412 0.4607807398
6.090810299 -7.167313576 0.7642729282
8.280891418 -9.372621536 1.168796062
26.7138443 -28.17985344 3.35196805
15.36037159 -16.56441879 3.032252789
14.41884613 -15.5833025 3.621728182
12.81711102 -13.92888832 3.957806587
13.06415367 -14.16033649 4.690001488
12.94191742 -14.01644897 5.327059269
12.64844513 -13.69474316 5.891771317
6.003400803 -7.129390717 0.4633707404
6.048079014 -7.16694212 0.7652671337
8.382248878 -9.533367157 1.175979853
16.77813148 -18.15447235 2.406514883
14.85980701 -16.16028404 2.969144821
12.82574463 -14.04824543 3.319030523
13.10051632 -14.28594398 4.716088295
13.50555611 -14.67895317 5.542853832
5.955415249 -7.122877598 0.4656962156
6.005428791 -7.16634798 0.7662534118
8.268784523 -9.476213455 1.17335856
26.23952866 -28.07254791 3.3325634
14.81583881 -16.2165184 2.972289562
14.26426697 -15.62532902 3.615288973
13.33306313 -14.64426136 4.113269329
12.99328041 -14.26965523 4.699982643
12.68482113 -13.93268967 5.271944523
12.87203217 -14.10463238 6.023396492
5.929873466 -7.141766071 0.4667906761
5.955961704 -7.158289909 0.7672554255
8.229102135 -9.494885445 1.174151778
26.21334839 -28.23583794 3.343255043
14.59815407 -16.10270309 2.950743437
14.62457657 -16.10322189 3.699487209
13.51709366 -14.93179131 4.173496246
14.44689941 -15.87485695 5.156611443
12.79166031 -14.13946056 5.329040527
12.70755196 -14.02761841 5.977240562
5.879294872 -7.131905556 0.4692490697
5.912402153 -7.158260822 0.7682698369
8.112133026 -9.435135841 1.17141819
25.97929573 -28.19137573 3.334331989
14.46378136 -16.06851006 2.940888882
13.4218111 -14.95591545 3.472435951
13.30042458 -14.80877018 4.134175301
13.36769676 -14.85373116 4.847092152
12.78119755 -14.22165871 5.343910217
13.07204056 -14.50386047 6.148735523
5.825045586 -7.119864941 0.4718895257
5.871380329 -7.158434868 0.7692270875
8.061686516 -9.441569328 1.171666741
25.66705704 -28.05264091 3.316923618
15.02610302 -16.77433777 3.035681009
13.39421368 -15.0255518 3.478849888
12.84167767 -14.42347622 4.032636642
