# .PCD v0.7 - Point Cloud Data file format
VERSION 0.7
FIELDS x y z
SIZE 4 4 4
TYPE F F F
COUNT 1 1 1
WIDTH 1262
HEIGHT 1
VIEWPOINT 0 0 0 1 0 0 0
POINTS 1262
DATA ascii
-9.119973183 -10.01914597 3.865120173
-6.437561512 -4.827129841 2.787138224
-6.309164524 -4.598548412 2.950804949
-5.769800663 -3.307998896 0.4891366065
-28.13677216 -45.37190628 1.752705336
-16.53577232 -23.79544067 2.419790506
-12.55902958 -16.31630516 2.701006174
-10.79619026 -13.01054096 2.946169615
-8.54983902 -8.763100624 2.768692493
-8.579489708 -8.851836205 3.177638292
-9.277454376 -10.23375988 3.926409483
-6.41742897 -4.741452217 2.765828848
-6.29586935 -4.525357246 2.930573702
-5.815333843 -3.343474627 0.3109759092
-6.447766781 -4.573119164 0.9615415335
-19.54725075 -28.98772812 1.527966022
-15.89143276 -22.37763405 2.350684881
-12.03411007 -15.18212891 2.601326227
-10.75217533 -12.81563759 2.925961733
-8.722698212 -9.009197235 2.816234827
-8.612565041 -8.831929207 3.179087877
-9.322593689 -10.22510719 3.931568384
-6.38878727 -4.638305187 2.739465237
-6.320970058 -4.527122021 2.935611486
-6.47457552 -4.560224533 0.745262742
-20.3359127 -30.1959877 1.551916242
-15.97533321 -22.33934784 2.355312824
-12.05909824 -15.09399891 2.598892212
-10.74201965 -12.6812582 2.914007664
-8.787843704 -9.048207283 2.828090668
-8.657519341 -8.834485054 3.185368299
-8.312224388 -8.216621399 3.426442385
-6.406295776 -4.62446022 2.739483356
-6.501523018 -4.545315742 0.5282168388
-13.5075407 -17.58716774 2.103958607
-12.06937695 -14.97958088 2.593954802
-8.823444366 -9.031121254 2.830250502
-8.905364037 -9.2164011 3.273189306
-6.398356438 -4.562717915 2.725263357
-7.422427654 -6.518218517 3.621354103
-13.58824062 -17.37096405 0.6454033256
-6.91778326 -5.30885458 1.19289887
-13.54034519 -17.49411392 2.104246378
-13.43368053 -17.35482788 2.824106693
-10.88484001 -12.71879005 2.931041241
-9.007507324 -9.288669586 2.880419254
-8.936894417 -9.190156937 3.273585796
-9.062232018 -9.460712433 3.757888794
-6.413751602 -4.545444012 2.724247932
-6.559173107 -4.54313612 0.3074293137
-13.63362026 -17.29558754 0.6499271989
-13.59888268 -17.29548454 1.376169205
-13.49652767 -17.2627964 2.09691596
-13.49918938 -17.32325363 2.827841043
-11.08379364 -12.96969223 2.970957041
-8.91340065 -9.031283379 2.840643406
-8.998318672 -9.219070435 3.285909891
-8.501860619 -8.33509922 3.475746155
-6.434569359 -4.538346767 2.726281404
-7.24189043 -6.057902336 3.476625204
-6.958805084 -5.257421494 0.9485896826
-13.67614841 -17.27754974 1.380022645
-13.56584644 -17.23113251 2.100757837
-13.62663746 -17.39604759 2.841865063
-11.13740063 -12.94668293 2.974376917
-9.053544998 -9.19985199 2.875782013
-8.902186394 -8.955489159 3.235255957
-8.649762154 -8.525085449 3.531428337
-6.473898411 -4.562908649 2.738042593
-6.522109032 -4.670092583 3.007578373
-13.75940895 -17.21594048 0.6570346951
-13.7463274 -17.25410461 1.383597255
-13.67801285 -17.27589226 2.108849764
-11.17838955 -12.9009037 2.974727392
-8.978317261 -8.976859093 2.842086315
-8.91181469 -8.891480446 3.227377892
-8.702383041 -8.54248333 3.54246521
-6.550680161 -4.655060291 2.770201683
-6.491897106 -4.568433285 2.977469921
-6.999761581 -5.211851597 0.7052060366
-13.84711838 -17.28427887 1.388021588
-13.72931862 -17.22624588 2.111191273
-12.91738224 -15.83749104 2.706005335
-12.14953041 -14.51919365 3.201572418
-8.953146935 -8.854825974 2.8255229
-8.881858826 -8.757157326 3.204148054
-8.466617584 -8.043884277 3.419430971
-7.026783466 -5.19166708 0.4596678615
-5.751504421 -3.001980305 0.8481658101
-35.46864319 -54.82954407 1.994852066
-13.76182652 -17.13646126 2.11154604
-12.41025352 -14.80747795 2.613101244
-12.29243946 -14.65258789 3.226519585
-9.071566582 -8.985228539 2.853918076
-8.883750916 -8.681410789 3.193595648
-8.476826668 -7.988630295 3.411360502
-6.595002651 -4.645386696 2.775789738
-6.584915638 -4.645441532 3.013573408
-6.668478966 -4.513204575 0.3090185821
-6.658446789 -4.511995316 0.5309782624
-5.759063244 -2.983801365 0.8495591283
-35.84690857 -55.03614044 2.010400772
-12.50553322 -14.84696293 2.622883558
-12.23746014 -14.4299221 3.203139067
-9.101129532 -8.95681572 2.854228735
-9.097263336 -8.980121613 3.265050411
-8.518356323 -7.989461422 3.417886734
-6.615284443 -4.635924339 2.777332783
-6.605186462 -4.635953903 3.015183687
-6.668485641 -4.503939629 0.7518361807
-12.44988441 -14.62353516 2.607204437
-12.42542076 -14.63314724 3.238226414
-9.025434494 -8.744820595 2.821773767
-9.117082596 -8.93454361 3.261265516
-8.573456764 -8.013841629 3.430620193
-6.556339264 -4.486798286 2.736467838
-6.627315044 -4.629725933 3.017948151
-21.18370438 -29.43781281 2.828772068
-12.46890926 -14.53164864 2.604212284
-12.47953033 -14.60153294 3.241114378
-9.142529488 -8.899165154 3.259717464
-8.612293243 -8.009181976 3.435826302
-6.562635899 -4.453977585 2.730823994
-6.652287006 -4.628397942 3.022447348
-5.842391491 -3.007951498 0.5276549459
-12.37859058 -14.2541132 2.583016634
-8.939436913 -8.442380905 2.778111935
-9.116517067 -8.775387764 3.238631964
-8.643342972 -7.990857124 3.437483072
-6.598686218 -4.473103046 2.741027594
-6.616221905 -4.520739555 2.989913225
-18.95372581 -25.19167519 2.602671146
-12.41718864 -14.19876289 2.583471775
-9.193621635 -8.772322655 2.445096016
-8.917970657 -8.331001282 2.763264656
-9.819925308 -9.899737358 3.494124651
-8.660580635 -7.948838234 3.432918072
-6.696128368 -4.5973382 2.783486605
-6.627444267 -4.496226788 2.986289263
-18.97700119 -25.02416801 2.600961447
-12.45550346 -14.14333344 2.583910704
-8.957769394 -8.2979002 2.383503675
-8.967238426 -8.340653419 2.770205259
-9.927427292 -9.995609283 3.522462368
-9.004361153 -8.458880424 3.574642897
-6.648818016 -4.472417355 2.749680996
-6.646257877 -4.484927654 2.98729229
-5.905478954 -3.005823374 0.3627529144
-18.40522957 -23.85980988 2.541548014
-12.71462727 -14.4501667 2.620523214
-9.014863968 -8.316793442 2.390785456
-9.011170387 -8.337213516 2.775084734
-9.94720459 -9.937758446 3.517056704
-7.973264694 -6.641979694 3.100121737
-6.662578106 -4.450536251 2.747653723
-6.66305685 -4.468044281 2.986603975
-18.69062424 -24.12582207 2.565166235
-12.24138641 -13.54146957 2.536518812
-9.014720917 -8.240181923 2.384695292
-9.058202744 -8.338654518 2.78088975
-9.861574173 -9.704732895 3.472444534
-8.003552437 -6.632649422 3.10330224
-6.714828491 -4.493385792 2.765620232
-6.684662819 -4.459339142 2.988810539
-7.122759342 -4.959151268 0.9656134248
-7.148342133 -5.016796112 1.206923246
-19.51371765 -25.27540207 2.640609741
-12.32905006 -13.57187366 2.545313835
-9.077510834 -8.271553993 2.393569231
-9.33323288 -8.719352722 2.855693579
-12.5754118 -14.10914993 4.467772484
-8.014712334 -6.591467381 3.098019361
-7.824776173 -6.29786253 3.329003096
-6.693514824 -4.431419849 2.984003305
-7.153732777 -4.963486195 0.9663122296
-7.177382469 -5.017614841 1.208268046
-12.3710947 -13.52716064 2.546634912
-9.212188721 -8.419403076 2.418990374
-9.482158661 -8.88746357 2.89205265
-9.853629112 -9.52504158 3.44617939
-8.019560814 -6.540307999 3.090049267
-7.830843449 -6.250895977 3.320583582
-6.694295406 -4.390399933 2.974542856
-7.87564373 -6.027248383 0.3692075908
-16.58943367 -20.00047684 1.487107277
-16.51929474 -20.05080223 2.346237183
-13.86677551 -15.82827663 2.784124851
-9.186217308 -8.304583549 2.407283068
-9.896122932 -9.512420654 3.450378895
-8.043458939 -6.520797253 3.09053731
-7.766136646 -6.088496685 3.276187181
-6.719707012 -4.390313148 2.979590178
-7.86818409 -6.002440453 0.9444999099
-7.872815609 -6.028439045 1.229892612
-16.59117699 -20.0033741 2.350016356
-13.72553444 -15.47227859 2.754935265
-9.055615425 -8.023202896 2.371753216
-9.283473015 -8.41508007 2.816488028
-9.959289551 -9.533020973 3.462138653
-8.12051487 -6.587481976 3.114228725
-7.677058697 -5.888790607 3.219910145
-6.877243519 -4.605436802 3.061349869
-7.884792805 -6.047391415 1.517657757
-13.80378342 -15.46994972 2.761390209
-9.204367638 -8.187530518 2.399949551
-9.274001122 -8.327533722 2.805827856
-9.994606972 -9.508316994 3.46369338
-9.053190231 -8.025073051 3.508281708
-7.663186073 -5.810617447 3.20168519
-6.730389118 -4.324693203 2.966431856
-10.56248283 -10.05623722 0.4006237984
-38.11239243 -53.08219147 2.1372118
-18.15774918 -22.13664055 2.492618084
-13.79637814 -15.32579899 2.753768444
-9.142619133 -8.019684792 2.380436182
-9.242390633 -8.202386856 2.788403749
-9.175432205 -8.150533676 3.549266338
-7.680433273 -5.785825253 3.199840784
-6.753565311 -4.318949699 2.969775438
-6.571136951 -3.813789129 0.6017866731
-8.126767159 -6.223104 0.6456057429
-38.31117249 -52.97782898 2.147521496
-18.28864479 -22.1641674 2.501683235
-13.85396767 -15.29117107 2.756942987
-9.163015366 -7.98297596 2.37967515
-9.227464676 -8.108627319 2.776436567
-13.0888443 -14.22395134 4.556139469
-9.219475746 -8.14999485 3.556309223
-7.709918976 -5.780616283 3.20416832
-6.927510262 -4.555100918 3.059797287
-38.61375427 -53.05315018 2.160742521
-18.39713669 -22.15583229 2.508613586
-11.80162907 -12.02191448 2.968126535
-9.274840355 -8.113236427 2.782762289
-12.08506775 -12.54149914 4.180640697
-9.018549919 -7.764532566 3.458626747
-6.818687439 -4.34289217 2.988546133
-6.628052711 -3.818247318 0.4006789625
-11.60132313 -11.3843708 0.3173519075
-20.45636177 -25.15284157 2.699743986
-13.33348656 -14.2487669 2.662612677
-11.80240726 -11.92420769 2.96060276
-9.277888298 -8.052257538 2.776573896
-9.940454483 -9.106158257 3.400387764
-9.251442909 -8.064047813 3.547031403
-6.908993244 -4.443835735 3.030301332
-11.70928764 -11.45435905 0.3133713901
-20.46931839 -24.97468758 2.697238922
-13.38951492 -14.21910381 2.665930748
-9.255218506 -7.948932648 2.762669563
-9.81397438 -8.834444046 3.344872236
-9.319723129 -8.100759506 3.564374447
-12.26426411 -12.69309998 5.417755127
-6.885207176 -4.365564823 3.007389307
-6.147283077 -3.03204155 0.5159467459
-6.127155781 -3.013826132 0.6854589581
-6.121131897 -3.014988184 0.8508716226
-20.61886024 -25.00507164 2.707601786
-13.42682362 -14.1609478 2.666301966
-9.283883095 -7.925189972 2.763681889
-9.7759161 -8.701825142 3.321197271
-9.387779236 -8.13278389 3.580920696
-12.26978111 -12.5920105 5.398714066
-6.880682468 -4.318040848 2.995532036
-6.159344673 -3.010247469 0.3498057127
-6.162076473 -3.024548292 0.5164276958
-11.85541725 -11.4817915 0.3125652075
-6.091007233 -2.989751339 1.342733979
-13.93726826 -14.80960941 2.740810394
-12.15647507 -12.16827679 3.0164814
-9.303095818 -7.883847237 2.761651993
-9.761349678 -8.602921486 3.305555344
-13.54947853 -14.39973259 5.314838409
-14.08800411 -15.26459599 6.26527071
-7.021128178 -4.491034985 3.064236641
-6.095643997 -2.967384577 1.342619538
-15.31539726 -16.74971771 2.951041222
-10.34016895 -9.344317436 2.608040333
-9.321658134 -7.845154762 2.759840727
-9.770572662 -8.544624329 3.298932076
-13.59685135 -14.34899616 5.314212799
-10.39867592 -9.547750473 4.448792458
-6.95894146 -4.355316639 3.02027607
-11.79702473 -11.21264267 0.3305251598
-19.38510132 -22.34907913 0.6079329848
-19.39601517 -22.42398071 1.591596007
-13.75507545 -14.29796028 2.700820208
-12.15216351 -11.96038628 3.000006676
-9.4284935 -7.934998512 2.782781124
-9.800756454 -8.514639854 3.299237967
-13.54183674 -14.15077496 5.272089958
-10.48539257 -9.598592758 4.4750247
-7.200261593 -4.676940441 3.143968582
-19.44560051 -22.26403427 0.6128410697
-19.46024132 -22.34360886 1.595368981
-19.38665581 -22.40806198 2.578192234
-13.54251575 -13.87132168 2.662321568
-10.38360023 -9.25472641 2.605724812
-10.24816608 -9.080747604 3.007394075
-9.82258606 -8.475914955 3.297160625
-13.68236446 -14.24587154 5.311292171
-10.47895718 -9.509338379 4.456267357
-7.118708611 -4.512559414 3.089474916
-11.87667084 -11.14825344 0.3353998661
-19.55472374 -22.24948883 0.616250813
-19.55532265 -22.31685829 1.600005388
-18.80753517 -21.39075661 2.521186829
-13.56100178 -13.79331398 2.660196304
-9.437708855 -7.816075325 2.771323681
-9.864653587 -8.470767021 3.302621126
-13.71110058 -14.17397881 5.304186344
-10.50551033 -9.469889641 4.453528881
-7.130228043 -4.490661144 3.086915731
-7.868161678 -5.320819855 0.4385788441
-18.88127899 -21.33968353 2.525089502
-13.65629101 -13.82181454 2.669723511
-10.47113609 -9.23044014 2.613128424
-10.38852787 -9.13980484 3.031344652
-12.19789314 -11.80985165 4.097073555
-13.83019733 -14.2407217 5.335193634
-10.53549767 -9.439634323 4.453273773
-7.147949219 -4.476006031 3.087324858
-6.834061623 -3.826678753 0.8003171682
-13.57973194 -13.56599236 2.031889439
-13.65498543 -13.71582413 2.664593935
-10.32466412 -8.972373962 3.005595684
-12.29010487 -11.85316372 4.116503716
-13.02047539 -12.98635864 5.617106915
-7.160359383 -4.455637455 3.085340261
-6.876811981 -3.840398073 0.5952820182
-6.85861063 -3.826484442 0.8004646897
-6.826245785 -3.794181347 1.003728509
-19.00456429 -21.19486618 2.530525923
-13.59392357 -13.52008343 2.65009141
-10.52054691 -9.154587746 2.612600803
-10.23545361 -8.774298668 2.973421097
-12.31998348 -11.80090523 4.113879204
-14.55190563 -15.06247902 5.592199802
-13.12024593 -13.03180695 5.644946575
-7.175776005 -4.437737465 3.084570408
-6.841077328 -3.778741837 1.004701495
-19.86027336 -22.23345947 2.606136799
-14.42070866 -14.57995796 2.77134347
-14.70919037 -15.03430748 3.50601244
-10.23906994 -8.703932762 2.966492891
-12.37095261 -11.77435684 4.117866516
-14.58243275 -14.9810667 5.584007263
-11.15753937 -10.10232162 4.700756073
-7.252015591 -4.505531311 3.116069555
-7.155144215 -4.18103838 0.9971854091
-19.97211456 -22.2199192 2.613267183
-14.31996059 -14.3238802 2.750598669
-14.74518394 -14.96714211 3.504772425
-10.15622997 -8.515521049 2.936179161
-12.49882889 -11.86148643 4.14855814
-15.56564236 -16.26119995 5.960728645
-11.19256592 -10.0701189 4.701224327
-7.316885948 -4.557844639 3.141684771
-12.41555882 -11.36884022 0.3234581053
-6.892747402 -3.793070078 1.20780623
-23.74068451 -27.30049515 2.955635071
-14.33934593 -14.23877811 2.74828434
-15.26294422 -15.57514477 3.606230021
-10.15351391 -8.442034721 2.928151846
-12.65923882 -11.99267673 4.190024853
-15.79853249 -16.45597267 6.032259464
-11.19067669 -9.985759735 4.684544086
-7.205958843 -4.359670162 3.073485613
-7.20310545 -4.156958103 0.7800521255
-6.900479794 -3.767672062 1.208411098
-23.93857765 -27.35693741 2.969749928
-14.3981905 -14.20352077 2.751735926
-15.30464172 -15.50570202 3.605473518
-10.21992874 -8.46217823 2.938779354
-12.78182888 -12.06376648 4.217847824
-15.70125294 -16.18471527 5.971418381
-11.163311 -9.862412453 4.655463219
-7.217460155 -4.334758282 3.070394278
-12.52050972 -11.32446861 0.3268612623
-23.76306534 -26.899086 2.94974947
-14.47333431 -14.19058895 2.75765872
-15.35764027 -15.4522419 3.607160568
-10.25764656 -8.441946983 2.941532373
-10.48401737 -8.778902054 3.435940742
-14.89607811 -14.93927383 5.630771637
-11.26912498 -9.926141739 4.688222408
-10.84861183 -9.367306709 4.97705698
-12.10786819 -10.68072796 0.3678214848
-21.38240051 -23.45389557 2.729149342
-14.82018852 -14.55370331 2.804750681
-15.41979504 -15.41142654 3.610808611
-10.29484081 -8.424365997 2.944511414
-13.02202034 -12.19908524 4.271932602
-14.96088886 -14.90600109 5.636543274
-11.31213856 -9.901601791 4.691873074
-9.032003403 -6.471319199 0.31062904
-12.57315636 -11.21842384 0.334069699
-21.52962875 -23.46662712 2.739134312
-14.81841564 -14.43848419 2.79924202
-15.50365639 -15.40606499 3.619482756
-10.3301115 -8.400653839 2.946624994
-10.5652895 -8.748081207 3.444108725
-16.31097794 -16.63790131 6.14991951
-11.33198833 -9.853161812 4.686469555
-7.296481609 -4.110449314 0.3408216536
-6.465191841 -3.0332551 0.8514739871
-22.54331017 -24.65880966 2.828052521
-14.4948988 -13.89693546 2.745890856
-16.18401718 -16.21077728 3.753362656
-10.35737324 -8.372881889 2.947298288
-10.57509804 -8.694189072 3.438476801
-13.30904865 -12.43463898 4.951485634
-15.18205547 -15.02704716 6.428086758
-11.04649639 -9.415495872 5.030817986
-6.517271042 -3.064244032 0.6747352481
-12.9017067 -11.48130226 0.3178960979
-22.11968994 -23.91798401 2.786479235
-14.48196411 -13.77209091 2.738984823
-15.87854862 -15.6831274 3.680852175
-10.37980366 -8.338699341 2.946698427
-10.60618782 -8.665863991 3.439466953
-16.40564728 -16.51565552 6.146665573
-15.26167297 -15.01781082 6.44195509
-10.97811985 -9.246800423 4.978597641
-6.549544811 -3.067177057 0.4971857071
-10.94297314 -8.827819824 0.4856792986
-22.19114685 -23.82384109 2.789514303
-14.64236736 -13.87300968 2.757692099
-14.5720396 -13.81963444 3.400040627
-10.37092781 -8.256220818 2.937069178
-10.64235497 -8.640890121 3.441694736
-16.39478111 -16.36738968 6.120975971
-11.09588432 -9.300900459 4.534893513
-11.0414753 -9.253865242 4.994087696
-11.25360394 -9.161096573 0.4647848308
-18.55513 -18.68043137 0.7276015878
-18.9971714 -19.44349861 2.497991562
-14.71686745 -13.85876083 2.763573408
-14.6162796 -13.76589298 3.400888443
-10.38178444 -8.200716019 2.932804346
-10.67961788 -8.617344856 3.444302797
-16.49944496 -16.38051796 6.141397953
-11.07527065 -9.19511795 4.510769367
-11.2722044 -9.484006882 5.095549583
-6.627109051 -3.099398375 0.3094032407
-24.29299736 -26.19858932 2.972167492
-15.11456108 -14.2716198 2.817485809
-15.75000954 -15.14463806 3.626902342
-10.52715302 -8.325550079 2.964633465
-10.72109127 -8.602743149 3.448750257
-20.08279419 -20.98339462 7.505444527
-11.06272697 -9.104844093 4.491216183
-12.71254539 -10.88374233 0.3563362658
-24.41298294 -26.15877914 2.979432821
-14.83154869 -13.80048656 2.77098918
-15.74176884 -15.0179863 3.616658688
-10.52683926 -8.258339882 2.957743168
-10.62137413 -8.406923294 3.407894135
-20.06687164 -20.8034687 7.473989487
-11.11630821 -9.102341652 4.501406193
-11.2779808 -9.344192505 5.066253185
-12.62255764 -10.68534756 0.3689878285
-21.82152939 -22.6438942 2.743627787
-14.55657768 -13.34048939 2.725721598
-15.78019047 -14.95277309 3.616086245
-10.64661026 -8.372274399 3.407277584
-20.11380768 -20.71488762 7.468211651
-11.02256489 -8.9109869 4.446706295
-11.31021214 -9.311694145 5.06636095
-13.25527954 -11.40500736 0.3236962855
-20.03937912 -20.05589676 1.64430058
-22.01189995 -22.71788979 2.757641077
-14.62211323 -13.32195091 2.730665207
-15.83020878 -14.9084301 3.618343592
-10.59139442 -8.212784767 2.961644173
-10.68373108 -8.353058815 3.410522938
-20.153368 -20.60941124 7.458511829
-11.36796856 -9.312403679 5.079438686
-13.4887991 -11.60991478 0.3108789623
-20.15668678 -20.00727463 0.7160489559
-26.53633118 -28.2797699 3.159006834
-14.69381905 -13.31095314 2.736509085
-15.92694759 -14.91791916 3.629719257
-10.63044357 -8.196977615 2.965222597
-10.69179821 -8.296602249 3.40446949
-25.0582962 -26.74331093 9.299484253
-11.53010464 -9.447187424 5.145046234
-13.702281 -11.78200626 0.3001224697
-20.8935051 -20.97459602 2.651829481
-14.91662216 -13.48998737 2.764373302
-15.93523788 -14.81489944 3.623116493
-15.68688297 -14.53615475 4.276639938
-10.71048164 -8.254079819 3.401887417
-25.50237465 -27.09892273 9.434695244
-11.19750023 -8.922520638 4.484006882
-19.66998863 -19.28345108 2.539948463
-15.30128956 -13.86317921 2.8154006
-15.91848946 -14.67567158 3.611123323
-15.70277214 -14.43981934 4.269067287
-10.79031467 -8.285562515 3.41838336
-20.98221016 -21.17856979 7.695978165
-11.16884708 -8.811794281 4.457611084
-8.196707726 -4.839096546 0.4778488278
-8.137231827 -4.780908585 0.7417573333
-8.127372742 -4.781249523 0.9979893565
-19.77762222 -19.2658062 2.546827078
-15.36400414 -13.83040428 2.819498062
-16.76330757 -15.61036301 3.772884607
-15.69342804 -14.31276989 4.255074978
-10.83739662 -8.275200844 3.424415112
-25.13626862 -26.22828674 9.232499123
-11.1479063 -8.711988449 4.434845448
-11.69504833 -9.424731255 5.177490234
-7.652096748 -4.150621891 0.7815205455
-25.67035866 -26.18559074 1.839088917
-19.80122375 -19.15133667 2.54637146
-15.46799755 -13.85359383 2.829803467
-16.83828545 -15.58510971 3.779408455
-15.78486633 -14.31718349 4.267765522
-10.82136345 -8.189534187 3.410940409
-25.37836266 -26.33480835 9.292707443
-11.07518864 -8.552095413 4.390463352
-11.73581505 -9.401281357 5.181741714
-12.87507057 -10.42332935 0.3860018253
-7.620438099 -4.087494373 1.011759758
-25.75446701 -26.09566498 1.843687057
-19.86595345 -19.08794975 2.54957962
-16.91950035 -15.56723499 3.787184477
-17.16183853 -15.90192127 4.610769272
-10.86786556 -8.181793213 3.417263985
-25.4451046 -26.22197723 9.287169456
-11.13237953 -8.555028915 4.40267992
-7.770037651 -4.197060108 0.3105883002
-7.167346478 -3.487187862 0.6227152944
-13.83429718 -11.49386597 0.318506062
-25.89440155 -26.07318115 1.850145817
-19.9736557 -19.0767231 2.556593657
-15.70094395 -13.92755127 2.853915215
-16.96552467 -15.5060358 3.787925959
-22.46133804 -22.25313187 5.956067085
-10.87716293 -8.128260612 3.411918402
-24.27268219 -24.5891571 8.821201324
-11.15072536 -8.509757996 4.398107529
-7.183890343 -3.475997686 0.6233478189
-22.0637207 -21.25391769 0.7138743401
-24.70876694 -24.63650894 2.972053528
-15.73605442 -13.86465836 2.854248762
-17.05299568 -15.49518776 3.796953678
-23.53309441 -23.38753891 6.21325779
-10.88866997 -8.077811241 3.40733552
-24.41091537 -24.57529259 8.844148636
-11.17618275 -8.473437309 4.396672249
-11.87103271 -9.346250534 5.200983524
-13.32444096 -10.71712399 0.3674491346
-21.60378838 -20.74367523 2.695266485
-21.39007187 -20.53406525 3.658034563
-17.12913895 -15.47019672 3.803717852
-21.6788311 -20.98269081 5.724462509
-10.97753143 -8.121031761 3.426891804
-24.5158062 -24.52026176 8.854741096
-11.50109291 -8.800294876 4.523423195
-11.90432167 -9.313267708 5.201666832
-6.871234417 -3.031612635 0.3032539785
-13.12652493 -10.40311813 0.387209326
-19.83864021 -18.32481956 0.7699795961
-7.661803722 -4.007319927 1.240377307
-21.6817131 -20.68318748 2.699433088
-20.75216866 -19.62343407 3.560322285
-17.14918327 -15.37797832 3.799387932
-21.67525291 -20.82291412 5.708213806
-24.6031456 -24.44385338 8.858914375
-11.51146889 -8.743484497 4.515202999
-11.89604473 -9.230169296 5.182192802
-8.844641685 -5.316102505 0.4203208983
-12.98897552 -10.16340923 0.4022703767
-43.03011322 -45.28601837 0.3132187128
-24.59231758 -23.9615612 2.952378035
-25.51935005 -25.10931015 4.231961727
-20.62369347 -19.37700081 4.476233959
-21.7381916 -20.74344826 5.708952904
-27.22674561 -27.31857109 8.43225956
-24.91662788 -24.63714409 8.946022987
-11.58222961 -8.759234428 4.532737255
-11.91666698 -9.182457924 5.176922321
-12.99803829 -10.09247589 0.4066691399
-43.28746033 -45.26020432 0.3197187781
-24.83063126 -24.06515503 2.970205545
-20.79536819 -19.38503456 3.553662777
-21.90126991 -20.73563957 4.717176914
-25.02209091 -24.45945358 6.521063328
-25.36023903 -24.91407585 7.832289219
-25.03449821 -24.59503174 8.961216927
-11.63081837 -8.748044014 4.540810108
-11.95919037 -9.161038399 5.182317257
-13.01136875 -10.03080368 0.410472095
-21.75841141 -20.12685585 0.747463882
-27.96897507 -27.53655243 3.241845846
-20.85432434 -19.3105526 3.555698395
-22.24887466 -20.98077774 4.773921967
-24.92702675 -24.16865921 6.479629993
-27.55544472 -27.30485535 8.483140945
-25.2349987 -24.64046478 9.005087852
-11.64738655 -8.69546032 4.534755707
-11.98192215 -9.116122246 5.178213596
-9.769368172 -6.237226963 0.3163891137
-12.97434807 -9.912081718 0.4178595543
-24.04059029 -22.58927345 0.7092602253
-27.82311821 -27.15819168 3.225441694
-20.91517067 -19.23134995 3.557714939
-26.31717491 -25.54063988 5.557843208
-24.7662487 -23.79582596 6.421246052
-27.64581871 -27.20025826 8.484614372
-25.46714592 -24.73003006 9.061613083
-11.68082619 -8.666340828 4.536500454
-19.35761833 -17.10709763 0.8028158545
-25.2064743 -23.96375465 2.993732691
-21.96902657 -20.2992363 3.69985342
-25.22498894 -24.09747696 5.331958294
-24.85356522 -23.72200775 6.426054478
-27.76425552 -27.13821983 8.495979309
-11.73809052 -8.664874077 4.548252106
-12.08697987 -9.092755318 5.197978497
-12.21342564 -8.905238152 0.4811538756
-20.33187103 -18.07968521 0.78925246
-25.31148911 -23.90857315 2.999853373
-22.56688499 -20.83152771 3.777286291
-22.66099739 -20.99189377 4.821590424
-24.90815353 -23.6107235 6.422777176
-26.27174377 -25.22750282 8.017975807
-12.11806583 -9.057635307 5.198011398
-13.13747025 -9.869401932 0.4201524854
-44.57585907 -45.09352875 0.352991879
-25.91272736 -24.4135685 3.04913044
-22.75595284 -20.89275932 3.797112942
-24.82819939 -23.29642868 5.230509281
-25.05610466 -23.60605812 6.442734241
-26.16867638 -24.92555428 7.963953018
-44.82147598 -45.04541397 0.3597917259
-25.97825813 -24.30957985 3.051758528
-24.41246986 -22.60131836 4.021914005
-22.36282921 -20.34897423 4.742545128
-25.46602058 -23.89613152 6.527373314
-26.93149948 -25.60618973 8.171707153
-13.58149624 -10.20907116 0.3983511925
-21.30802345 -18.76256371 0.7857993245
-25.73385048 -23.86078072 3.027530432
-22.19510841 -19.96205139 3.705714703
-22.45798492 -20.30605507 4.750470638
-25.6430378 -23.91999245 6.554199219
-25.89191437 -24.25157356 7.836005688
-26.41495132 -24.90314865 9.264310837
-13.63420582 -10.18551445 0.3996236622
-22.74563789 -20.20169449 0.7655652165
-29.54322624 -27.71181107 1.997174621
-26.03831673 -24.02416039 3.050909281
-22.29709625 -19.92877769 3.713575125
-22.92735291 -20.67847061 4.830257893
-23.14288712 -20.96269035 5.923528194
-25.97168541 -24.16330528 7.838208675
-26.45815849 -24.7693119 9.252402306
-13.65247059 -10.12821865 0.4030219913
-45.74318695 -45.07820129 0.3776243329
-25.80915451 -23.59817123 3.02811718
-22.40041161 -19.89653015 3.721618414
-25.36373711 -23.2056942 5.285687923
-23.17665482 -20.84633446 5.917113781
-26.16282654 -24.19849968 7.873781204
-26.57291222 -24.70658493 9.264660835
-13.56912994 -9.957825661 0.4135431349
-45.83524704 -44.85744858 0.387080431
-25.90948486 -23.52773285 3.033702374
-22.78301811 -20.16156578 3.767989159
-25.28847504 -22.95424843 5.259658337
-23.29606628 -20.81694984 5.930980206
-26.43803406 -24.31564713 7.933191776
-13.49644852 -9.80452919 0.4229851663
-21.01310349 -17.89043427 0.8098189831
-25.98096085 -23.43445015 3.036952019
-23.27343941 -20.54608345 3.829370737
-25.57715034 -23.09245872 5.302539349
-25.81395531 -23.40732002 6.529125214
-26.54441261 -24.25446892 7.943261147
-8.50570488 -4.41075182 0.507950902
-8.479206085 -4.394852638 0.7649915218
-8.45301342 -4.377288342 1.019193053
-25.98828316 -23.26392365 3.034548998
-25.49840736 -22.78409767 4.129008293
-25.66878891 -23.02327538 5.308412552
-26.09443665 -23.53157616 6.580212116
-26.57524681 -24.10228539 7.929930687
-8.493502617 -4.373181343 0.7662225962
-8.471376419 -4.36000824 1.020145774
-25.91948509 -23.02185631 3.025779247
-23.52553749 -20.50933266 3.850942612
-25.72774124 -22.91893959 5.308124065
-27.56077385 -24.93468475 6.918654919
-27.13489914 -24.52881622 8.073886871
-25.84787941 -22.77914047 3.016814947
-30.72971535 -28.0079155 4.831958771
-25.92068672 -22.95759964 5.333197594
-27.68585587 -24.88695526 6.93178463
-27.37891769 -24.61098099 8.124202728
-26.00320244 -22.77743149 3.027331114
-30.5987606 -27.66797447 4.805507183
-26.08292389 -22.95373154 5.351840019
-27.45994949 -24.46712494 6.860535622
-27.43416977 -24.49056244 8.118948936
-20.63125229 -16.84437752 0.8376928568
-27.61264038 -24.2851944 3.162049532
-27.01784515 -23.71120834 4.308183193
-26.1221714 -22.82813263 5.34791851
-27.52685928 -24.35094452 6.859146118
-13.87739944 -9.753900528 0.4243107438
-47.49666214 -44.35470963 0.4369380474
-27.83333397 -24.33857346 3.177948952
-26.25305176 -22.74465752 4.196863651
-31.36965942 -28.1278038 6.31948185
-27.65712547 -24.31008911 6.873814583
-13.88367653 -9.686423302 0.428219378
-21.33791924 -17.32055473 0.8354187012
-32.80688858 -29.09192467 2.128402233
-28.68189621 -25.03674316 3.247364998
-26.36862373 -22.6989212 4.205639362
-31.89396286 -28.46722984 6.403768539
-27.52570724 -23.99743652 6.826109409
-13.94998646 -9.680149078 0.4282284081
-33.04067993 -29.06479263 0.6687988639
-33.05428696 -29.13477707 2.138826132
-27.45881081 -23.60508728 3.140195847
-26.49666214 -22.66550446 4.216106415
-32.29092789 -28.66972733 6.463963032
-28.00568581 -24.31713486 6.924060345
-13.92619991 -9.582882881 0.4340003431
-22.08162498 -17.81751442 0.8330978155
-33.26574707 -29.13932991 2.147992611
-26.94320488 -22.91073227 3.093507528
-26.60520935 -22.61159325 4.223931789
-32.21060181 -28.38122177 6.43522501
-28.11696243 -24.25441933 6.934159756
-14.04042816 -9.624251366 0.4309478998
-48.66616821 -44.28059769 0.4616556168
-27.12166214 -22.92489433 3.10590601
-28.57355499 -24.4366169 4.482667923
-33.18485641 -29.16337967 6.602176666
-28.09099197 -24.05210686 6.91184473
-48.93117142 -44.23015976 0.4682698846
-54.77401733 -50.14596558 2.910975456
-27.26805305 -22.90561295 3.115570307
-28.80630875 -24.50234604 4.507048607
-28.32110786 -24.06204414 5.689004421
-28.20152473 -23.98892021 6.921899796
-49.22269821 -44.2200737 0.4740177691
-54.73838425 -49.75574112 2.912595272
-27.72888947 -23.20659256 3.151995182
-28.92717552 -24.44565201 4.515969753
-28.4290657 -23.99552155 5.697371006
-49.5939064 -44.27053833 0.4792258441
-54.88041306 -49.5428772 2.92047143
-27.77160263 -23.08092308 3.152839422
-27.24239731 -22.60122681 4.282836437
-32.47045517 -27.83945084 6.430003166
-49.89439011 -44.24920654 0.4854263961
-54.87551498 -49.18732071 2.923113585
-27.76243973 -22.90489769 3.149318218
-27.32277679 -22.516325 4.28686285
-32.46032715 -27.62870598 6.414937496
-7.270621777 -2.714910984 0.316195786
-21.35707283 -16.35108185 0.8675472736
-54.94926071 -48.91025162 2.928516865
-27.73373985 -22.7111454 3.144177675
-27.32593536 -22.35604286 4.280601978
-32.5029335 -27.47111702 6.409672737
-7.279518127 -2.697154999 0.3177646697
-50.51222992 -44.18556213 0.4986823499
-54.8717308 -48.47189713 2.928645611
-28.93357277 -23.6988678 3.24242115
-27.31655502 -22.17661476 4.272407532
-33.29950714 -28.0364666 6.541529655
-50.59667206 -43.95258713 0.5076618195
-55.26906586 -48.49023056 2.945658684
-29.05512619 -23.63561249 3.249710798
-29.54029846 -24.14642334 4.561103344
-33.33959961 -27.86281013 6.535009861
-22.82391739 -17.37519646 0.8610450625
-55.3335228 -48.20737457 2.950659275
-32.56340027 -26.80938721 3.541663885
-28.44406319 -22.9245224 4.408615589
-33.09594345 -27.4284935 6.477688789
-34.89228058 -28.82109451 3.733931541
-32.44586182 -26.55363083 4.931626797
-33.35408783 -27.47578621 6.511676311
-10.20920467 -5.332969666 0.3793871403
-51.57199478 -43.93274307 0.5255413055
-55.78272247 -47.94516373 2.972049475
-34.94772339 -28.66586304 3.735222816
-32.72692108 -26.62655067 4.961040497
-33.57545853 -27.4861927 6.538917065
-51.94803619 -43.96889114 0.5309585333
-49.8612709 -42.11104584 2.762354136
-32.86635971 -26.56455994 4.971709728
-33.31692505 -27.04522514 6.479515553
-52.18552399 -43.85907745 0.5385140777
-49.67564774 -41.64003372 2.757990122
-33.85461044 -27.24109268 3.637225628
-32.8744278 -26.38001251 4.965096951
-25.06852913 -18.79084396 0.8555686474
-33.96623611 -27.13742447 3.643232346
-32.96681213 -26.26479721 4.969247341
-40.17194748 -32.9782486 7.684881687
-52.94081879 -43.92182541 0.5494887829
-49.4337883 -40.81375122 2.753892899
-34.11391068 -27.07635498 3.652408838
-33.94972229 -26.97441673 5.090513706
-39.23496246 -31.8812027 7.501931667
-53.09673309 -43.74933624 0.557469964
-49.56407928 -40.63968658 2.760786772
-34.29108429 -27.04143715 3.664040804
-34.14544296 -26.95705223 5.108390331
-39.31536865 -31.72451401 7.501748562
-53.4756813 -43.77626038 0.563010931
-49.58349991 -40.36652374 2.763663292
-34.67898178 -27.19535828 3.693190813
-34.20691681 -26.81730461 5.108720779
-39.23779678 -31.42532921 7.473469257
-29.79945374 -22.44630814 0.822456181
-49.83759689 -40.30368042 2.774997473
-34.93444061 -27.22710228 3.711289644
-34.36120605 -26.76114845 5.121186733
-39.38131332 -31.32715034 7.484735489
-51.10937119 -41.06774139 0.6065998077
-50.20275497 -40.33744049 2.790348768
-38.0301857 -29.78055954 3.965030909
-34.55117035 -26.73601151 5.138290882
-39.5127182 -31.21783829 7.493882656
-50.23796844 -40.07920456 2.793750048
-37.94235992 -29.4877758 3.954357386
-39.08184052 -30.54587364 5.718838692
-39.56071472 -31.03435898 7.488286495
-50.12118912 -39.68991852 2.791613817
-38.09764099 -29.41041183 3.963855267
-38.58235168 -29.88639259 5.645525455
-39.82632828 -31.03177643 7.520561218
-50.37129974 -39.62099457 2.802769899
-38.04721069 -29.14285278 3.956178665
-38.76753235 -29.83106041 5.661082268
-40.77394104 -31.63379478 7.673748493
-40.50564194 -30.81511497 0.7438450456
-40.55337906 -30.90799713 2.447722673
-38.12841415 -29.01210785 3.959744453
-38.89404678 -29.72400475 5.669059277
-40.59766006 -30.67047119 0.7496339083
-40.63112259 -30.76155281 2.452078342
-38.28248596 -28.93357468 3.969169855
-38.39751434 -29.09202766 5.59717989
-40.70889282 -31.13147545 7.634841919
-39.29882812 -29.59960175 4.049809933
-38.38531494 -28.86984253 5.587495804
-40.96506119 -31.12400055 7.665871143
-51.93361664 -39.78993988 2.867966413
-38.60305786 -28.77465057 3.988881588
-38.82128143 -29.00762939 5.634634495
-41.05187225 -30.95968056 7.666536808
-38.51213837 -28.48859596 3.978168249
-39.04725647 -28.98592758 5.655544758
-40.94445419 -30.6434021 7.634075642
-10.69770336 -5.031189442 0.384886384
-62.59952545 -48.05104828 3.26219964
-38.58218765 -28.33900452 3.980717897
-39.94430161 -29.52296638 5.76227951
-41.02382278 -30.48602676 7.634355545
-38.45326233 -28.02510452 3.966962099
-40.1635704 -29.48886108 5.78213501
-41.26881027 -30.4664917 7.663487434
-38.64027405 -27.97350693 3.979143143
-40.32159042 -29.4029789 5.794160843
-41.35811615 -30.31698418 7.665576935
-62.85663223 -47.22520447 3.27875638
-39.03458023 -28.09004211 4.008284569
-40.7568512 -29.54308128 5.841479778
-62.74679565 -46.79450607 3.277044058
-39.0377388 -27.88629532 4.005405426
-41.24612045 -29.72310257 5.895545483
-63.13964462 -46.75162506 3.293899775
-39.58932495 -28.11439514 4.047184944
-41.11151123 -29.38531876 5.869946957
-63.4620018 -46.66731644 3.308045387
-39.55332565 -27.8682518 4.040963173
-41.31173706 -29.32892609 5.887283325
-39.51389694 -27.64155579 4.034806252
-41.45902634 -29.22942543 5.897918701
-44.38402557 -31.07053566 2.608577251
-39.64612961 -27.54121971 4.04250145
-41.54042053 -29.07754326 5.900253773
-40.01272202 -27.61329269 4.069105625
-42.29111862 -29.43863869 5.986550331
-53.53376007 -37.6378479 2.950024366
-40.12948227 -27.48866844 4.075381279
-42.41139603 -29.30279541 5.99332428
-43.07872009 -29.36554527 2.564858198
-40.69171906 -27.71686363 4.117965698
-53.32352829 -36.92481995 2.945790052
-40.88960266 -27.66160583 4.130948067
-11.78023624 -5.310930729 0.3212541938
-40.69811249 -27.09465981 0.8533819914
-53.69455719 -36.93105698 2.961283922
-41.10186005 -27.61616516 4.145088673
-41.2313652 -27.50714874 4.152525425
-47.36128235 -31.68016815 2.729434252
-43.39402008 -28.91743469 4.324290276
-47.37482452 -31.45323753 2.731407404
-53.9575882 -36.53858185 5.174042225
-54.77381897 -37.19969177 7.486941338
-47.01953888 -30.95738411 2.719635725
-56.51108932 -38.20319366 7.69316864
-47.79177856 -31.47408104 4.669080257
-11.90443039 -5.132388592 0.328171432
-48.02763748 -31.20856476 2.760111809
-48.05945587 -31.43135071 4.687199593
-55.36936951 -36.78907013 7.531046391
-48.38964081 -31.23203659 2.775034428
-48.34032822 -31.39646912 4.706368446
-55.60378647 -36.68133163 7.55039072
-47.37368393 -30.27381516 2.738499641
-54.47256088 -35.54324341 5.195683956
-55.41094589 -36.26655579 7.516921043
-48.30871582 -30.70339584 2.774805307
-54.61216354 -35.36023712 5.202849865
-11.93857384 -4.981031418 0.3367671072
-49.01797867 -30.96633339 2.802704334
-54.56230545 -35.07053375 5.195217609
-55.57136536 -35.8324852 7.517768383
-47.89758301 -29.9515934 2.76213026
-55.19116211 -35.24380112 5.24181509
-48.60268021 -30.19708252 2.789933443
-55.86404419 -34.9345665 3.06354022
-56.21060944 -35.38332748 5.315389156
-57.24967575 -35.33449936 3.118582487
-56.3570137 -34.95541 5.319672108
-57.81429672 -35.4400177 3.141313791
-55.19835281 -32.38576508 3.050034285
-55.04119492 -32.03063583 3.045437098
-54.68432999 -32.00842667 5.161096573
-61.06539917 -35.55130386 0.8945785761
-54.87034225 -31.66956711 3.040295362
-54.82905579 -31.84835625 5.16913414
-54.96834564 -31.48036003 3.045288324
-55.08794785 -31.76025963 5.186223984
-54.95763397 -31.21098518 3.04621911
-54.73398972 -31.27328873 5.15463686
-44.59272003 -24.51273155 0.9677190781
-44.55249023 -24.51919365 2.653677702
-54.40211487 -30.81728935 5.125041008
-44.44861221 -24.64700699 6.03596735
-44.71511078 -24.39033508 0.9719420075
-53.32038116 -29.70807648 2.986704111
-44.56282425 -24.48747253 4.344341755
-55.86853027 -31.5173893 7.404423237
-44.54771042 -24.55122185 7.753834248
-53.74099731 -29.91962051 5.066267014
-55.8897438 -31.27721214 7.398940086
-53.95918655 -29.79906464 5.080109596
-54.83481598 -30.36984444 7.263914108
-55.95471573 -30.53778648 7.382276535
-54.46468353 -29.36660957 5.110221863
-55.3800354 -29.94683838 7.305787086
-54.36705399 -29.06848907 5.099398136
-55.45988846 -29.74846649 7.307736397
-54.89232635 -28.94524193 3.054478645
-54.10258484 -28.67476654 5.075504303
-55.13116837 -28.84338379 3.064657927
-53.93610382 -28.34132957 5.059360504
-55.18245697 -28.63315773 3.06768918
-54.17615509 -28.24417305 5.07515049
-84.39067841 -45.67435455 10.7292881
-55.85294724 -28.95323563 5.203396797
-84.44210052 -45.32711411 10.72399426
-68.2206192 -35.44586182 0.9742296934
-55.71817398 -28.45754814 3.090216398
-55.89945984 -28.74950981 5.204091072
-67.9799881 -35.01570892 0.9810109735
-56.21126938 -28.49304008 3.110059977
-55.80765533 -28.45652008 5.193823814
-79.76066589 -41.94765854 10.14616299
-67.86585999 -34.64418793 0.9877613783
-56.22596741 -28.26037979 3.111654043
-55.92015839 -28.27907372 5.199570656
-79.73590088 -41.58299637 10.13277054
-67.77185822 -34.30052567 0.994073689
-78.83031464 -40.40198135 3.975601912
-56.10002136 -28.1267128 5.210441113
-79.67157745 -41.18069077 10.11428547
-67.69282532 -33.95251846 1.000574946
-78.71395111 -39.99728775 3.97258544
-59.33309174 -29.16228485 1.018738389
-80.24821472 -40.80001068 10.16196823
-67.63536835 -33.35906219 1.012284279
-79.55776215 -40.03649521 7.030561924
-67.68960571 -33.08669662 1.018364906
-67.72499084 -32.80513 1.024402857
-79.25585938 -39.17617798 6.99835968
-67.84208679 -32.58108902 1.030000687
-61.68205643 -29.4197197 3.327391386
-67.84236908 -32.31105042 1.035385251
-61.70047379 -29.18425941 3.329041481
-67.89007568 -32.05197525 1.040947318
-61.85126495 -29.00449371 3.335797071
-68.04589844 -31.83423805 1.046636939
-61.98528671 -28.80298615 3.341945171
-80.87341309 -38.65655136 7.107454777
-68.12386322 -31.59111023 1.052067399
-62.22216797 -28.65301514 3.352023125
-63.05906296 -29.27373314 5.720971107
-68.23671722 -31.36567879 1.057422996
-62.32484818 -28.44772339 3.356895208
-62.45072937 -28.70689774 5.67065382
-65.4834137 -29.72419548 1.064378977
-62.21784973 -28.3331871 5.649516582
-65.59506226 -29.49718475 1.069660306
-61.9034729 -27.72992134 3.342532396
-62.89361954 -27.91857338 1.075790644
-68.90744781 -30.54140663 1.078831792
-61.29615021 -26.92090797 3.320973158
-61.43024445 -27.1739006 5.579369545
-69.16107178 -30.38205338 1.083936095
-61.43367386 -26.72597885 3.327134609
-61.24773407 -26.39022446 3.320802212
-62.24921417 -27.05240631 5.636603355
-63.03315735 -26.98015785 3.390287876
-62.3391304 -26.84318352 5.64060688
-91.40248871 -40.58459473 11.30371189
-63.23879242 -26.82252693 3.399009228
-22.67552948 -7.901962757 0.3643813431
-22.53869247 -7.759086132 0.3722062111
-85.01811981 -36.49603271 7.378716946
-22.45028877 -7.639458656 0.3781181574
-84.03859711 -35.45452499 4.202619553
-63.00736618 -26.14716148 5.680517673
-22.4251709 -7.549048424 0.3815749288
-84.29257202 -35.23013687 4.213409901
-63.15956116 -25.9649086 5.689369202
-85.67894745 -36.13700104 10.59362316
-22.23108864 -7.380483627 0.3915086985
-84.6007843 -35.0287056 4.226275444
-85.9892807 -35.92961502 10.6205616
-22.26348877 -7.316887856 0.3927017152
-84.17648315 -34.50424957 4.210881233
-22.17972183 -7.199021339 0.3983561695
-84.26889801 -34.19219589 4.215432167
-84.75016022 -34.64953995 7.338544369
-85.79508972 -35.13607025 10.58018875
-22.22986794 -7.143466949 0.398827672
-84.94322205 -34.39505768 7.349584579
-85.71595001 -34.75857544 10.56244755
-22.28904343 -7.091579437 0.398945868
-85.04992676 -34.08608627 7.353827477
-86.23348236 -34.62186432 10.61299038
-21.72546768 -6.777102947 0.4222100079
-68.29910278 -26.43711662 3.601634979
-86.53993988 -34.40929794 10.63969135
-22.86634064 -7.178467274 0.3821286559
-68.3118515 -26.18957329 3.602778196
-87.20641327 -34.36403275 10.70815659
-22.9848938 -7.148447514 0.380066067
-21.71405983 -6.549440384 0.4291742146
-23.04187965 -7.009315968 0.3826643527
-69.82347107 -26.19021416 6.171243191
-21.9875927 -6.507866383 0.4234938323
-70.19968414 -26.05840683 6.196936131
-21.33696938 -6.175254345 0.4493299127
-70.29330444 -25.8248024 6.201183796
-21.2163868 -6.056184292 0.4557176828
-68.56100464 -24.86799049 6.066074371
-21.09519005 -5.938049316 0.4620749056
-68.87631226 -24.74185371 6.087482452
-69.07693481 -24.55620766 6.100001812
-69.17210388 -24.34230042 6.104628086
-69.56312561 -24.20124245 6.131388664
-68.98177338 -23.71851921 6.084398746
-69.50850677 -23.65333748 6.121779919
-20.39032173 -5.258192539 0.4984427392
-69.43649292 -23.36426735 6.113612652
-20.22364235 -5.131585121 0.5060665011
-69.56615448 -23.1368084 6.120666981
-20.1033535 -5.023003101 0.5119906068
-19.91841888 -4.892725945 0.5201511979
-19.87244797 -4.812530994 0.5233594179
-19.82142258 -4.727938652 0.5267910361
-19.78984833 -4.653712273 0.5294312239
-19.73238754 -4.568019867 0.5330226421
-19.63754654 -4.473628521 0.5378080606
-19.56313133 -4.386845589 0.5418453217
-19.39031982 -4.151622772 1.134181023
-19.40591812 -4.095616341 1.134922147
-19.33498192 -4.011190414 0.5565168262
-19.39839935 -4.03243494 1.135600686
-75.28993225 -21.56569481 6.519882202
-19.35283852 -3.953323841 0.5572713017
-19.41167259 -3.975812435 1.136314034
-73.93846893 -20.87249184 6.415317059
-94.81993103 -27.33559799 11.35511971
-19.42940712 -3.917548418 1.137060046
-73.49123383 -20.46622658 6.379070759
-94.15717316 -26.78287506 11.27387428
-19.3862648 -3.842924833 0.5586748719
-19.40269279 -3.787629843 0.5593602061
-94.67695618 -26.2267971 11.31838226
-19.44195747 -3.738987684 0.559253335
-19.50387573 -3.75797534 1.139185667
-73.8217926 -19.74938393 6.396478653
-19.48683929 -3.691776991 0.5589423776
-19.55845451 -3.713209629 1.139948368
-94.73040009 -25.54790115 11.31118393
-19.52853012 -3.640439272 0.5587849617
-19.63601112 -3.674659729 1.140761495
-95.63661194 -25.46079254 11.40606594
-19.55772591 -3.588417053 0.5589748621
-19.74509811 -3.64142108 1.141679645
-19.59831238 -3.539442778 0.558765769
-19.74925995 -3.581573009 1.142290354
-75.5663681 -18.97823715 3.89853096
-75.83226013 -19.23082924 6.537929535
-19.63490105 -3.489182949 0.5586771965
-19.79179573 -3.532267094 1.142990589
-75.98668671 -19.00084305 6.54712534
-19.95513916 -3.514867067 0.5490769148
-19.90372849 -3.501363039 1.143867731
-19.77330208 -3.405459642 0.556275785
-19.91897011 -3.444160223 1.144478917
-105.7210999 -25.63135529 12.48519993
-19.86927223 -3.184961557 0.557392478
-19.91322136 -3.1322999 0.5570064187
-104.257309 -23.49375153 5.013322353
-20.26843262 -2.969874859 0.5492689013
-80.59575653 -17.07846451 6.8664217
-20.34613609 -2.926130772 0.5476620793
-20.26128387 -2.905811071 1.150639534
-78.38287354 -16.11192131 4.008161545
-20.40228271 -2.877088785 0.5467499495
-78.46807861 -15.84242535 4.011369705
-22.62151146 -3.303233624 0.4751375318
-78.81882477 -15.64478111 4.024877071
-80.23750305 -16.13346863 6.832676888
-23.76731491 -3.481232882 0.4387606084
-32.23464203 -5.309253693 1.189067602
-100.760582 -20.3243103 11.8668375
-23.74921417 -3.403629541 0.4403928816
-32.24046326 -5.205720901 1.189797401
-79.71047974 -15.28346443 4.059224606
-23.69755173 -3.319266319 0.4430915713
-32.00510025 -5.051941872 1.189748406
-80.31404877 -15.30629158 6.831737041
-23.64359093 -3.234903097 0.4458363652
-31.94534683 -4.936066628 1.190225601
-80.17482758 -14.9968853 6.819173336
-23.60103989 -3.15334487 0.4481824636
-31.76553535 -4.796579361 1.190297127
-23.56013107 -3.072512865 0.4504486024
-31.59490776 -4.660356998 1.190370798
-79.19950104 -14.07291698 4.038634777
-80.55776215 -14.51459789 6.84342432
-23.51633263 -2.984298706 0.4528716803
-31.50316048 -4.535757542 1.190702915
-79.59521484 -13.86143303 4.05375576
-23.46493721 -2.902292252 0.4554203749
-31.34800911 -4.399940968 1.190803528
-23.38766861 -2.815928221 0.4587762058
-31.26407623 -4.2837677 1.191082954
-23.32577133 -2.733020782 0.4616079926
-31.15321922 -4.168353558 1.191225529
-23.28321075 -2.654142857 0.4637901783
-31.02308273 -4.045392036 1.191308737
-23.22656441 -2.573160887 0.4663991928
-30.89523506 -3.918989182 1.19140029
-80.82128143 -12.70280075 4.099935532
-23.1932354 -2.496690512 0.4682337344
-30.75419044 -3.796286106 1.191399693
-80.87059021 -12.41915798 4.101499557
-23.15369415 -2.419507027 0.4702424109
-30.71517181 -3.691942453 1.191720247
-80.9165802 -12.14882374 4.102934837
-23.13555145 -2.346216917 0.4715414941
-30.58696365 -3.573262453 1.191719174
-23.08358955 -2.267675161 0.47389853
-30.55819511 -3.476506472 1.192014217
-23.07870483 -2.197030306 0.4747267663
-30.40216255 -3.350291491 1.1918962
-23.05433846 -2.119992733 0.4761863053
-30.34835434 -3.2411201 1.192104578
-22.98962402 -2.040606976 0.478875488
-30.14706039 -3.115030766 1.191766739
-84.49018097 -11.28625965 4.239448071
-22.93843651 -1.963766217 0.4811083078
-29.98676872 -2.99649477 1.191547871
-22.91267776 -1.890996695 0.4825080335
-30.00217056 -2.904431581 1.191917062
-84.25072479 -10.6884079 4.229240417
-22.88070488 -1.817608118 0.4840821922
-30.01660156 -2.81692934 1.192251444
-22.8464756 -1.744214296 0.4857048094
-29.92238998 -2.709847689 1.192204952
-83.14151001 -9.962002754 4.185254574
-22.8198967 -1.672138333 0.4870618284
-29.73122215 -2.585981369 1.191812634
-83.60289764 -9.740060806 4.202599525
-22.7474575 -1.594379425 0.4898503125
-29.62619019 -2.479377508 1.191688299
-22.73420906 -1.524655581 0.4907390773
-29.5340538 -2.379833698 1.19157958
-83.81400299 -9.197735786 4.209664822
-22.70285034 -1.45285666 0.4921795428
-29.50419426 -2.279429674 1.191693664
-22.63985825 -1.37420547 0.4946189225
-29.45607185 -2.177170753 1.191724181
-22.62818718 -1.30198288 0.4954105318
-29.3598671 -2.069818497 1.191565394
-83.33480835 -8.260560989 4.189268112
-22.59836006 -1.227891088 0.4967523813
-29.26521492 -1.963431478 1.191392183
-83.1493454 -7.943470478 4.181432247
-84.47855377 -8.25458622 7.087113857
-22.55127335 -1.162266254 0.4985628724
-29.18856621 -1.873359323 1.191244245
-22.55435944 -1.095560908 0.4988048971
-29.07872581 -1.771323919 1.190975547
-22.5535717 -1.025134087 0.4991641045
-29.04012489 -1.677339673 1.190943122
-22.47460175 -0.9504929185 0.5019505024
-28.9180088 -1.571050525 1.190600157
-22.41923141 -0.8786634803 0.5039708018
-28.86672783 -1.476852298 1.190487981
-22.4193325 -0.8123039603 0.5042223334
-28.77526283 -1.379422903 1.190215945
-118.2557449 -9.601354599 13.62591362
-22.36941528 -0.7416152954 0.5060279965
-28.73523712 -1.287163019 1.190111279
-22.3232193 -0.6716275215 0.5076953173
-28.67892838 -1.193871737 1.189931989
-117.3358765 -8.712735176 13.51842403
-22.29270744 -0.6032658219 0.5088481903
-28.6123085 -1.100205541 1.18969965
-116.9725113 -8.281420708 13.47536659
-22.24201584 -0.5336018801 0.5106149316
-28.49149704 -1.002942204 1.18925786
-22.24290085 -0.4681003392 0.5107393265
-28.3902626 -0.9079949856 1.188869953
-106.8263321 -6.768098354 8.716028214
-116.046608 -7.41249609 13.36783314
-22.20766258 -0.4001080394 0.5119791627
-28.32857513 -0.8165335059 1.188607931
-115.6783905 -6.989884853 13.32454109
-22.19013214 -0.3335709572 0.5126421452
-28.17076302 -0.7192254663 1.187987328
-107.4745178 -6.084826469 8.759837151
-115.1816483 -6.561523438 13.26733971
-22.16437912 -0.2666710615 0.5135432482
-28.20619965 -0.6350702047 1.188040495
-114.7388535 -6.140216827 13.21611595
-22.11463356 -0.1953156739 0.515181303
-27.9977684 -0.5364165306 1.187209487
-114.3659286 -5.726472855 13.17259884
-22.07242584 -0.128001228 0.5165585876
-27.99487686 -0.4463065863 1.18708992
