# .PCD v0.7 - Point Cloud Data file format
VERSION 0.7
FIELDS x y z
SIZE 4 4 4
TYPE F F F
COUNT 1 1 1
WIDTH 1302
HEIGHT 1
VIEWPOINT 0 0 0 1 0 0 0
POINTS 1302
DATA ascii
46.55294418 6.738792419 7.478918076
45.75852203 6.379956245 4.09207201
46.77630997 6.574955463 5.832469463
46.92072678 6.631523609 7.532940865
46.65652084 6.356286049 4.159951687
46.83889389 6.417743683 5.841364861
47.10638428 6.493244648 7.560885906
46.40507507 6.151623249 4.14483881
46.74562836 6.236489773 5.833512306
47.24075699 6.34593153 7.58155489
51.66147614 6.757324696 4.528754234
46.81100082 6.079713345 5.842850208
47.07701111 6.153207779 7.559440136
48.89184952 6.172655106 4.331512928
48.78396225 6.191714287 6.058488369
47.88231277 6.103554249 7.676827908
48.32624817 5.961967468 6.011406422
48.85311127 5.828449726 4.335326672
48.47539139 5.81098175 6.03010273
48.86912155 5.648524284 4.340134144
49.87745667 5.828187943 6.184453964
48.90151596 5.514482498 6.081732273
49.0324173 5.366682529 6.098582745
49.04945374 5.195314884 6.103317261
49.41431046 5.074714184 6.145690441
49.44116974 4.894591331 6.151810169
49.3874054 4.713957787 6.149101734
91.18032837 -5.152006626 1.487154126
52.24373627 -3.296725988 3.014958382
52.42241669 -3.48815465 3.02883625
52.31904602 -3.665970087 3.030698776
52.64599609 -3.867393732 3.051074266
53.33981323 -4.144004822 1.221426606
52.99609756 -4.072514534 3.072561979
53.26485825 -4.316672802 1.22661078
51.78598022 -4.181409359 3.026712894
51.54669571 -4.346790791 3.022699118
78.13489532 -6.472322941 1.449991584
51.47965622 -4.531691551 3.026470423
52.88554764 -4.579938889 4.944346905
51.28510284 -4.6977458 3.024382114
52.97066879 -4.780736923 4.958452225
55.18896484 -5.223686218 1.268208027
51.14849472 -4.858073235 3.024496078
51.8375206 -5.13414669 1.244727254
51.06642151 -5.030915737 3.027322769
52.83559418 -5.122881413 4.961369514
51.94593811 -5.32545805 1.251714587
51.02955627 -5.20712328 3.032154799
52.64842987 -5.301930428 4.954139233
53.89749908 -5.690544605 1.27573812
50.94551086 -5.387957573 3.035256147
53.43475342 -5.555306911 5.023735523
53.76291275 -5.86768961 1.280793548
50.79201508 -5.552991867 3.034976482
52.21754837 -5.641961575 4.934863091
65.74256897 -7.217090607 1.398764133
50.66696548 -5.728729248 3.036284924
51.92830276 -5.798287868 4.919172287
53.4453125 -6.22408247 1.290714145
50.75296402 -5.915551186 3.046664
52.02751541 -5.990720272 4.934423923
53.16775131 -6.383832932 1.294353366
50.72299194 -6.091286182 3.051926851
52.41760254 -6.213450909 4.972989082
53.31727982 -6.587253094 1.30206275
51.00038147 -6.299467087 3.07098031
52.40127945 -6.405658722 4.979595661
53.40537262 -6.794551849 1.309540153
51.06837463 -6.486814976 3.080741405
52.1157074 -6.559403419 4.964304924
66.36921692 -8.447664261 1.443710208
51.11486435 -6.663326263 3.089250565
42.67851639 -5.897525787 1.214325666
50.92550659 -6.821927071 3.087496519
42.6508522 -6.045184612 1.219129086
42.65565491 -6.011408329 2.719717503
42.66272736 -5.97019577 4.224939823
42.67758179 -5.937154293 5.739993095
84.87621307 -11.43756104 1.656487703
50.60682297 -7.14293623 3.08667779
42.71837616 -6.093016624 5.751773834
42.70524979 -6.056119442 7.277690887
42.65869141 -6.007164478 8.811818123
85.23162842 -11.78373814 1.670331478
50.86396408 -7.354802132 3.105238199
85.17321777 -12.07840443 1.679952383
51.04296875 -7.558486462 3.120337725
51.07263947 -7.743578434 3.128679276
51.07937241 -7.944070339 3.13671875
51.10962677 -8.129957199 3.145183802
52.51076889 -8.505640984 3.216757774
53.03701019 -8.770805359 3.248524189
53.2578392 -8.993489265 3.266265154
53.35141373 -9.198189735 3.278171062
53.56454849 -9.422786713 3.295745373
69.51023102 -14.02803707 1.653476477
69.07115936 -14.1948185 1.656715512
68.92550659 -14.92891884 1.68155551
68.74289703 -15.14165974 1.687963247
69.02144623 -15.45064259 1.700451374
69.13050079 -15.72571087 1.710776567
39.83616638 -9.589561462 1.324710965
39.76550674 -9.540271759 2.745277882
39.71379471 -9.708126068 1.328196764
39.65883636 -9.66207695 2.746245623
69.12851715 -16.49640083 1.738015652
40.66500854 -10.26116943 5.748618126
44.51550293 -11.39646816 3.014785528
42.54689789 -10.88774586 4.447562218
40.52714157 -10.37833786 5.740706444
44.49189758 -11.54666328 3.020426273
42.55405426 -11.04611015 4.456322193
41.3705101 -10.72782803 5.852954388
41.54640198 -10.99530792 2.87934947
40.07732773 -10.60355759 4.250525475
40.85451889 -10.74838066 5.798456669
43.40364838 -11.60694504 2.979939699
42.37488174 -11.30848885 4.456867695
40.47601318 -10.80662155 5.761157513
29.75635338 -8.377102852 1.223893881
29.84389687 -8.37314415 2.299929619
42.74013519 -11.55639076 4.496857643
40.65652084 -11.00118446 5.792582989
40.02944946 -10.80978394 7.180732727
29.80974007 -8.475180626 2.303120136
41.3170166 -11.35481453 4.381492138
40.79764175 -11.1874361 5.819312096
43.01382446 -11.9895649 2.981556416
39.82070923 -11.13156128 4.259640694
39.93754578 -11.11884785 5.722470284
42.98812866 -12.15100002 2.987785101
40.41307449 -11.43413734 4.319375515
40.41822815 -11.39964581 5.791766167
8.415340424 -3.070915222 2.450418472
41.42505646 -11.89652729 2.914746761
39.74574661 -11.41580677 4.269468307
40.52098465 -11.5773325 5.814024925
8.357194901 -3.080827713 2.755897522
41.65236282 -12.12030792 2.933811188
8.42481041 -3.162058592 1.52735424
40.63449097 -11.7665081 5.838231564
42.10411072 -12.39966106 2.964247704
8.40333271 -3.187744141 1.527187347
40.52679443 -11.88930893 5.834547997
42.17130661 -12.5762291 2.974933863
39.5667038 -11.77728558 5.724535942
40.14224625 -11.89918613 7.275553226
8.362268448 -3.183643103 2.450379133
42.33394241 -12.78040504 2.990652084
39.18366623 -11.81914234 5.686281681
40.09912109 -12.03782177 7.27979517
8.371114731 -3.217448235 2.454784155
8.357064247 -3.205723763 2.767498255
38.91740036 -11.89137936 5.662547588
41.94244003 -12.70744133 7.590071678
8.377929688 -3.250816107 2.45881629
8.360025406 -3.237936974 2.771183491
8.406259537 -3.316577673 1.534539104
39.63998413 -12.24481678 5.762870312
41.9306488 -12.86210632 7.600100994
8.365297318 -3.280343771 2.459127903
8.366189957 -3.272713423 2.775814056
8.409182549 -3.349199295 1.536583304
39.63762665 -12.40138721 5.772965431
8.356764793 -3.309449196 2.460144043
8.37264061 -3.306114197 2.78039813
8.431416512 -3.396767378 1.23233068
8.415801048 -3.383002043 1.538972139
39.00809479 -12.36637688 5.703603745
8.363214493 -3.342923403 2.464183807
8.360237122 -3.334143162 2.7805233
8.355501175 -3.324684143 3.101084709
14.54231071 -5.322182178 0.4977403581
14.57779694 -5.283841133 1.02743423
8.42261219 -3.426151514 1.233358502
8.418469429 -3.415736198 1.541022897
38.51059723 -12.36625004 5.650682926
8.373296738 -3.377584934 2.468983412
8.351482391 -3.363214016 2.781540632
8.333762169 -3.349916697 3.098501682
8.501309395 -3.526090622 0.3080275953
8.453123093 -3.503602505 0.6199656129
14.54135036 -5.328253269 1.028864622
8.427084923 -3.45956111 1.235096812
8.409564972 -3.445062637 1.542050004
14.55949306 -5.291564465 2.629885197
8.377001762 -3.419896126 2.158500671
8.375712395 -3.410093546 2.472274542
8.353833199 -3.395603895 2.785238743
8.328621864 -3.379984856 3.100545645
8.461195946 -3.538439512 0.6206610203
8.43524456 -3.494209766 1.237042189
8.406274796 -3.476104021 1.543591142
14.52489758 -5.336464882 2.629255295
8.379357338 -3.452501535 2.161382675
8.366725922 -3.439234257 2.473296642
8.359790802 -3.42916441 2.789833069
14.50021076 -5.271288872 4.82056284
14.5125103 -5.47959137 0.5027362108
8.450997353 -3.538972139 0.9301886559
8.433729172 -3.525980473 1.238482118
8.414289474 -3.510694027 1.54616344
14.50723743 -5.386455536 2.630790472
8.389139175 -3.487486362 2.16550827
8.357636452 -3.468343496 2.47431922
8.365615845 -3.462801695 2.794431686
8.319863319 -3.44066906 3.105151653
8.455544472 -3.571177244 0.9313994646
8.424941063 -3.553894997 1.239463329
8.405724525 -3.530905724 1.857667327
8.387923241 -3.517574549 2.167724848
8.363909721 -3.500624657 2.478322983
8.356872559 -3.490436316 2.795403719
8.325931549 -3.472705364 3.110239029
29.51014709 -10.33086491 1.293646932
8.419392586 -3.584467888 1.240701437
8.430369377 -3.578674793 1.551269531
8.396383286 -3.560174704 1.858697653
8.378596306 -3.546765089 2.168752432
8.369595528 -3.534432888 2.482381821
8.351289749 -3.5206604 2.797321796
8.331412315 -3.506259203 3.115380526
29.20303154 -10.34512043 1.292533159
8.425140381 -3.618711948 1.242556572
8.400175095 -3.593651533 1.861419916
8.372930527 -3.577129841 2.17040205
8.371397972 -3.567124844 2.485685349
8.356743813 -3.554419518 2.801928043
8.322021484 -3.535211086 3.116401434
8.434550285 -3.654264212 1.244621158
8.408943176 -3.63822031 1.553218365
8.400056839 -3.625958204 1.863661408
8.37843132 -3.611134291 2.173918724
8.365122795 -3.598905087 2.487524271
8.357873917 -3.588506937 2.805693626
8.316207886 -3.565316439 3.118454218
28.6600666 -10.3964777 1.291550875
8.431943893 -3.687631845 1.246123791
8.416296005 -3.673111677 1.55580759
8.39555645 -3.658526182 1.865472794
8.383312225 -3.646665335 2.177490711
8.355474472 -3.628006935 2.488552809
8.359348297 -3.621188402 2.809410572
8.315318108 -3.598644018 3.122107029
28.41814613 -10.42649174 1.291387081
8.429700851 -3.719544411 1.247576475
8.417340279 -3.707673788 1.557934403
36.32577515 -12.96942806 5.461246967
8.392286301 -3.682055235 2.181638241
8.360153198 -3.663450241 2.492674589
8.352801323 -3.652925014 2.811387539
8.323960304 -3.633571625 3.128292561
28.20121384 -10.4688282 1.291819572
8.419271469 -3.750383377 1.248668551
8.422521591 -3.742083311 1.560358644
36.29584503 -13.1072731 5.467891693
8.381884575 -3.712718964 2.182724714
8.368902206 -3.698753119 2.497509718
8.346627235 -3.68320322 2.813314199
8.328296661 -3.668818951 3.133500814
27.99737549 -10.50873089 1.292237043
8.422459602 -3.784249067 1.250435829
8.41247654 -3.771420956 1.561398983
36.30326843 -13.25090981 5.478930473
8.371874809 -3.741886377 2.183759212
8.364485741 -3.729753971 2.499684572
8.351425171 -3.717203379 2.817935705
8.309177399 -3.694688797 3.131944418
27.77282715 -10.54010391 1.292234421
8.434950829 -3.821438074 1.252726793
8.411746025 -3.80396843 1.563307643
36.46030426 -13.44641495 5.509431362
8.376711845 -3.776148081 2.187291622
8.358095169 -3.760122538 2.501479864
8.352398872 -3.750013828 2.821662664
8.308271408 -3.726675034 3.135555029
27.7219944 -10.63096333 1.295364618
8.456710815 -3.862044334 1.255544782
8.414653778 -3.837862492 1.565566659
36.05957794 -13.44938946 5.467710495
8.381408691 -3.810481787 2.190827847
8.347885132 -3.789194822 2.502513647
8.360610008 -3.785410881 2.827189684
8.314549446 -3.76120615 3.141236544
36.04128265 -13.5841465 5.475589275
8.379033089 -3.840809107 2.193065166
8.34869194 -3.822123766 2.50583601
8.353956223 -3.815762281 2.829124451
8.323029518 -3.795004129 3.147388458
36.14444733 -13.75523758 5.498853683
8.362851143 -3.858217001 2.511780739
8.347714424 -3.84465456 2.831008196
46.35232925 -17.66381836 3.37894249
8.387490273 -3.925564766 1.56899333
36.07645416 -13.87300205 5.500416279
8.363389969 -3.891269207 2.515110016
8.355526924 -3.880223274 2.836545467
46.75098038 -17.99265671 3.4103899
35.88973618 -13.98845673 4.140325546
36.12746811 -14.0338707 5.517605305
8.357722282 -3.92381835 2.517348051
8.357156754 -3.91534996 2.840787888
35.97060394 -14.16031551 4.156702995
38.48568344 -15.05086136 5.838222504
37.47233963 -14.64240742 7.124392509
8.350625992 -3.954235077 2.51915288
8.364674568 -3.951081753 2.846333742
48.95615768 -19.19677353 3.553949118
36.89271545 -14.64657211 4.252183437
36.4185791 -14.43534279 5.57773304
37.4234848 -14.77277756 7.129063129
8.358148575 -3.990086079 2.524019003
8.34096241 -3.975441694 2.844219923
47.23075485 -18.73999405 3.465876341
36.42090607 -14.61570263 4.216939926
36.0472908 -14.44066048 5.539655685
37.60166931 -14.98823738 7.172365189
8.365526199 -4.026019573 2.528889894
8.313529015 -3.998322964 2.841201067
46.96642303 -18.82765388 3.460317612
35.74124908 -14.50236034 4.161901951
36.37788391 -14.70985222 5.594182491
37.19694138 -14.98479843 7.116718769
8.306097031 -4.028596878 2.843142033
48.33437729 -19.54323006 3.547928572
36.01863098 -14.75193787 4.197180271
37.17033005 -15.15921688 5.710160732
37.35902023 -15.19540501 7.15754509
8.332135201 -4.079981327 2.528680563
8.311301231 -4.06371069 2.84824419
48.22780991 -19.69566727 3.55164361
35.33220673 -14.63680935 4.141638756
37.24567413 -15.33737946 5.731523991
37.37086105 -15.34962559 7.172928333
8.352161407 -4.114329815 2.862437248
27.83775711 -11.993577 0.3006624877
49.4702034 -20.38884163 3.633470058
35.10939789 -14.69138718 4.129482269
36.66342545 -15.26644325 5.666103363
36.09549713 -15.00877953 6.968685627
27.85460472 -12.11303806 0.3031995296
45.8462677 -19.14637566 3.434431553
35.82548523 -15.11710072 4.206886768
36.90414047 -15.50947857 5.709599495
38.87434387 -16.25137329 7.458686829
27.91911316 -12.2523489 0.3049179912
40.84750748 -17.32246208 3.15429759
36.00643921 -15.33450222 4.233515739
41.83192062 -17.62907791 6.379932404
38.70975494 -16.34274292 7.444648266
27.9090004 -12.36184788 0.3079333305
50.52555847 -21.46643066 1.820103884
40.73605728 -17.442976 3.156326294
37.61366653 -16.13127899 4.397179604
36.96954346 -15.83461094 5.741571903
38.58348083 -16.44863701 7.43721056
27.90399551 -12.47372437 0.3108614087
50.25374222 -21.57069778 1.822763443
40.45241165 -17.49245644 3.148312569
37.58302307 -16.27936363 4.404646397
35.17388153 -15.25944233 5.512705803
38.60144424 -16.61265564 7.454712391
27.92437553 -12.59651947 0.3133591712
51.27255249 -22.13927841 3.790563107
36.39647675 -15.94235802 4.300122738
35.06505966 -15.35080242 5.50877285
38.73562241 -16.8250618 7.492466927
27.88162422 -12.69308949 0.3169279397
49.66495514 -21.67672729 3.70694828
38.85014343 -17.10729027 4.546795845
35.12019348 -15.5170784 5.527549744
38.1775322 -16.75160027 7.410354614
38.25453186 -16.73732758 8.911520004
14.92242718 -7.063829422 4.54483366
27.91025352 -12.8201561 0.3192929626
41.15147018 -18.32434464 1.654332042
49.75741959 -21.91970062 3.723008633
35.47562408 -15.84520435 4.229829788
36.15343475 -16.09528542 5.678781033
37.072258 -16.44464111 7.232811451
37.93198395 -16.7591095 8.859718323
14.84289837 -7.091710091 4.532207012
14.7419281 -7.034140587 5.097802639
28.02648735 -12.9855566 0.3202044964
41.02965927 -18.44183922 1.658266544
49.11769485 -21.8517189 3.695820808
38.64548492 -17.33944702 4.547894955
36.1782341 -16.25445557 5.694017887
37.15530396 -16.63214493 7.261591434
14.78669071 -7.128946304 4.525465012
14.76981163 -7.106303692 5.114270687
27.97503853 -13.07929325 0.3239215314
41.19026566 -18.68073273 1.668229103
41.83201218 -18.91700172 3.273485422
36.85868835 -16.73916817 4.384617805
36.68757629 -16.62191391 5.775239944
36.88523865 -16.6697979 7.228888512
15.34545898 -7.446389198 4.067222595
14.75618172 -7.179861069 4.525617599
14.90579414 -7.224729538 5.162574291
28.05661774 -13.23723602 0.3255821168
41.3465538 -18.92814827 1.678509712
41.68304825 -19.03415871 3.274155378
30.93490982 -14.32195473 3.815041542
38.92396164 -17.74922371 6.092913628
19.18551636 -9.1867733 4.145886898
15.3131609 -7.495871067 4.067241192
14.95568562 -7.326483727 4.583818913
14.91574764 -7.293552876 5.174477577
28.10302353 -13.3748188 0.3276947439
48.79228592 -22.32946014 3.708932877
30.92588806 -14.44644833 3.82273984
36.72764969 -16.95103073 5.805916786
19.17423248 -9.261400223 4.151502609
15.19791794 -7.509226322 4.049489975
15.08286095 -7.443565369 4.623896599
14.77946949 -7.296317577 5.142955303
27.99733925 -13.44499779 0.3322921395
41.77952194 -19.42390823 3.298264265
28.99251556 -13.72046852 3.641098499
29.8040638 -14.04965115 4.87001276
19.18976212 -9.348000526 4.16189003
14.81864262 -7.405923843 3.974902153
15.08450413 -7.50692606 4.632182598
14.67874908 -7.313660622 5.121850014
28.76066589 -13.90764141 0.322827518
41.75083542 -19.5857563 3.305796623
28.67445564 -13.69965839 3.617868185
29.4820118 -14.03068829 4.835978031
15.30727768 -7.703068256 3.485364676
14.73630524 -7.431230068 3.964030266
14.16673088 -7.164087772 4.405725956
14.65404701 -7.363886356 5.123198509
49.98027802 -23.47814369 3.813307047
28.62569427 -13.7978611 3.621172667
16.21735382 -8.191701889 3.020103693
15.18767166 -7.7135005 3.470452309
14.70950508 -7.48086834 3.965137482
13.16088963 -6.774484634 4.155827045
14.67502785 -7.434421062 5.138138771
49.96266556 -23.68040657 3.823457956
28.53669739 -13.87775707 3.620515347
16.21507263 -8.25880146 3.025420427
15.14193344 -7.756571293 3.468572855
14.70757484 -7.541704178 3.971663237
13.11686611 -6.809837341 4.151588917
14.58123589 -7.453763485 5.119090557
50.35966873 -24.07400131 3.85896039
28.67017365 -14.05935001 3.642014265
15.96714306 -8.213622093 2.99679327
14.31308556 -7.441647053 3.327728748
15.61778736 -8.018353462 4.176154613
13.11707878 -6.865096569 4.158734322
14.16226959 -7.325026035 5.00321579
50.37055206 -24.2923069 3.871076822
28.29975319 -14.01512718 3.613751173
16.42583847 -8.493120193 3.066052437
15.33811378 -7.958917141 4.123211384
12.65230846 -6.709862232 4.046534061
14.1761713 -7.391096592 5.016023159
48.94981766 -23.85096931 3.795869112
30.00730896 -14.93372917 3.793038607
16.47138214 -8.58754921 3.07852149
14.16693115 -7.497804642 3.313934803
15.3966713 -8.051092148 4.143409252
12.43548107 -6.662982464 3.997531891
14.33228397 -7.526213169 5.071877956
49.54423141 -24.34085083 3.84381175
29.9596405 -15.03906822 3.797079563
16.34548187 -8.598381996 3.066870928
14.20609665 -7.57647562 3.326935291
12.15559578 -6.597835541 3.442937851
12.44670486 -6.721050739 4.007342815
14.11969852 -7.487892628 5.017128944
49.75972366 -24.64497185 3.868061304
27.92085838 -14.19635105 3.600555897
16.19999123 -8.599071503 3.052438259
14.15330315 -7.609051228 3.323238611
12.10343075 -6.625010014 3.437511921
12.38899517 -6.746855736 3.999356031
14.26675415 -7.614198685 5.069700241
53.09481049 -26.5175705 2.027630568
48.75144958 -24.3730793 3.817013979
29.8165226 -15.22682667 3.800441504
16.34593582 -8.734947205 3.078497171
12.08234978 -6.664146423 3.438604832
12.25141621 -6.731711388 3.97026968
14.58624935 -7.826828003 5.174846172
53.23510361 -26.81462669 2.039904594
48.61685562 -24.51758385 3.820061445
35.98469162 -18.33728027 4.433989048
16.24323463 -8.75555706 3.070064545
13.45908737 -7.381381035 3.747765064
12.28155327 -6.798734188 3.9851017
12.59817219 -6.936974049 4.584934235
50.50190353 -25.66236305 3.950171471
27.60033607 -14.40000916 3.59316659
15.56502628 -8.498153687 2.980811834
13.13426399 -7.298252583 3.158061981
12.06566525 -6.76515007 3.447711945
12.22270775 -6.825716496 3.977165222
12.53557777 -6.96360445 4.574569225
49.65882874 -25.47509193 3.909778833
27.60038567 -14.52559662 3.602017879
15.55464458 -8.563793182 2.985441923
13.11578846 -7.348833084 3.160807848
12.10961437 -6.825825691 3.955036402
12.57528496 -7.039802074 4.595174789
49.44025421 -25.58205605 3.907874584
29.53136253 -15.6071167 3.808001518
16.76778984 -9.234213829 3.163164616
12.90194511 -7.299744606 3.127860546
12.36500359 -7.01770401 3.526390791
12.22470284 -6.935121536 3.99230361
12.47546959 -7.045119762 4.573162079
49.38203812 -25.76864433 3.916103125
34.76536179 -18.36505508 4.354093552
16.41377258 -9.129855156 3.119231939
12.37488747 -7.0764575 3.535008669
12.32696629 -7.039215565 4.026400089
12.49502087 -7.109064102 4.58739233
49.35515976 -25.97140503 3.926374197
28.72740364 -15.45788574 3.743638992
15.50297546 -8.741127014 2.995774508
12.73311043 -7.327172756 3.108718872
12.14620781 -7.015420437 3.490603685
11.53616428 -6.69585371 3.825503826
12.50220299 -7.167154789 4.597951412
44.33420181 -23.60625648 3.617344141
27.95152664 -15.18143082 3.672149181
15.27694225 -8.69055748 2.969168663
12.68511295 -7.355821609 3.105469942
12.24629116 -7.116796017 3.519024372
11.52005482 -6.735698223 3.827844858
12.37935829 -7.157073975 4.568461418
29.48875618 -16.13378143 2.677039862
27.95432854 -15.30611706 3.681289673
15.2053318 -8.721026421 2.964842319
14.17787075 -8.177719116 3.384756804
12.1893177 -7.141489506 3.512810946
11.47502518 -6.763338089 3.822924376
12.20576096 -7.122972965 4.52376461
29.3024044 -16.1673069 2.672346592
30.47306252 -16.7387619 3.951733828
16.0847187 -9.244360924 3.097053766
12.64452171 -7.446711063 3.109739065
12.11488628 -7.156876564 3.502681732
11.26554871 -6.706032753 3.774409771
12.15611362 -7.151257515 4.516931534
29.28058434 -16.2860775 2.678231001
30.46666336 -16.87074661 3.960860252
16.06053925 -9.303089142 3.099913836
12.09791279 -7.201710701 3.505435467
11.21208096 -6.728130341 3.76715827
12.2006321 -7.228108406 4.539056778
29.48235512 -16.52362251 2.698646784
29.9438343 -16.73018837 3.916098833
14.12105179 -8.336419106 3.394169331
12.07729626 -7.244686604 3.507408142
11.19136333 -6.767084599 3.768623114
11.69594383 -7.018361092 4.392067432
44.32434082 -24.58633423 3.671884537
29.98474693 -16.88595009 3.930151701
27.89669418 -15.74343872 4.826286316
13.97793961 -8.323523521 3.374402523
12.61636925 -7.584108829 3.635765076
11.24106312 -6.843270302 3.788926125
11.73727798 -7.092282772 4.413099766
28.65505791 -16.34235001 2.659522295
29.5986805 -16.81307411 3.899415493
30.8983078 -17.47896385 5.273313046
14.07174015 -8.436429977 3.398512125
12.76965237 -7.725363255 3.677827835
11.33673668 -6.944591045 3.82165885
11.51251793 -7.025244713 4.351883888
43.1051712 -24.37801361 1.900412321
29.52258492 -16.94967651 2.724118471
26.85615158 -15.465909 3.620419025
28.36989975 -16.25668335 4.918376446
12.95143318 -7.897794724 3.197226048
16.16249657 -9.614635468 4.455276489
11.30046272 -6.97857523 3.819540739
29.43564606 -17.07339096 1.553119779
42.82860184 -24.38619232 3.608495712
26.84248161 -15.58604717 3.628381014
26.94269371 -15.61217022 4.722182274
12.90117645 -7.931873322 3.194487333
14.98918629 -9.049834251 4.197511673
11.61651802 -7.203563213 3.912214994
11.21544552 -6.973211288 4.276937962
29.38505745 -17.29757118 0.3865093887
42.95340729 -24.69528961 1.912499309
28.61506081 -16.72261238 2.679739714
26.99479103 -15.7920332 3.653577566
30.906847 -17.9168396 5.31387949
12.92647266 -8.004302025 3.205569029
14.96545506 -9.104766846 4.200661182
11.23041725 -7.044981003 3.815676928
11.64082146 -7.256161213 4.417812824
29.02903175 -17.22530365 0.3942845464
28.96579933 -17.07944107 1.551487207
28.79598808 -16.94751549 2.698838949
26.68304634 -15.74179363 3.629520178
26.60785484 -15.67144299 4.695397854
12.95440388 -8.07570076 3.216901064
11.36196518 -7.168596268 3.858613014
11.24918842 -7.090940475 4.303584099
29.01196289 -17.34918976 0.3975884616
29.17853928 -17.32536888 1.5622015
28.58295441 -16.959795 2.692204714
26.98166275 -16.03141212 3.670533419
18.72293663 -11.37607288 3.544847012
12.885952 -8.096699715 3.210510969
13.15935993 -8.231805801 3.80360198
11.34080982 -7.206106663 3.86003685
11.6218462 -7.348959446 4.428728104
29.38331032 -17.69543457 0.3957134187
28.88796234 -17.2947979 1.559834003
52.16954422 -30.45063019 4.277668953
26.68142509 -15.97956562 3.647167444
26.74435616 -15.98629475 4.73746109
12.83642864 -8.12796402 3.20767498
13.04275036 -8.226660728 3.784518003
11.10619736 -7.126578808 3.803901434
11.61403465 -7.397793293 4.435020924
29.07679367 -17.65507889 0.4028905928
29.2817421 -17.6536026 1.575809479
28.91539574 -17.41312981 2.729694605
26.70180893 -16.12046051 3.659063578
19.29886818 -11.87588787 3.64608407
11.6883831 -7.535544395 2.997176409
11.32968521 -7.319385529 3.397925854
11.05756187 -7.152727604 3.798524141
11.63626099 -7.463709831 4.450836658
29.02565956 -17.76751709 0.4068109095
28.66762733 -17.44196129 1.564909697
29.26628685 -17.7559948 2.761495829
27.32851219 -16.60428619 3.735998631
19.20831108 -11.91776752 3.641356468
11.51302338 -7.491960526 2.970229626
11.3256731 -7.369463921 3.403753757
11.2213335 -7.297140598 3.850756407
11.56478119 -7.479437828 4.437638283
29.4669323 -18.04045486 1.592125773
28.55439568 -17.47900963 2.721186876
27.44276428 -16.80399704 3.758460999
26.09332085 -15.98756695 4.675586224
11.50169086 -7.538896084 2.974031925
11.17416 -7.337404728 3.375812769
11.24134541 -7.363286495 3.864325047
11.51459026 -7.504252911 4.430702209
28.7726326 -17.77800369 1.578883648
30.76762009 -18.91493607 2.879834652
27.36271858 -16.88546944 3.759496927
19.26890564 -12.13655186 3.667584181
11.49069118 -7.588842869 2.978238821
11.1157465 -7.355568886 3.369027138
11.15104771 -7.363322258 3.847338676
11.35968304 -7.470928192 4.390998363
30.4653511 -18.88104248 2.867616415
27.34592247 -17.00395966 3.767442226
11.56237221 -7.684709072 2.997989655
11.12164688 -7.411046982 3.377204895
11.10290146 -7.3873353 3.841888428
11.40460873 -7.550199986 4.4142313
28.22646332 -17.69285583 2.722532511
27.27555656 -17.09100723 3.769591093
26.9231987 -16.85226631 4.835482121
11.51121712 -7.708851337 2.994320869
11.15600109 -7.483582497 3.392091751
11.34144211 -7.579926968 3.915507078
11.49899673 -7.659169674 4.453382492
28.29079056 -17.86506462 2.734788895
27.03232574 -17.07452583 3.752804041
27.02531815 -17.04050636 4.862958908
11.20683956 -7.566446781 3.410937071
11.14204311 -7.515052319 3.868440628
11.58279514 -7.76298666 4.489383221
29.39143181 -18.66476631 2.818752766
26.95666313 -17.15730095 3.754354954
27.0278759 -17.17033386 4.875567913
11.47310448 -7.794924736 2.999349117
11.13024998 -7.560756207 3.873168945
11.58156204 -7.817044735 4.498356342
35.44859695 -22.49467659 3.247313499
26.79226494 -17.1859684 3.746127605
26.90098381 -17.22218132 4.868638992
11.38460255 -7.795985222 2.988485575
11.85758591 -8.0660429 3.578224182
11.14493179 -7.622534752 3.885308743
11.53878117 -7.846324921 4.494066715
29.52494621 -19.02801704 2.84464407
26.71628571 -17.26778793 3.747651815
19.27129555 -12.68569183 3.720027685
11.30634689 -7.802676678 2.979562283
11.85230541 -8.119496346 3.584554911
11.08283901 -7.638008118 3.876144886
12.0515337 -8.212408066 4.668694496
53.21303558 -33.82691193 4.510198593
26.56383133 -17.3021965 3.740692377
19.25169563 -12.76626015 3.725965023
11.23154163 -7.810980797 2.971277475
11.87687111 -8.191459656 3.598006725
11.13524342 -7.72326231 3.89895463
11.29675961 -7.808690548 4.435010433
26.43393326 -17.35612488 3.736711025
19.26672363 -12.87321854 3.737710714
11.2025528 -7.84990406 2.972208261
11.88144112 -8.254398346 3.607198715
11.08830643 -7.750584126 3.894495487
11.22336197 -7.820534706 4.421193123
51.98491669 -33.58366394 4.454996109
26.22761345 -17.35502625 3.723655939
25.36487007 -16.78527832 4.683404446
11.21146488 -7.909775257 2.980260611
11.1367979 -7.847524166 3.437791348
11.23246288 -7.893969059 3.943315744
11.04972553 -7.76691103 4.374325752
52.57510376 -34.21131134 4.511947632
26.10913849 -17.4080143 3.720388412
25.17972755 -16.79202652 4.666927814
11.20507526 -7.960319996 2.985373259
11.11552525 -7.888319969 3.440084457
11.02858067 -7.807326794 4.376877785
41.72926712 -27.5444355 3.755885124
25.9788723 -17.45287704 3.715775967
25.09190941 -16.85940552 4.665414333
11.31172943 -8.082818985 3.012771368
11.09244633 -7.928003311 3.441980362
12.39125443 -8.73597908 4.287712574
10.93554783 -7.802404404 4.356018543
41.62197495 -27.67057228 3.75992918
25.90221596 -17.53146744 3.717205763
26.47496223 -17.86907959 4.891935825
11.30757904 -8.132943153 3.018158436
11.05105591 -7.955998421 3.439513445
12.34377384 -8.766482353 4.283810139
10.73815727 -7.72781229 4.300470352
41.57913971 -28.07649994 0.3097531199
54.33694077 -36.17787552 2.4208498
51.75587082 -34.44399261 4.499009132
25.85542679 -17.629179 3.722042084
25.11357117 -17.11439514 4.692493439
11.13278294 -8.076075554 2.990159512
10.96468163 -7.952201843 3.425858498
12.25343132 -8.766239166 4.267265797
10.74148655 -7.782774448 4.310973644
41.35551453 -28.13672447 0.316868335
30.43662071 -20.7786026 2.979324341
27.32746506 -18.71035957 3.899357319
25.8127861 -17.69379234 4.813876629
11.09751892 -8.108334541 2.98969841
10.93479156 -7.987112999 3.426153421
12.16510582 -8.769715309 4.251716137
10.78019524 -7.86083889 4.333203316
41.27697372 -28.29189873 0.3223085403
41.49915695 -28.25706673 2.052001715
31.40748787 -21.56934929 3.058709145
26.10185623 -18.0483284 3.770701885
22.2143116 -15.46355915 4.263571739
11.08197117 -8.153403282 2.99317646
10.8822031 -8.009858131 3.421356201
12.10484219 -8.793899536 4.244607449
10.92189789 -8.006532669 4.389554977
41.31937408 -28.5385704 0.3266212046
41.32359695 -28.35904694 2.055633307
31.33629227 -21.68748474 3.063559532
25.85727501 -18.01718712 3.753118038
21.83447838 -15.32932949 4.215572357
11.3646822 -8.398066521 3.05657053
10.86032104 -8.049832344 3.423629761
12.01508236 -8.795359612 4.228560448
10.86314487 -8.025201797 4.380449295
43.52305222 -30.23275757 0.3068525791
41.03635025 -28.37509727 2.055365086
27.77617455 -19.46596527 2.813489199
25.7675705 -18.0939827 3.753766298
21.75227737 -15.38439465 4.213605881
10.8370285 -8.091622353 3.425976992
11.41648483 -8.462242126 4.066783428
10.7928009 -8.033164978 4.366992474
43.56776047 -30.48443413 0.3111926019
40.93198395 -28.52293396 2.061144114
40.66159821 -28.28361893 3.765838623
25.84424019 -18.2758503 3.773124218
21.67398834 -15.447258 4.212817669
11.0214777 -8.282712936 3.001388311
10.80181408 -8.122743607 3.425066471
11.36540794 -8.485704422 4.061348915
10.97603893 -8.209501266 4.437828064
43.62943268 -30.74915695 0.3153692782
40.91613388 -28.71010017 2.068843842
27.4076519 -19.49774551 2.803570032
26.08642769 -18.57122803 3.811816692
21.63516235 -15.52554035 4.217192173
10.77267265 -8.155118942 3.425272703
11.34955597 -8.529714584 4.065618992
11.1517601 -8.382894516 4.506583691
43.69963074 -31.02152443 0.3194817007
30.11091423 -21.52043915 1.736872554
27.4148941 -19.64274216 2.812678099
26.54052544 -19.00750732 3.874894857
20.97721291 -15.18781757 4.123710155
9.763652802 -7.539669037 2.760760069
10.79729176 -8.226665497 3.439092875
11.22267342 -8.501521111 4.038250446
10.99104691 -8.330947876 4.463249207
43.932724 -31.40880775 0.3218951821
53.2379303 -37.63017273 2.477324247
27.28499985 -19.6940403 2.811680079
26.42773247 -19.07290459 3.873350382
25.8810463 -18.66004562 4.917045593
9.777647972 -7.599254608 2.76968503
10.83803082 -8.312515259 3.457382917
12.50031281 -9.433779716 4.419270039
10.90253544 -8.32678318 4.443917274
29.43120766 -21.49916077 0.4790797234
29.75729179 -21.59249687 1.738773704
30.12821007 -21.81545258 3.032638311
26.08237267 -18.9698658 3.843992472
20.94714355 -15.38795757 4.141347885
9.712239265 -7.606925488 2.762839317
9.632022858 -7.537427902 3.16737771
11.27145958 -8.652950287 4.071744919
10.70958424 -8.253098488 4.389901161
29.45073128 -21.66626549 0.4821839929
28.6728344 -20.98726082 1.710300803
29.82743263 -21.7613163 3.01976347
26.60654068 -19.47079277 3.91669488
20.90912819 -15.46987724 4.146316051
9.678853035 -7.633934021 2.762191057
9.58762455 -7.556367874 3.163513422
11.20082664 -8.662197113 4.060679913
10.67555618 -8.284785271 4.388696194
29.35570526 -21.74522591 0.4863099754
53.08856201 -38.36728668 2.507539749
29.67629814 -21.80249405 3.017533064
19.97330856 -14.92176056 4.006642342
9.65305233 -7.663635254 2.762794733
9.535178185 -7.569468975 3.157646179
11.48427582 -8.918130875 4.153348923
11.05074215 -8.598649979 4.525417328
29.12993431 -21.73815727 0.4919167757
29.01118088 -21.51998901 1.733515024
27.81208801 -20.63516617 2.886475801
26.23684502 -19.48658562 3.895726681
19.83087349 -14.92022705 3.993812084
9.54699707 -7.63918972 2.747253418
9.358961105 -7.492623806 3.120550156
11.58137703 -9.043253899 4.191319466
29.59579086 -22.22784805 0.490539521
29.07066154 -21.71529198 1.741844177
27.77207375 -20.75289536 2.892532587
26.35467339 -19.70163918 3.920552254
10.38980484 -8.301002502 2.473031759
9.51839447 -7.668951511 2.747577429
9.22741127 -7.450777054 3.095129013
11.58426476 -9.105952263 4.202270985
11.09822655 -8.747574806 4.563252926
29.35568237 -22.21861076 0.4964490533
29.98797607 -22.53869629 1.778921962
27.49484634 -20.70739174 2.881026268
28.51584244 -21.40144539 4.190566063
10.35277367 -8.332003593 2.472965956
9.255690575 -7.522061348 3.109662771
11.55374241 -9.148188591 4.203950405
10.56362724 -8.427992821 4.392412663
43.83457565 -32.96660614 0.3578382134
28.54201698 -21.6548748 1.737796903
29.73248291 -22.47725868 3.061261892
28.02424622 -21.204319 4.144886017
10.49558449 -8.492976189 2.502292156
9.448521614 -7.721686363 2.74596262
9.219566345 -7.545053005 3.107742548
11.45518494 -9.141495705 4.185493946
10.46177101 -8.410723686 4.368155479
43.55505371 -32.99596024 0.3655515611
44.79441833 -33.69952011 2.288393736
28.52064896 -21.75027847 2.978127241
26.94468689 -20.56605148 4.027542591
10.46057415 -8.52064991 2.502098322
9.180391312 -7.577066898 2.696521997
9.271800041 -7.629571438 3.127769947
11.4211607 -9.174722672 4.185127258
10.45854092 -8.46396637 4.377643585
43.34247971 -33.06151199 0.372326225
44.7648468 -33.9184227 2.297495604
30.57961655 -23.41134834 3.146048784
28.14783478 -21.58754921 4.184204578
10.06927109 -8.289627075 2.443609476
9.150064468 -7.601558208 2.696073055
9.490049362 -7.838701725 3.190336227
11.44054413 -9.249914169 4.201239109
10.56232643 -8.592588425 4.423524857
44.16721344 -33.91295624 0.3694952428
28.96588516 -22.4145031 1.770848155
29.20667076 -22.55832863 3.050066471
26.60320473 -20.59586334 4.009838581
10.03020763 -8.312291145 2.442571402
9.49516201 -7.890931129 3.198801994
12.21621895 -9.878241539 4.443272114
10.44803143 -8.565430641 4.394952297
44.02489471 -34.08267593 0.3766733408
28.83280945 -22.49574471 1.773903847
29.21838188 -22.74933243 3.062463045
28.03621674 -21.8238945 4.197466373
10.02085686 -8.367793083 2.44760108
9.119672775 -7.685143471 2.703126431
9.172529221 -7.710472107 3.125336885
12.85602856 -10.42821407 4.648349285
13.78107929 -11.09567833 5.562242985
43.8435936 -34.18651199 0.3834317923
28.25924301 -22.22048569 1.760780811
29.30755424 -22.97594643 3.079509974
26.60544968 -20.9011879 4.035681248
8.934756279 -7.596223831 2.670472383
9.051170349 -7.669596195 3.101740837
11.28922558 -9.32853508 4.188324928
13.77425766 -11.16538048 5.574363232
43.7050209 -34.32226181 0.3897738159
51.93439484 -40.36592865 2.588116884
29.40663528 -23.21187782 3.097472191
28.80606079 -22.71323586 4.317691803
21.2394619 -16.95790863 4.330569744
9.087441444 -7.760337353 2.708996534
9.016296387 -7.69278717 3.100194454
11.282691 -9.385262489 4.196943283
13.79948044 -11.25943279 5.59776783
44.13324356 -34.89436722 0.3910062313
27.41881371 -21.85500336 2.950927973
29.18205261 -23.15870285 4.377407074
21.10878944 -16.97532654 4.321132183
9.637849808 -8.228728294 2.832161903
8.981368065 -7.715822697 3.098643541
12.27703476 -10.20026302 4.509030819
13.83495331 -11.36193085 5.624948978
44.10889435 -35.10909271 0.3961103559
27.62900734 -22.16112709 2.976767063
26.08895683 -20.94412804 4.009204388
21.03017235 -17.03184891 4.320390701
8.939943314 -7.745132446 2.690145493
9.025780678 -7.799367428 3.117583036
12.26574802 -10.25940037 4.517328739
13.8702116 -11.46122551 5.651513577
44.22573853 -35.4474678 0.4002455473
51.28802109 -40.7142067 2.601176023
29.08321953 -23.44213867 3.102322578
26.05000114 -21.05926323 4.016769886
28.42593956 -22.85450935 5.57886076
8.929860115 -7.787044048 2.694401026
9.095791817 -7.900840282 3.142909527
12.56572247 -10.55446911 4.620051384
13.88167667 -11.54685879 5.670663834
51.18955994 -40.92485428 2.609851122
28.98369408 -23.52741241 3.104778767
28.30653191 -22.95586205 4.309367657
25.58373451 -20.80262184 5.115161896
8.888444901 -7.804773331 2.691984892
9.261525154 -8.080051422 3.193667889
12.58996773 -10.64330292 4.639690876
13.89422131 -11.63389111 5.690364361
44.14045715 -35.87944412 0.4113651812
51.1059761 -41.14764023 2.619091272
27.3399334 -22.39829063 2.983228683
26.81452179 -21.95188141 4.137333393
26.5170517 -21.67772484 5.289096355
9.044272423 -7.976596832 2.731969595
9.247244835 -8.123474121 3.198255777
13.17768955 -11.1756258 4.833094597
13.90024853 -11.71640301 5.707923412
44.18390274 -36.16546631 0.4162110388
50.97990417 -41.35190582 2.627457142
27.26296997 -22.49220657 2.986959934
28.5782032 -23.49817276 4.371575832
25.94079399 -21.38024139 5.207913876
9.501030922 -8.38755703 2.837158918
9.201709747 -8.139853477 3.194323301
13.15202618 -11.22977638 4.838245869
13.92405128 -11.81335068 5.731953144
44.17287827 -36.40963745 0.4215364158
50.9390831 -41.5954628 2.637709379
27.55394363 -22.87957954 3.02052927
27.60822105 -22.88835144 4.263487816
26.24631882 -21.76319313 5.275341511
9.017429352 -8.057760239 2.739532709
9.149775505 -8.148330688 3.188303947
13.7927599 -11.80720234 5.048681736
13.88232899 -11.85928249 5.732839584
44.11717606 -36.61890411 0.4272407293
27.59979248 -23.07423401 3.034436703
28.41063118 -23.68182945 4.377874851
22.23294258 -18.70038033 4.60293293
8.969090462 -8.070635796 2.735789299
9.082828522 -8.147127151 3.178711891
17.626791 -14.93905163 6.25093317
19.25452232 -16.20918655 7.66852951
44.09774399 -36.8585434 0.4326574206
29.26416779 -24.61658859 1.864796162
28.20980453 -23.68313599 4.366577625
25.9756794 -21.84592247 5.261498451
8.971459389 -8.12405777 2.743085384
9.043491364 -8.167632103 3.176367044
13.82607079 -11.9916172 5.086994648
19.20775795 -16.28202057 7.673947811
29.63516426 -25.23862076 0.5526127219
50.99303436 -42.52049255 2.677226782
26.35719299 -22.33952332 4.14480114
25.89118767 -21.92749977 5.263322353
8.97815609 -8.181316376 2.75139308
9.133552551 -8.292692184 3.208322048
14.41425705 -12.54647827 5.284706116
19.33913231 -16.49856949 7.743531704
29.55011177 -25.34186363 0.5568346381
50.6805191 -42.56097412 2.678260088
28.31895638 -24.14416313 3.124854803
26.26114655 -22.42193222 4.146569729
25.77116013 -21.97986603 5.25901556
8.983031273 -8.237460136 2.759373188
9.121322632 -8.338375092 3.213721991
15.84516716 -13.79889297 5.74838829
19.18666649 -16.48674774 7.711212635
44.1767807 -37.7124176 0.4481999576
28.87894058 -24.81810188 1.872541308
49.81098938 -42.08981323 4.918599606
25.47792244 -21.92924881 4.059435844
26.37092018 -22.63236427 5.380903721
9.374585152 -8.614718437 2.852963686
9.096568108 -8.371299744 3.215423346
15.77097034 -13.83049011 5.741670609
18.94086838 -16.4029541 7.646079063
29.32099915 -25.50759888 0.5658789873
29.06251144 -25.104599 3.209024668
25.30851173 -21.94597054 4.051410675
9.292057037 -8.613578796 2.412132502
9.620663643 -8.873731613 2.914720058
14.45377254 -12.83973312 5.343944073
18.95427322 -16.52501869 7.673609734
29.58348846 -25.9131279 0.567664206
29.47948837 -25.63541031 3.255759001
26.40950394 -23.01788139 4.207155228
9.268122673 -8.651309967 2.414326191
9.854504585 -9.128678322 2.974607468
9.02581501 -8.422176361 3.213629007
15.63814259 -13.9102354 5.733985901
18.95834351 -16.64572334 7.699131012
29.46562767 -25.99025536 0.5721295476
29.33054161 -25.72312355 1.91224885
27.47337151 -24.1162014 3.098531246
26.24660873 -23.03790092 4.199859142
9.228719711 -8.67332077 2.413515329
9.418058395 -8.820352554 2.885266781
9.806462288 -9.130867004 3.432641506
9.05853653 -8.490912437 3.662593603
18.87742805 -16.69049835 7.692654133
44.28705215 -38.87714386 0.4691613019
29.18735313 -25.77726746 1.914283037
27.93763924 -24.67618179 3.148586512
25.63188553 -22.67310333 4.133526325
9.198348045 -8.702843666 2.414303303
9.396164894 -8.85817337 2.887961149
9.720556259 -9.116886139 3.41865921
18.76698303 -16.71008301 7.675355434
44.29663086 -39.15428925 0.4745278955
30.32751656 -26.89299965 3.362592697
26.38718414 -23.47377777 4.246230125
23.63333893 -21.08711815 4.983003616
9.251110077 -8.791044235 2.863058805
9.684091568 -9.144295692 3.418027878
13.42787457 -12.31223679 5.078660488
15.54082584 -14.08585453 6.510622501
44.37120819 -39.48971176 0.479465872
28.91149902 -25.89263725 1.918700933
27.31578445 -24.47781754 3.117810488
26.28075027 -23.54218864 4.246453285
23.58786011 -21.19124413 4.990952969
9.081224442 -8.701163292 2.832396269
9.677294731 -9.197042465 3.425498724
8.995383263 -8.600117683 3.672158718
14.67430973 -13.4393568 6.209928989
44.35821533 -39.75103378 0.4850409925
28.48926353 -25.70191574 1.909684896
30.23374367 -27.18099976 3.378930092
26.2177639 -23.64793968 4.25242424
23.49850082 -21.25766945 4.99113369
9.040312767 -8.721111298 2.830670595
9.18398571 -8.830087662 3.29995513
8.957848549 -8.622461319 3.670137167
14.58610153 -13.45258331 6.195804596
44.40994263 -40.07091141 0.4901997149
28.92408371 -26.25839424 1.934481978
27.94153023 -25.36041451 3.193832636
26.22629166 -23.81637764 4.267940521
26.91716003 -24.38425446 5.621297359
9.081134796 -8.812082291 2.847484827
9.658504486 -9.298845291 3.439236641
15.44722939 -14.30991459 5.775778294
14.53726387 -13.49940014 6.196281433
41.38112259 -37.65700531 0.5156391263
41.66217804 -37.68320847 2.450695276
28.44263649 -25.97500801 3.248653889
26.28326988 -24.02853775 4.290047646
26.72732925 -24.38364792 5.60586071
8.948036194 -8.751337051 2.824840784
9.424051285 -9.153072357 3.38420105
8.500833511 -8.332886696 3.542350292
15.24838543 -14.20936012 6.480532646
41.29292679 -37.83715057 0.5213835835
41.18531418 -37.51878738 2.442742586
28.57113838 -26.26610184 3.271588326
26.27352715 -24.18330956 4.30341959
23.67017937 -21.84475327 5.071399689
8.723881721 -8.608844757 2.781232119
9.375828743 -9.168958664 3.380283356
8.457051277 -8.346984863 3.53788805
11.1724472 -10.72138023 4.973351955
44.45831299 -40.94855499 0.5065597892
40.99458694 -37.60616684 2.446188688
27.86919594 -25.81750107 3.222183466
26.27376938 -24.3561058 4.318992615
22.55036163 -20.99491119 4.884759426
8.640761375 -8.58935833 2.769658566
8.147567749 -8.139326096 3.049266577
8.487549782 -8.429364204 3.558153152
11.22703552 -10.8392458 5.008572578
44.50648499 -41.274086 0.5118673444
40.84778595 -37.74531937 2.451962709
27.65429688 -25.79961967 3.215036154
26.15291214 -24.41290283 4.317616463
22.47318649 -21.07455826 4.887659073
8.701758385 -8.698303223 2.791195393
9.291069031 -9.213394165 3.376152515
8.54062748 -8.53000164 3.585492849
11.11998367 -10.81413555 4.983089924
44.50865936 -41.55992889 0.5174874663
40.79482651 -37.94360352 2.4604671
27.51968193 -25.85296059 3.21488905
27.59478188 -25.83775902 5.841024876
8.615746498 -8.675712585 2.778930426
8.118034363 -8.21275425 3.057265759
8.600248337 -8.634795189 3.614690542
11.00751495 -10.78326511 4.955415249
44.50197983 -41.83955383 0.5231855512
59.11235046 -54.95339203 3.227987051
31.22580338 -29.41245079 3.555128098
26.39755249 -24.95994759 4.380279541
27.94384003 -26.3311615 5.925352573
8.203211784 -8.355695724 2.690828562
9.239557266 -9.281469345 3.380412102
8.679472923 -8.761137009 3.651100636
7.902386665 -8.045953751 3.790404558
44.50271225 -42.12775421 0.5288615227
28.41682625 -27.03024673 3.318421602
26.26907539 -25.01139069 4.37812233
22.67214775 -21.67917824 4.972805023
8.175492287 -8.382863998 2.691686869
8.319348335 -8.500124931 3.130895853
8.287070274 -8.458776474 3.531634092
7.87423563 -8.070770264 3.790470362
44.41274261 -42.3332634 0.5350781083
29.03689766 -27.78809929 3.386272192
26.83908844 -25.70784187 4.471833706
27.56362534 -26.33963966 5.896255016
8.753584862 -8.968244553 2.834201813
8.243530273 -8.483943939 3.118257523
8.556545258 -8.759522438 3.631279469
7.868709087 -8.116293907 3.799222231
44.45890427 -42.6673584 0.5405393839
30.39340591 -29.28323174 2.068002939
31.61227417 -30.37838554 3.630618334
26.07186508 -25.17665863 4.382778645
22.57795906 -21.88509941 4.989153862
8.89131546 -9.152838707 2.874480963
8.077550888 -8.386237144 3.080386877
8.250731468 -8.534775734 3.540297508
7.877102852 -8.174918175 3.813410282
44.45672607 -42.97290421 0.5465865135
30.19299507 -29.30391693 2.068612576
31.22591972 -30.23290825 3.610376835
26.41630173 -25.6701889 4.446112633
23.06607628 -22.49704361 5.098339081
9.397850037 -9.687325478 3.002421141
8.0167799 -8.382225037 3.071781635
8.547813416 -8.865304947 3.650025845
7.862740993 -8.215397835 3.819512844
44.49214554 -43.30158997 0.5521726012
29.41522408 -28.72605896 3.459818363
21.59820557 -21.29494858 3.791900635
22.82719803 -22.42359734 5.071155548
9.303756714 -9.660524368 2.988861799
8.027482986 -8.444914818 3.083569527
8.499832153 -8.876355171 3.644613981
7.845274448 -8.250556946 3.823928356
44.50847626 -43.61444092 0.557892561
29.77682495 -29.30683517 2.068161488
31.26553535 -30.6838398 3.641983271
21.64772415 -21.48523712 3.81200552
21.4092865 -21.22860336 4.821612358
8.782296181 -9.227737427 2.873695135
8.275333405 -8.73250103 3.163554192
8.468823433 -8.903177261 3.644911051
10.25253296 -10.57303333 4.770317554
30.00331497 -29.89632225 0.6366844773
28.57313347 -28.31013107 3.409152031
22.24807167 -22.20454025 3.909584761
26.99952698 -26.71616173 5.895983219
8.807136536 -9.309961319 2.887908697
8.203765869 -8.719358444 3.152109623
8.485572815 -8.975406647 3.661409616
10.24061966 -10.62978935 4.78053236
29.61676979 -29.72324562 0.6425266266
30.51728058 -30.42277908 2.117910624
31.58456421 -31.41124535 3.699909925
25.96478271 -25.93776512 4.447278976
28.90574265 -28.73271751 6.279379368
8.77609539 -9.339189529 2.888869524
8.036335945 -8.613637924 3.112856388
8.177939415 -8.737442017 3.567780018
10.2743206 -10.73048878 4.808712959
29.43177032 -29.74382019 0.6473245025
28.00727081 -28.1454525 3.382997751
25.58845329 -25.75666809 4.411095142
21.05463219 -21.3158989 4.804472446
10.32375431 -10.89678478 3.269358635
8.047179222 -8.681025505 3.1255548
7.932250023 -8.55815506 3.495112419
10.34347057 -10.86625195 4.851067066
29.26331902 -29.78961563 0.6522088051
29.16078568 -29.51728821 2.076593161
28.78358269 -29.10671234 3.469023466
25.44996834 -25.79555702 4.407607555
20.72410011 -21.1435051 4.758856297
9.787334442 -10.4473238 3.150390148
8.053399086 -8.741735458 3.136566877
8.121069908 -8.795497894 3.570256233
7.556854248 -8.235568047 3.768182755
29.53115463 -30.25814438 0.6549115181
29.7602253 -30.31006813 2.112063885
28.87647057 -29.39608002 3.491257906
25.40511322 -25.92592239 4.41746521
21.29001808 -21.84216499 4.884536266
8.891807556 -9.63482666 2.942923307
8.013156891 -8.757357597 3.134078264
8.130647659 -8.860354424 3.58435154
10.52977371 -11.19248867 4.956644535
29.34605408 -30.26816177 0.6594817638
29.73440933 -30.43800163 3.584985495
26.18602562 -26.87600136 4.545938015
20.99677849 -21.69862747 4.845264435
8.906037331 -9.707117081 2.954751492
8.289150238 -9.084985733 3.224556684
8.002937317 -8.790401459 3.551170826
19.10557365 -19.69811249 8.379699707
45.08941269 -46.33816147 0.5968224406
28.70332909 -29.65444756 2.082107067
29.14697456 -30.0573597 3.543662548
27.02252769 -27.89366913 4.683593273
21.35385895 -22.1932373 4.931003094
8.759109497 -9.622647285 2.927757263
8.256175995 -9.106800079 3.224090576
8.042633057 -8.882434845 3.575238466
14.81513023 -15.5796423 6.697565556
45.35177994 -46.92255783 0.6018511653
28.06485367 -29.17169571 3.454888344
25.80727768 -26.85151291 4.524497032
21.04688835 -22.03440666 4.888964176
8.732573509 -9.657250404 2.930088997
8.196791649 -9.104995728 3.21630311
7.717707634 -8.613830566 3.473183393
9.845751762 -10.72496319 4.730504513
45.40641022 -47.30062485 0.6078029871
29.48620415 -30.85391426 2.135693073
35.28293228 -36.69154739 4.158078671
25.78888321 -27.01484871 4.538935184
21.26517105 -22.403368 4.949374199
10.39770985 -11.39989281 3.349221945
8.195432663 -9.161233902 3.225732327
7.734262943 -8.684682846 3.489640236
9.813705444 -10.7618227 4.733067036
45.44777298 -47.66817856 0.6138516068
28.46748734 -30.02172852 2.098049879
27.95985985 -29.46215248 3.472267866
26.73089218 -28.15852928 4.693858147
21.39503479 -22.68647575 4.992948532
8.188280106 -9.211988449 3.233525991
7.751781464 -8.75712204 3.50658679
9.773405075 -10.79036808 4.73235178
41.39839172 -43.79976273 0.6350194216
40.54335403 -42.66487503 2.666763544
28.79170036 -30.51805687 3.566417933
26.66158867 -28.27853775 4.70174551
21.10401917 -22.54096985 4.953833103
8.860054016 -9.973460197 2.988729954
8.183608055 -9.265593529 3.242145538
7.676459312 -8.735469818 3.490997076
7.463512421 -8.506399155 3.81197691
41.05200195 -43.73888016 0.6419628859
41.23237991 -43.67234421 2.711848974
29.25891685 -31.20968437 3.626150131
26.46312904 -28.26540375 4.690663338
22.38423347 -24.01472282 5.225932121
7.972048759 -9.121589661 2.776490688
