# .PCD v0.7 - Point Cloud Data file format
VERSION 0.7
FIELDS x y z
SIZE 4 4 4
TYPE F F F
COUNT 1 1 1
WIDTH 1293
HEIGHT 1
VIEWPOINT 0 0 0 1 0 0 0
POINTS 1293
DATA ascii
17.86684799 -26.69464874 1.949316263
17.89050293 -26.69547844 3.048840761
17.87407494 -26.62872887 4.146346569
7.553143024 -11.75921249 2.674548626
3.586654902 -6.050747871 1.90750289
3.11755991 -5.369617462 1.95738399
1.881998897 -3.595257044 1.614033461
1.925603032 -3.653738976 1.758166909
2.456685305 -4.512436867 0.3386608362
3.128770351 -5.492446423 0.4117965698
4.415932178 -7.372576237 0.5318003893
17.73132706 -26.69090271 1.949329972
17.74359322 -26.67549515 3.044630289
17.74206543 -26.63022804 4.141430378
3.556231499 -6.045370102 1.90423274
7.970560074 -12.40989971 3.794850349
3.079567671 -5.342122555 2.147290468
2.83107996 -4.978060246 2.222269058
2.434103251 -4.506163597 0.3409122527
3.15973711 -5.572766781 0.4066599905
4.39560318 -7.391262054 0.5324106812
10.14960289 -15.8667078 0.830203712
17.60620499 -26.70138168 1.949990034
17.60943413 -26.67291451 3.041977882
17.60466194 -26.62290955 4.135424137
3.529229641 -6.044715881 1.902012467
8.632317543 -13.45909977 4.062619209
3.046311855 -5.327225685 2.139992476
2.60840559 -4.685726166 2.116619587
2.414916277 -4.504735947 0.34254691
3.113737822 -5.541245937 0.4107176065
4.365156651 -7.394956112 0.5336040854
10.02362251 -15.79252148 0.8315858841
17.47336388 -26.6997242 1.950109243
17.48110962 -26.67796898 3.040024519
17.47533607 -26.62647057 4.130891323
8.205709457 -12.9653635 2.873329639
3.506709337 -6.05044508 1.901195288
8.560548782 -13.44862843 4.053552628
2.96505785 -5.241692066 2.111197233
2.406790495 -4.519782066 0.342138499
3.0798738 -5.525524139 0.4133934379
4.345810413 -7.417564392 0.5341178179
9.98382473 -15.84569359 0.8333309293
17.33185768 -26.68417168 1.949607849
17.35406685 -26.68410301 3.03819561
17.32614899 -26.60936928 4.123488426
9.344250679 -14.74304295 3.17662859
3.499631405 -6.078913212 1.905305266
8.518528938 -13.48624897 4.056742668
3.028426647 -5.36965847 2.147387266
2.876291752 -5.13762331 2.269271374
2.386997223 -4.518630505 0.3437886536
3.083864927 -5.568421364 0.4113901258
4.31756258 -7.424362659 0.5351750255
17.20166016 -26.69424248 1.950277448
17.21383286 -26.67938805 3.035334826
17.19839478 -26.61333847 4.119124889
9.321858406 -14.8198452 3.18564868
3.507927418 -6.132528782 1.914731979
8.456777573 -13.48978806 4.051441669
3.027826071 -5.40267086 2.154739141
2.780081987 -5.028573513 2.228066206
2.378777266 -4.533608913 0.3433791995
3.07088995 -5.584173203 0.411511004
4.295866489 -7.443485737 0.5358145833
8.652265549 -14.05532646 0.8306863904
17.06623459 -26.685709 1.95010376
17.07946587 -26.67269135 3.032449961
17.06303596 -26.61471748 4.114242554
9.077896118 -14.5587101 3.136739492
3.446993589 -6.080774307 1.901575208
8.313727379 -13.37574673 4.015469074
3.028387308 -5.439483166 2.163098574
2.55515933 -4.723584175 2.118934393
2.357465982 -4.528558731 0.3454111218
3.053489923 -5.593199253 0.4121669829
4.276373863 -7.461045265 0.5363798738
8.697065353 -14.22443008 0.8326256871
16.93434906 -26.68157387 1.95013392
16.94427299 -26.6636982 3.029397249
16.93799782 -26.61122322 4.109264374
8.945996284 -14.46295261 3.116423607
3.417930603 -6.076298714 1.898631215
8.372337341 -13.55474949 4.055974483
2.986407995 -5.409029961 2.15135622
2.526797771 -4.710011482 2.111574411
2.342690229 -4.533435345 0.346219629
3.006828308 -5.55690527 0.4164300263
4.253434658 -7.478353977 0.537080884
8.679886818 -14.30001163 0.8342648149
16.8157959 -26.69692421 1.951048493
16.80933762 -26.65408707 3.026321888
16.80634117 -26.61636162 4.104981899
8.924397469 -14.53374481 3.12475729
8.225773811 -13.43319893 4.018276691
2.970786333 -5.421501637 2.152376652
2.744717836 -5.070104599 2.233920813
2.332641602 -4.547038078 0.3460312188
3.004610062 -5.589221954 0.4152089059
4.22833252 -7.4897995 0.537935257
8.650210381 -14.3619976 0.8359296918
16.66897011 -26.67774391 1.950422645
16.67885971 -26.66013718 3.02452898
16.67071152 -26.60464287 4.098816395
8.185922623 -13.4682436 4.021361351
3.319305897 -5.990496635 2.321277618
2.730315447 -5.081678391 2.234966993
2.317825317 -4.551812649 0.346837014
3.016131639 -5.643465996 0.4122582972
4.203201771 -7.501149178 0.5387868881
8.540818214 -14.2942915 0.8370500803
16.53888321 -26.67345428 1.95046258
16.55521584 -26.66606331 3.02286458
16.543993 -26.60566521 4.094348907
8.806847572 -14.56707954 3.122747183
3.409276724 -6.185014248 1.915938258
8.145916939 -13.50316429 4.02444315
2.911482096 -5.399688244 2.140652418
2.716601372 -5.092733383 2.235989094
2.299823284 -4.551476955 0.3482488096
2.998546362 -5.652287483 0.4129098952
4.18765831 -7.527610302 0.5390652418
8.489757538 -14.31724548 0.8384912014
16.41653252 -26.68038368 1.95101428
16.41995049 -26.65293121 3.019577026
16.42173958 -26.6128273 4.090722084
8.730067253 -14.55259514 3.11657095
3.400253534 -6.211751461 1.919702291
8.084663391 -13.50504971 4.01908493
2.90715313 -5.427710533 2.146538496
2.701806068 -5.102127552 2.236452818
2.29028964 -4.564556599 0.3480381668
3.020133972 -5.723617077 0.4086415172
4.168792248 -7.5489645 0.5395339727
8.435455322 -14.33492279 0.8399068713
16.2847271 -26.67156601 1.95086062
16.29137611 -26.64928627 3.017142057
16.28686333 -26.59929466 4.084490776
16.27383614 -26.54549408 5.155840397
3.361526012 -6.191968918 1.913566232
8.003544807 -13.47533035 4.005696774
3.34770298 -6.153944969 2.361684084
2.693176746 -5.12118578 2.240259886
2.279645681 -4.575923443 0.3480296433
2.985426188 -5.705326557 0.4114201069
4.148775101 -7.56856823 0.5400650501
8.531326294 -14.59341812 0.8422785997
16.15956688 -26.67230034 1.951143384
16.16195679 -26.6433773 3.014540672
16.15547562 -26.59018517 4.078883648
16.14792061 -26.54498482 5.148953438
7.711615562 -13.13202667 3.386364937
7.941531658 -13.47494984 3.99989295
3.362352848 -6.217969894 2.377947092
2.735835075 -5.221363068 2.271948338
2.276250601 -4.599121094 0.346606046
2.932027578 -5.65627861 0.416577071
4.128668785 -7.588115215 0.5405953526
16.03565407 -26.67416763 1.951482892
16.03911972 -26.64703369 3.012795448
16.023283 -26.57878876 4.073038578
9.072685242 -15.42189598 3.253332853
7.642510891 -13.11703682 3.378844738
7.887925625 -13.48754215 3.997459412
3.314749956 -6.18362093 2.364794254
2.732848644 -5.250336647 2.279112577
2.263388157 -4.607056618 0.3470019102
2.935462713 -5.701049805 0.4144647717
4.091769695 -7.580327511 0.5421271324
9.120587349 -15.76922512 0.8499089479
15.89722824 -26.65167999 1.950727582
15.91119576 -26.64166832 3.010298729
15.89034748 -26.56508255 4.066954613
8.9799757 -15.38606644 3.243491411
7.677431107 -13.26894569 3.40672946
7.857034206 -13.5364399 4.004316807
3.29305625 -6.190151691 2.363894939
2.729694128 -5.279341698 2.286279917
2.246372461 -4.608141422 0.3482036591
2.959124327 -5.777810097 0.4098214209
4.06315279 -7.588449478 0.5431255102
9.070734024 -15.80436993 0.8515120745
15.77689075 -26.65752029 1.951256871
15.78351974 -26.63572121 3.007781029
15.76462173 -26.57216644 4.063364506
15.76105785 -26.52322197 5.125316143
7.585429668 -13.21678448 3.391406059
7.736444473 -13.44520855 3.975302458
3.262272358 -6.183969021 2.359095335
2.983038902 -5.723209381 2.435216427
2.225656271 -4.604424 0.350027144
2.949342489 -5.800087452 0.4094148278
4.044993401 -7.611150742 0.5435240865
8.986634254 -15.78284836 0.8528634906
15.64910412 -26.66043282 1.95167315
15.65191841 -26.62238503 3.004655123
15.64048481 -26.57083702 4.05896759
15.62947559 -26.51977539 5.117912292
7.478504181 -13.13893414 3.370743513
7.743299484 -13.55536366 3.997797489
2.771096945 -5.416003704 2.327421904
2.218515873 -4.620341778 0.3493912518
2.933300734 -5.812075615 0.4098002315
4.023785591 -7.626245499 0.5441356301
8.865782738 -15.69916344 0.8539226055
15.5366869 -26.66761971 1.952260494
15.53400707 -26.63064766 3.003418922
15.50212765 -26.54515076 4.051519871
15.52146816 -26.53402138 5.114215851
7.705917358 -13.61086273 3.466047287
3.246078253 -6.239046097 2.370021343
2.881033659 -5.632243156 2.398273706
2.208618164 -4.633213997 0.3491780162
2.916198015 -5.822292328 0.4103160203
3.998133183 -7.639232159 0.544940114
8.828414917 -15.7540617 0.8555899858
15.40245152 -26.64787865 1.951649427
15.41625309 -26.63838768 3.002164125
15.38704109 -26.54682922 4.047812939
15.40295029 -26.54032516 5.108923435
7.651088238 -13.62069893 3.463846207
7.616799831 -13.54687786 3.984828711
3.236278057 -6.265215397 2.375010252
2.195994377 -4.643013 0.349386245
2.904262304 -5.843282223 0.4100674987
3.974470377 -7.655564308 0.5456184745
8.759714127 -15.76218605 0.8571107388
15.27017879 -26.64048004 1.95161581
15.27985859 -26.62428284 2.998963356
15.2611084 -26.54991341 4.043924809
15.26282024 -26.51988602 5.098884583
7.593047619 -13.62993431 3.461349487
7.526958942 -13.50240421 3.968018293
7.733961105 -13.82621098 4.605989456
2.018598318 -4.270574093 1.930433989
2.180325508 -4.647610664 0.3501960337
2.891071796 -5.860293388 0.4100562036
3.946878433 -7.662494183 0.5465676785
8.632546425 -15.6698513 0.8581423759
15.15134239 -26.65485573 1.952572584
15.1528616 -26.62500954 2.99706769
15.14041424 -26.56098557 4.041101456
15.12911606 -26.5089798 5.090537071
7.579136372 -13.71345043 3.474475622
7.801475048 -14.06654549 4.104933739
7.697009563 -13.87263298 4.612824917
2.011017323 -4.286153316 1.933601618
2.162316561 -4.646595955 0.3515865505
2.880791187 -5.882457733 0.4096516967
3.922295332 -7.674501419 0.5473291874
8.619093895 -15.76561832 0.8599931598
15.02903557 -26.6522789 1.952753544
15.02757072 -26.61735344 2.994573832
15.02131367 -26.56376839 4.037475586
15.01119709 -26.51361656 5.085185528
7.498233318 -13.67860413 3.463017941
7.790798187 -14.15420818 4.12157011
2.743842363 -5.562970638 2.159857512
2.036128998 -4.3559618 1.955205321
2.145330429 -4.647227764 0.3527736664
2.876352549 -5.914994717 0.408462584
3.898669004 -7.688154697 0.5480271578
8.597098351 -15.84760094 0.8617841601
14.91694355 -26.66646194 1.953698039
14.90251827 -26.60913849 2.992059708
14.88840294 -26.54196167 4.030786037
14.89541817 -26.52116776 5.0803895
7.614726543 -13.98182201 3.522311211
7.786493301 -14.25377464 4.141183853
3.145813942 -6.28893137 2.370928288
2.023937225 -4.362998486 1.955565214
2.112638474 -4.620102882 0.3571629226
2.855925322 -5.919811249 0.4093684554
3.882916212 -7.71561718 0.5482348204
8.586522102 -15.95046043 0.8636868596
14.77608585 -26.62991524 1.952351332
14.78863049 -26.6193924 2.991154909
14.76576424 -26.53676414 4.026250362
14.76789284 -26.5076561 5.072134018
7.459494114 -13.81902122 3.484170198
7.776682377 -14.34501648 4.158687115
3.140428782 -6.32329464 2.378376961
2.015576601 -4.376635551 1.958162189
2.095794201 -4.62053299 0.3583419919
2.847273111 -5.945401192 0.4087049961
3.857179165 -7.725652218 0.549051702
8.535603523 -15.9770956 0.8651379347
14.65446091 -26.62569237 1.952472448
14.67046928 -26.61101341 2.988767385
14.64630222 -26.53620338 4.022347927
14.64065742 -26.4935627 5.063857079
7.522045612 -14.02798653 3.523876429
7.700185299 -14.32107353 4.147338867
3.135805845 -6.359366894 2.386321306
1.998180509 -4.373267651 1.955144644
2.078645945 -4.618791103 0.3596998453
2.82580328 -5.948352814 0.4097381532
3.835546732 -7.740149975 0.549649179
8.488828659 -16.01723862 0.8667245507
14.54539394 -26.63232613 1.953074455
14.5450716 -26.59946632 2.986046791
14.53388596 -26.54722977 4.019953251
14.526968 -26.49187279 5.058013916
16.71794701 -30.31315613 6.909584045
16.70513916 -30.23985672 8.121947289
7.253767014 -13.62397003 4.508683205
2.07343626 -4.639957905 0.35847646
2.818880558 -5.977387905 0.4088152349
3.813638926 -7.75699234 0.5502191186
8.436032295 -16.04676056 0.8682531714
14.42609406 -26.63057137 1.953317165
14.4228754 -26.59257317 2.983751535
14.41436005 -26.53449249 4.014794827
14.40897751 -26.49220848 5.052283287
16.57493019 -30.30077362 6.89797163
7.637783527 -14.42564392 4.163184166
7.230878353 -13.68785667 4.521313667
2.545124531 -5.396121025 2.294124126
2.063307285 -4.652417183 0.3582528532
2.125215769 -4.760042667 0.5006102324
3.794321299 -7.781429768 0.5505808592
14.30600452 -26.62656021 1.95346272
14.30187702 -26.58688354 2.981585741
14.28804111 -26.52968979 4.010313034
14.29212856 -26.49376869 5.046822548
16.4360466 -30.29463387 6.88776207
7.579213142 -14.43804169 4.16079998
7.229066372 -13.79525566 4.54633522
2.519860744 -5.388175011 2.288978577
2.036265612 -4.63550806 0.3614378572
2.091011763 -4.731030941 0.5037420392
2.120208263 -4.778010368 0.6547012925
2.112614393 -4.759306908 0.8088521957
2.126569748 -4.759147644 0.9624621272
2.140203714 -4.750710487 1.907821059
2.119345665 -4.707919121 2.059133053
2.028008223 -4.651359081 0.3608124852
2.069120884 -4.722517967 0.5052896738
2.085998297 -4.748852253 0.6563652158
2.090553522 -4.750833988 0.8091477156
2.103492737 -4.749002934 0.9620526433
2.109935999 -4.755954742 1.116297364
2.109003544 -4.749402046 1.270300746
2.122357845 -4.767223358 1.429146767
2.119023323 -4.756164074 1.585135102
2.10457015 -4.724831104 1.737285018
2.111926556 -4.733016491 1.9008286
2.100345373 -4.705156803 2.056152582
2.006498575 -4.642643452 0.3629746735
2.046366453 -4.712142467 0.506962657
2.059043169 -4.729342461 0.6576238275
2.058140993 -4.722887993 0.8093287945
2.078610897 -4.735229015 0.9614790678
2.081214666 -4.735235691 1.114291072
2.090494156 -4.745872974 1.269351602
2.092698336 -4.74503088 1.424634337
2.094172716 -4.742768288 1.581235647
2.081485748 -4.712883472 1.732967734
2.09073019 -4.724649429 1.896752119
2.081390619 -4.702309132 2.053169012
1.990678549 -4.644367218 0.3639392853
2.03121686 -4.715746403 0.5075962543
2.035618544 -4.719224453 0.6586157084
2.033489227 -4.708874702 0.8095832467
2.054793596 -4.723089695 0.9609799981
2.059284449 -4.726655006 1.113324761
2.065963984 -4.734237671 1.26734221
2.066983938 -4.729644299 1.421267748
2.07786417 -4.744826794 1.580545545
2.065542698 -4.717006207 1.732514143
2.061805725 -4.704974174 1.889254212
2.067066669 -4.707808018 2.052986383
1.97514987 -4.648130417 0.3647211492
2.00860858 -4.705172539 0.5092613101
2.015762568 -4.713937283 0.6594057679
2.012040377 -4.702157974 0.809892416
2.040763617 -4.730583191 0.9613750577
2.040526628 -4.725362778 1.112971902
2.039410591 -4.716856956 1.264650822
2.05754447 -4.745888233 1.423106909
2.045090914 -4.717691422 1.573796988
2.050266981 -4.720708847 1.732039928
2.048403502 -4.712100983 1.889630556
2.045684338 -4.701780319 2.04889369
1.964880466 -4.660306454 0.3644901514
1.987024784 -4.696255684 0.5107927322
2.006179571 -4.728032589 0.6595404148
2.000628233 -4.712694168 0.8102841973
2.01523447 -4.714705467 0.9607073665
2.025274754 -4.728919029 1.113046885
2.018587112 -4.709879398 1.26327002
2.034774065 -4.735537052 1.420597911
2.034449577 -4.729985237 1.575244665
2.0248909 -4.705376625 1.726877928
2.033152819 -4.715760231 1.88901782
2.023237228 -4.69190979 2.043655872
1.949054837 -4.661855221 0.3654492795
1.975646377 -4.706717491 0.5109028816
1.985455394 -4.720824242 0.6603842974
1.985471368 -4.716102123 0.8106327653
2.000047445 -4.718165398 0.9609181881
2.011874676 -4.735949039 1.113420248
2.003386974 -4.713360786 1.263202786
2.012099743 -4.725074768 1.418084502
2.014575005 -4.724841595 1.573114991
2.001470327 -4.693372726 1.722562671
2.01880908 -4.721072674 1.888897419
2.011659622 -4.702289104 2.04515028
1.921416998 -4.640327454 0.3689828515
1.961478591 -4.711823463 0.5113984942
1.967555523 -4.718847752 0.6610474586
1.972149491 -4.723005295 0.8110011816
1.982094049 -4.716247082 0.9608855247
1.988326073 -4.723470211 1.112139583
1.996457815 -4.732646942 1.265111208
1.988610148 -4.71274662 1.415277243
1.999317646 -4.728327751 1.572771192
1.988127232 -4.700295448 1.722931981
1.999055147 -4.716033936 1.885810018
2.000927687 -4.714332104 2.047205687
1.879493475 -4.59028244 0.3756784201
1.952743649 -4.7275424 0.5111216903
1.955150485 -4.727474689 0.661355257
1.950605512 -4.713837147 0.8112688661
1.967839956 -4.721355915 0.9611728787
1.967630863 -4.716192245 1.111305237
1.977552533 -4.728974342 1.264161944
1.981599092 -4.731939793 1.417670012
1.98044014 -4.724764824 1.570993423
1.986462831 -4.729717255 1.728844285
1.982042432 -4.716062546 1.884202242
1.984817505 -4.716132164 2.04589057
1.863071203 -4.589727402 0.376821667
1.931304216 -4.718315125 0.5126416683
1.941807389 -4.734276772 0.6617206931
1.936388731 -4.7188344 0.8116220832
1.95993948 -4.738868237 0.9620249271
1.95881772 -4.731897831 1.112424612
1.96141839 -4.730523109 1.263869643
1.971770048 -4.745847702 1.41919589
1.963408351 -4.724618912 1.569928646
1.972100019 -4.734848976 1.728786588
1.97215271 -4.729801655 1.886548638
1.964320779 -4.709337234 2.041763783
1.8502388 -4.59622097 0.3771716654
1.918902636 -4.726825237 0.5128760934
1.934720278 -4.753538132 0.661676228
1.9284513 -4.73628521 0.8120535612
1.939298749 -4.731413841 0.9617428184
1.950821161 -4.749367237 1.113695145
1.946196198 -4.733779907 1.263795495
1.960073471 -4.756206512 1.420142889
1.957115889 -4.74544239 1.573162079
1.956837654 -4.738187313 1.728300571
1.96219039 -4.743518353 1.888895035
1.93865025 -4.692193985 2.034260511
1.842695832 -4.613364697 0.3763352633
1.910022497 -4.742442608 0.5125977397
1.915046573 -4.74774313 0.6624481678
1.922198057 -4.757307529 0.8125090003
1.927704215 -4.7417202 0.962269187
1.945411205 -4.772174358 1.115419507
1.940810442 -4.756505966 1.266144156
1.942981005 -4.75592804 1.419351459
1.949816465 -4.764510632 1.576038361
1.947746754 -4.753672123 1.730801702
1.954783797 -4.762398243 1.892726183
1.924409151 -4.697173595 2.034060478
1.840329289 -4.641214848 0.3743154705
1.89664197 -4.749094009 0.5129588842
1.904289484 -4.759782314 0.6626357436
1.912277222 -4.771161556 0.8129190207
1.917837977 -4.755571365 0.962957859
1.924746513 -4.764644146 1.114576817
1.929075241 -4.766791344 1.266950369
1.931224465 -4.766197205 1.420296311
1.938002825 -4.774777889 1.577122092
1.936819434 -4.765647411 1.732448936
1.946397305 -4.779541969 1.896063566
1.912746668 -4.707242966 2.035546303
1.833426118 -4.660150528 0.3732845485
1.888499975 -4.766456127 0.5125528574
1.895224929 -4.775385857 0.662707448
1.902284861 -4.784992695 0.813329041
1.909666538 -4.772984505 0.9638098478
1.910339117 -4.769535542 1.114789248
1.920815587 -4.78416872 1.268639088
1.921174884 -4.779979706 1.42182076
1.928767204 -4.790295601 1.579281807
1.935397625 -4.79683876 1.738796234
1.933601737 -4.787998199 1.89692533
1.705023766 -4.323898792 1.908206582
1.818617582 -4.662956715 0.3740280271
1.88044858 -4.785935879 0.5120384097
1.887821674 -4.794570446 0.6626640558
1.890470028 -4.795202255 0.8137151599
1.904910088 -4.797567844 0.964989543
1.909074545 -4.801239491 1.117271543
1.914209962 -4.805104256 1.270770431
1.921518922 -4.81505394 1.426827192
1.923783541 -4.814626694 1.58323741
4.011726379 -9.046837807 2.774082422
2.111091614 -5.176402569 2.18538475
1.802949548 -4.663910866 0.3749665916
1.866056681 -4.790681839 0.5125252008
1.887416244 -4.830296993 0.6621218324
1.895957232 -4.841418266 0.8143452406
1.899131536 -4.82036829 0.9660895467
1.909356713 -4.836567879 1.120060325
3.967344284 -9.067200661 1.797378302
3.982713461 -9.084811211 2.122817993
3.976075411 -9.060688972 2.444622278
3.977351665 -9.052616119 2.772743702
1.719212294 -4.420378208 1.789143682
2.091792583 -5.175067902 2.182970524
1.797742128 -4.688486576 0.373363167
1.862795353 -4.818810463 0.5113579035
1.879731297 -4.849497318 0.6620821357
3.914499998 -9.112402916 0.8440378904
3.936428308 -9.100255013 1.161184192
3.941854715 -9.101374626 1.479999185
3.935275078 -9.073786736 1.797250509
3.94567585 -9.085033417 2.121291876
3.941695213 -9.066269875 2.443621159
3.934210777 -9.036464691 2.766228676
1.706815958 -4.426315308 1.789471149
1.678190589 -4.362431526 1.915942192
1.778634191 -4.682145119 0.3750854731
1.865317225 -4.859600544 0.5093045831
3.38381362 -8.072419167 0.5606369972
3.884119511 -9.122390747 0.8447660804
3.902607441 -9.103096962 1.161445975
3.908008099 -9.104244232 1.479843378
3.898067474 -9.069489479 1.795790434
3.903311729 -9.070127487 2.117396832
3.905361891 -9.06393528 2.441139936
3.903062344 -9.044774055 2.765697241
1.697752595 -4.439196587 1.791781068
2.926276922 -6.990371704 2.77008152
1.769687295 -4.697362423 0.374447912
2.468988419 -6.188062191 0.4169781208
3.361345053 -8.089621544 0.5611198545
3.841578245 -9.10261631 0.8452498317
3.867114544 -9.10218811 1.161538363
3.868802786 -9.091882706 1.478428841
3.862641335 -9.068622589 1.794767499
3.867867708 -9.069336891 2.115820646
3.864625692 -9.048330307 2.436097622
3.869381428 -9.047676086 2.763878107
1.681130886 -4.436309338 1.789626598
2.920735836 -7.031144619 2.780755281
1.767999649 -4.726708889 0.3722238839
2.443864822 -6.18216753 0.4184706211
3.340893984 -8.10798645 0.5615119338
3.806199789 -9.101453781 0.8458916545
3.834800243 -9.104083061 1.161753297
3.829983234 -9.083630562 1.477349281
3.826425791 -9.065810204 1.79351747
3.838113308 -9.076688766 2.115657091
3.827628613 -9.043894768 2.433244705
3.836327553 -9.048009872 2.761588573
1.668475747 -4.44007206 1.789438128
2.885186672 -7.01171875 2.771737576
1.755519271 -4.734679699 0.3723726869
2.409661293 -6.156203747 0.4213498831
3.322433233 -8.134140015 0.5617088079
3.774224281 -9.107413292 0.8465803862
3.797719002 -9.099267006 1.161670208
3.807216644 -9.109577179 1.479159117
3.790026665 -9.058581352 1.791781187
3.808592081 -9.088181496 2.116109371
3.792375088 -9.042864799 2.431105375
3.797755957 -9.04002285 2.757189512
1.654372454 -4.442320824 1.788768053
2.870953798 -7.037311554 2.777368307
1.747117639 -4.751672745 0.3715411723
2.3814466 -6.142787457 0.4233372211
3.294291019 -8.142631531 0.5625041127
3.738930941 -9.105969429 0.8472123742
3.764890432 -9.103369713 1.161995649
3.771822453 -9.108285904 1.478679776
3.756685019 -9.065146446 1.791667223
3.769920349 -9.079803467 2.113354445
3.763771534 -9.055980682 2.431842327
3.755396366 -9.027200699 2.7515347
3.769157648 -9.04604435 3.087536573
1.577210903 -4.303627491 1.889326811
1.733053088 -4.758063793 0.3719017804
2.386133432 -6.202039719 0.4202730954
3.267390251 -8.150444984 0.5632639527
3.705557823 -9.112316132 0.8479291201
3.732295752 -9.111633301 1.162519693
3.730914593 -9.098424911 1.477468252
3.728894711 -9.079971313 1.792623639
3.728283167 -9.068304062 2.110046625
3.730413675 -9.06248951 2.431172371
3.721931934 -9.02951622 2.749694347
2.210204601 -5.721916199 2.147042513
2.387756348 -6.101936817 2.469437838
1.721255779 -4.767739296 0.371852845
2.368483305 -6.212168694 0.4206179082
3.248630524 -8.176410675 0.5634583235
3.665453911 -9.09963131 0.8484697342
3.695386171 -9.106369019 1.16242063
3.694020748 -9.093186378 1.476671696
3.694504976 -9.080210686 1.791798353
3.697991848 -9.077604294 2.110194445
3.69037962 -9.050299644 2.426856279
3.690915346 -9.037038803 2.749136686
2.204445839 -5.754236698 2.154430866
2.374181509 -6.120648384 2.473289967
1.705393791 -4.76827383 0.3727803528
2.348368883 -6.21676302 0.4213388562
3.226490498 -8.195023537 0.5638772845
3.628731251 -9.09407711 0.8490577936
3.661811829 -9.108248711 1.162649155
3.655590773 -9.0841465 1.47556293
3.656907082 -9.073055267 1.790077925
3.667688847 -9.086789131 2.110338688
3.658526182 -9.0558815 2.426139832
3.655894756 -9.035531044 2.746429443
2.193713188 -5.775976181 2.158840179
2.356564522 -6.130581379 2.474320412
1.686361313 -4.761449337 0.3744865656
2.317849159 -6.197508812 0.4236909449
3.207470417 -8.22089386 0.5640714765
3.596906424 -9.099360466 0.8497234583
3.616959095 -9.084406853 1.161703348
3.622102976 -9.085883141 1.475367188
3.620210648 -9.067555428 1.7885741
3.628528357 -9.075974464 2.107268572
3.6250844 -9.057743073 2.424697638
3.624895334 -9.042805672 2.745863676
3.624158621 -9.03024292 3.071567297
2.333428621 -6.128192425 2.471398354
1.673725486 -4.769151211 0.3746286333
2.307206631 -6.226126194 0.4227967858
3.178763151 -8.224710464 0.5649349093
3.563494205 -9.100852013 0.8503571153
3.583546638 -9.085974693 1.161920309
3.588647604 -9.087485313 1.475166917
3.588400126 -9.072813988 1.788401484
3.591877937 -9.070420265 2.10506773
3.593256235 -9.063075066 2.423973083
3.583641529 -9.026729584 2.739711523
3.593960285 -9.03920269 3.07129097
1.654778481 -4.762176514 0.3763291538
2.286297798 -6.228653908 0.423635751
3.1519382 -8.236316681 0.5656043291
3.530119419 -9.102209091 0.8509861231
3.553339958 -9.094747543 1.162468553
3.548080683 -9.072490692 1.473579764
3.554368496 -9.076747894 1.788037658
3.555315018 -9.064709663 2.102861166
3.561434984 -9.068285942 2.423244715
3.548941612 -9.028981209 2.737883329
2.067539215 -5.630262375 2.112894535
2.165659666 -5.845460415 2.376309156
1.636787534 -4.759068012 0.377653271
2.267739534 -6.23661232 0.4240966141
3.124795675 -8.243596077 0.5663499832
3.49063921 -9.09300518 0.8515598178
3.515379429 -9.089330673 1.162376404
3.511749268 -9.070746422 1.473096728
3.520212173 -9.076280594 1.787187457
3.521322966 -9.068539619 2.102146149
3.524291992 -9.064953804 2.420740843
3.517252922 -9.034064293 2.736874104
2.126329422 -5.811594486 2.162076235
2.258805513 -6.110275269 2.459243774
1.625679135 -4.77027607 0.3774012029
2.236764193 -6.215070248 0.4265559018
3.103845358 -8.265515327 0.566650629
3.455815792 -9.090390205 0.8521494865
3.486751556 -9.101531029 1.163084865
3.481589794 -9.07925415 1.473496318
3.481425047 -9.064706802 1.78499198
3.491886854 -9.078904152 2.102561951
3.485560894 -9.053622246 2.416750193
3.483260393 -9.033639908 2.734571457
2.126600504 -5.859872341 2.173952341
2.036003113 -5.64210844 2.307123184
1.616044402 -4.78512907 0.3767597973
2.217487574 -6.221012592 0.4271356165
3.082784176 -8.287377357 0.5669506192
3.424133539 -9.095012665 0.8527926803
3.44722724 -9.08784771 1.162609458
3.452963114 -9.091323853 1.474200726
3.44817853 -9.065777779 1.784354448
3.459338903 -9.081873894 2.101803541
3.455389261 -9.062044144 2.416730642
3.448551655 -9.031282425 2.731833935
2.094750166 -5.833332062 2.164920092
2.014781713 -5.638529778 2.30414176
1.602531672 -4.79076004 0.3770901859
2.216474295 -6.271167755 0.4247204959
3.053967476 -8.290705681 0.5677998662
3.390935898 -9.095817566 0.8534021974
3.412452459 -9.085055351 1.162634254
3.425834179 -9.106972694 1.475210667
3.416497231 -9.070385933 1.784159899
3.421466589 -9.071941376 2.098990679
3.422154903 -9.063102722 2.415260792
3.410123587 -9.019776344 2.726940155
2.081887007 -5.851268768 2.168333054
2.033823252 -5.730332851 2.331688643
1.587495089 -4.792657375 0.3778075874
2.200791597 -6.286272049 0.424677074
3.028194189 -8.301324844 0.5684262514
3.362319946 -9.107596397 0.8540972471
3.378505468 -9.083967209 1.162738323
3.389496565 -9.100419044 1.474366307
3.382548332 -9.06936264 1.78328979
3.385221958 -9.065499306 2.096757174
3.388959408 -9.064026833 2.413786173
3.379320145 -9.026135445 2.726342916
1.993704915 -5.68858242 2.121422529
1.982824683 -5.655893326 2.306087017
1.567247868 -4.781576633 0.3798807561
2.180535078 -6.290232182 0.4253795147
3.003889322 -8.315558434 0.5689406991
3.32163763 -9.08962059 0.8545470238
3.34687233 -9.088291168 1.163092136
3.351735353 -9.090022087 1.473206997
3.351660013 -9.075557709 1.783310771
3.352070808 -9.066227913 2.095690966
3.346820354 -9.042991638 2.407962322
3.344050884 -9.021544456 2.723159313
1.969461083 -5.677550316 2.116845846
3.350725651 -9.015617371 3.376221657
1.556704402 -4.79443121 0.3794303834
2.158795834 -6.290409088 0.4263280034
2.986961126 -8.348267555 0.5689085722
3.287085295 -9.086310387 0.8551116586
3.314504147 -9.090641022 1.163357019
3.315582037 -9.083157539 1.472350717
3.314045429 -9.065063477 1.781310558
3.321931601 -9.074154854 2.095793724
3.307099342 -9.027225494 2.403216362
3.309589386 -9.01861763 2.720401049
1.99144721 -5.779376984 2.143673658
1.905713201 -5.562956333 2.27294445
1.546093702 -4.807255745 0.3789798319
2.146645308 -6.314621449 0.425660491
2.962470055 -8.362366676 0.5694208741
3.254069328 -9.086574554 0.8557020426
3.278444052 -9.083590508 1.163191795
3.28545785 -9.090948105 1.472727299
3.279510021 -9.061782837 1.780201316
3.28734684 -9.070961952 2.094131947
3.27487731 -9.029529572 2.402087688
3.273726702 -9.011928558 2.716775894
1.993140459 -5.832929134 2.15705061
1.885681748 -5.560625076 2.270507336
1.537588477 -4.82561636 0.3779488206
2.129246712 -6.325808525 0.4258614779
2.936447144 -8.372666359 0.570039928
3.225450993 -9.09359169 0.8563165069
3.245417118 -9.083820343 1.163362145
3.253075123 -9.088793755 1.47229147
3.25164628 -9.074982643 1.781107187
3.250631809 -9.062110901 2.091583967
3.246296644 -9.036622047 2.402008057
3.23868084 -9.006901741 2.713576078
1.963541985 -5.809229851 2.14898324
1.869361401 -5.565013885 2.270312071
1.522457123 -4.825139046 0.3788360953
2.121922731 -6.362987518 0.4243283868
2.908791542 -8.374913216 0.5708419085
3.191041708 -9.089881897 0.8568668962
3.212396622 -9.079640388 1.163323164
3.211283445 -9.066664696 1.470178604
3.214995861 -9.065896988 1.779315114
3.221256495 -9.067270279 2.091346741
3.220608234 -9.055152893 2.404135704
3.210882664 -9.015701294 2.713785887
1.957114697 -5.840866089 2.156357527
1.855039954 -5.576797962 2.272399902
1.503813028 -4.817433357 0.3805100918
2.104329824 -6.374097824 0.4245291352
2.884297848 -8.392990112 0.5712705255
3.156689644 -9.086034775 0.8574122787
3.17946744 -9.079606056 1.163484097
3.175469398 -9.059211731 1.469299793
3.175544024 -9.044994354 1.776134729
3.21419096 -9.13368988 2.100841522
3.207007885 -9.104741096 2.412430048
3.200140953 -9.076429367 2.726135492
3.201285362 -9.064148903 3.047249556
1.495159864 -4.837821484 0.379300952
2.063023567 -6.325810909 0.428701669
2.863980293 -8.422197342 0.57137537
3.120980024 -9.082591057 0.8579857945
3.149441004 -9.091184616 1.164188743
3.147639513 -9.076340675 1.470469236
3.142712355 -9.049116135 1.775937676
3.186717033 -9.15273571 2.102728844
3.182427883 -9.131040573 2.416042566
3.179817915 -9.113513947 2.732882261
3.180212021 -9.099199295 3.054446697
2.156018019 -6.451582432 2.546288252
1.48288095 -4.84887886 0.3790572584
2.010374784 -6.243314743 0.4350605011
2.837749004 -8.432151794 0.5719858408
3.088158131 -9.086482048 0.8586187363
3.110855103 -9.080237389 1.163859129
3.113339424 -9.076607704 1.470236301
3.104234457 -9.038251877 1.773935676
3.156321764 -9.164298058 2.103437185
3.149261713 -9.135230064 2.415297031
3.143950462 -9.106244087 2.729238749
3.147817135 -9.105275154 3.053653479
2.108641624 -6.38954401 2.524662971
1.473308325 -4.865240574 0.3782189786
2.01336503 -6.308300018 0.4316735566
2.810086012 -8.438269615 0.5727007389
3.058181286 -9.093455315 0.859247148
3.075222969 -9.072327614 1.163661957
3.083318233 -9.083662033 1.470588446
3.074315786 -9.045275688 1.774146318
3.130828381 -9.18446064 2.105581284
3.129392147 -9.170013428 2.42069006
3.106095791 -9.093347549 2.724294662
2.077703238 -6.366322041 2.515473604
1.460206032 -4.872240543 0.3783441484
2.013853788 -6.367753029 0.4286631644
2.784494638 -8.449910164 0.5732525587
3.026846409 -9.092288971 0.8597733378
3.045269489 -9.07924366 1.164148569
3.04983902 -9.076997757 1.469812989
3.040916681 -9.042877197 1.7732265
3.087279558 -9.119607925 3.052988768
1.791166186 -5.660503864 2.290785313
1.443678379 -4.867720127 0.379607141
1.946960092 -6.243473053 0.4376994967
2.760173082 -8.460983276 0.5737721324
2.990003586 -9.080256462 0.8602278829
3.015345335 -9.08177948 1.164426565
3.008799553 -9.053890228 1.467660666
3.011697531 -9.051533699 1.773655295
3.056957483 -9.159088135 2.099515915
3.039909363 -9.102468491 2.40453887
3.053961515 -9.125121117 2.728177786
1.74488461 -5.593954086 2.079825163
1.642531991 -5.312594414 2.179436684
1.435948372 -4.889605999 0.3781910539
1.966267705 -6.355409622 0.4312517643
2.742636442 -8.495019913 0.5736840367
2.958727121 -9.083111763 0.8608106971
2.985377312 -9.088479996 1.164906621
2.978212595 -9.058691025 1.467843294
2.975008726 -9.035306931 1.771114707
3.0232234 -9.15664959 2.098112583
3.015168428 -9.124038696 2.407377958
3.025038958 -9.135649681 2.728836775
1.691590309 -5.500005245 2.052699327
1.75493753 -5.665567875 2.289282322
1.428753734 -4.913361073 0.376584053
1.952635288 -6.377292156 0.4307017326
2.715502501 -8.506906509 0.5742610097
2.926120043 -9.082082748 0.8613556027
2.948622942 -9.076273918 1.164516449
2.947633505 -9.063379288 1.468022227
2.938325644 -9.027420998 1.769535303
2.992243052 -9.161514282 2.097884178
2.980920315 -9.119654655 2.405121565
2.977302074 -9.098874092 2.718285561
1.838075757 -5.955611229 2.176631689
1.601561427 -5.29680872 2.171631098
1.418724179 -4.931729317 0.3755705059
1.940202236 -6.402910233 0.4299074709
2.694968462 -8.533311844 0.5743844509
2.890791416 -9.077659607 0.8618938327
2.911903143 -9.068185806 1.164325953
2.913614035 -9.06282711 1.467760205
2.908512115 -9.03384304 1.7697258
2.950475931 -9.140707016 2.093551874
2.946630239 -9.119343758 2.403620243
2.945832014 -9.10178566 2.717205524
1.830114484 -5.989269257 2.184537411
1.59049046 -5.317023277 2.176538229
1.403394222 -4.932909966 0.3762685657
1.886850476 -6.311645031 0.4366948307
2.667035103 -8.538898468 0.57508564
2.86224103 -9.087692261 0.8625329733
2.88269186 -9.076395035 1.164879918
2.884392738 -9.071033478 1.468244553
2.88266921 -9.051394463 1.771269679
2.914309263 -9.130387306 2.090951204
2.912505627 -9.114683151 2.401353598
2.916996479 -9.111935616 2.717851639
1.806358457 -5.979148865 2.180434227
1.578144073 -5.331521988 2.179725409
1.394551516 -4.952857018 0.3750476241
1.887532473 -6.374824524 0.4334512353
2.643008232 -8.555725098 0.5754694939
2.8258214 -9.074941635 0.8629600406
2.849507332 -9.073181152 1.164908409
2.847911358 -9.058430672 1.467001081
2.848861217 -9.046357155 1.77009654
2.883481741 -9.134852409 2.090708494
2.890167952 -9.143285751 2.405639887
2.884242535 -9.11093235 2.715898275
1.90158546 -6.306842804 2.268941879
1.529389977 -5.242893696 2.150542498
1.381742001 -4.961482048 0.3749769628
1.877485752 -6.407842636 0.4321662188
2.619549036 -8.57436657 0.5757995248
2.789517641 -9.062038422 0.8633810282
2.82094717 -9.083055496 1.165542603
2.820663452 -9.072060585 1.467948675
2.817080498 -9.046816826 1.76959765
2.856538534 -9.150418282 2.092236042
2.849622011 -9.119812965 2.399720907
2.854090214 -9.117179871 2.715672255
1.740044117 -5.903736115 2.157191992
1.544371367 -5.335071087 2.178146839
1.381662488 -5.005676746 0.3712529242
1.850651264 -6.391673565 0.4340509176
2.595985174 -8.592939377 0.576128602
2.763728857 -9.075026512 0.8640125394
2.787970066 -9.07532692 1.165356159
2.789630175 -9.070017815 1.467605829
2.784176111 -9.039150238 1.768156886
2.823917866 -9.144822121 2.090476036
2.822203398 -9.129150391 2.400325298
2.81124711 -9.08638382 2.706782103
1.726465702 -5.918578625 2.160064936
1.520151615 -5.312918663 2.1699512
1.367296338 -5.012617111 0.3713904619
1.80912447 -6.334033489 0.4386280179
2.564658403 -8.592921257 0.5770051479
2.729962349 -9.073710442 0.8645614386
2.75158453 -9.06653595 1.165139556
2.757064342 -9.07259655 1.46763587
2.748507261 -9.032312393 1.766773582
2.78277421 -9.123204231 2.086111307
2.7906003 -9.135642052 2.400260687
2.778513432 -9.089150429 2.705711365
1.505058765 -5.322031021 2.17144537
1.354764342 -5.025180817 0.3709533513
1.810174108 -6.401004791 0.435151279
2.535955191 -8.596134186 0.5777447224
2.701256514 -9.087450027 0.8652496338
2.721616507 -9.076543808 1.165793896
2.719472885 -9.059915543 1.466402531
2.71985364 -9.046053886 1.767879844
2.756255865 -9.144544601 2.088548183
2.756481886 -9.134555817 2.398733377
2.754692793 -9.113527298 2.70980525
1.697362065 -5.954838276 2.167391062
1.486253142 -5.320187092 2.169527531
1.344107509 -5.041259289 0.3701183498
1.771258235 -6.346550465 0.4394507706
2.514072418 -8.620152473 0.5779126883
2.662751198 -9.066400528 0.8655776978
2.690542936 -9.078380585 1.166062832
2.688422918 -9.061751366 1.466391921
2.687581778 -9.044132233 1.767136812
2.719889641 -9.131523132 2.085620403
2.721394539 -9.125388145 2.395709038
2.72089839 -9.108185768 2.706963062
1.475516438 -5.339847088 2.174413204
1.333961725 -5.0592103 0.3690929711
1.735793591 -6.301397324 0.4431331754
2.489605904 -8.636497498 0.5782862902
2.630564213 -9.06421566 0.866081357
2.658868551 -9.078203201 1.166239977
2.657397747 -9.06347084 1.466377378
2.652271509 -9.032641411 1.765253663
2.690407276 -9.139028549 2.085946321
2.680284739 -9.097389221 2.389027119
2.679884195 -9.080444336 2.698912382
1.877859354 -6.62502861 2.347687483
1.460471869 -5.346734047 2.17531848
1.32611382 -5.084731102 0.3673053086
1.747203112 -6.402565479 0.4374807477
2.46808219 -8.66229248 0.5784016252
2.599634409 -9.065717697 0.8666175008
2.625393867 -9.07219696 1.166148424
2.62761426 -9.068868637 1.466674447
2.617683887 -9.022893906 1.763591766
2.653615236 -9.123843193 2.08271122
2.661177397 -9.136563301 2.395489216
2.648717403 -9.082240105 2.697793722
1.493949533 -5.503111362 2.22287035
1.322272182 -5.1235466 0.3641853631
1.73939693 -6.444832325 0.4355906546
2.442217112 -8.674677849 0.5788753629
2.571130991 -9.074733734 0.867223978
2.594416618 -9.073674202 1.166404963
2.598425627 -9.076059341 1.46712625
2.589833736 -9.033830643 1.764425874
2.616958857 -9.108503342 2.079469681
2.628665447 -9.134494781 2.393912315
2.623523951 -9.10251236 2.701009512
1.521536112 -5.651468754 2.080111265
2.622783184 -9.077480316 3.335632086
1.308170438 -5.130053043 0.3643062115
1.695260406 -6.370793819 0.4410742819
2.414514065 -8.681250572 0.5795003176
2.537847757 -9.068370819 0.8676778078
2.558676481 -9.059781075 1.16595006
2.56384635 -9.066025734 1.466152072
2.560746431 -9.040882111 1.764802575
2.58876729 -9.119419098 2.080376625
2.597383499 -9.136052132 2.393062592
2.600573301 -9.130153656 2.705960274
1.495467067 -5.627164841 2.072434902
2.595700264 -9.091963768 3.337949276
1.294195533 -5.134380341 0.3646006286
1.697835326 -6.447318077 0.4370100796
2.392072439 -8.704925537 0.5796638131
2.507234573 -9.065263748 0.8681345582
2.530160904 -9.068642616 1.166551828
2.531381845 -9.057315826 1.46530056
2.529872417 -9.042139053 1.764492989
2.562876701 -9.137791634 2.08246851
2.566405535 -9.133290291 2.39144659
2.565820456 -9.120465279 2.702227831
1.483132839 -5.643132687 2.075779676
2.565411568 -9.091278076 3.335679531
1.283083797 -5.148192406 0.3639430106
1.656937838 -6.378405094 0.4420959353
2.368540287 -8.720472336 0.5800016522
2.477835894 -9.065872192 0.868625164
2.504208803 -9.080791473 1.167298317
2.504269838 -9.065634727 1.465869308
2.49694109 -9.031447411 1.762782574
2.533685446 -9.140521049 2.082152605
2.534308672 -9.126659393 2.38909483
2.532609224 -9.110197067 2.698459625
1.463846564 -5.636876106 2.073098421
2.530048847 -9.074000359 3.328281879
1.275142908 -5.175551891 0.3619706929
1.623945951 -6.334148884 0.4456043541
2.344931602 -8.735947609 0.5803381205
2.448180199 -9.070631981 0.8691800237
2.47010684 -9.066082001 1.166799188
2.473963261 -9.068572044 1.465989828
2.464112759 -9.020627022 1.761066914
2.502207518 -9.135579109 2.080644608
2.499697208 -9.116577148 2.386036158
2.498360872 -9.096065521 2.693817616
1.449437499 -5.649309635 2.075454473
2.497325659 -9.069840431 3.32489419
1.257458925 -5.170443535 0.3632281423
1.558679104 -6.182788372 0.4558595121
2.314207792 -8.732584953 0.5812068582
2.415120363 -9.06377697 0.8696157932
2.434702396 -9.051661491 1.1663239
2.443099022 -9.069484711 1.465947986
2.434524298 -9.02532959 1.761200547
2.471053123 -9.136628151 2.080053568
2.468582392 -9.117653847 2.385169029
2.468425274 -9.100916862 2.693544865
1.407578111 -5.57088089 2.053191423
2.465763092 -9.069227219 3.322641134
1.252612948 -5.209232807 0.360118717
1.589038849 -6.359069347 0.4455648065
2.285533428 -8.741017342 0.5817968249
2.385499001 -9.068311691 0.8701631427
2.407346964 -9.063924789 1.167089939
2.412819624 -9.07219696 1.466061115
2.403245449 -9.024208069 1.760645866
2.439356327 -9.135665894 2.079161406
2.438616753 -9.122380257 2.38503027
2.424810648 -9.064911842 2.683735132
1.390040636 -5.572001457 2.052524567
1.407968283 -5.62552166 2.25256896
1.236328125 -5.211896896 0.3606304824
1.621436834 -6.547154903 0.4345736802
2.259031534 -8.757034302 0.5821830034
2.350024223 -9.057775497 0.8705796599
2.374595404 -9.063079834 1.167258143
2.378337145 -9.065638542 1.465405107
2.372805357 -9.031010628 1.76102984
2.405147791 -9.131204605 2.077699184
2.411618471 -9.142513275 2.387849331
2.405655146 -9.111128807 2.693048716
1.378228784 -5.595583916 2.057904482
1.161714196 -4.852603912 2.011839867
1.22329247 -5.22599268 0.3600036204
1.60667026 -6.57007885 0.4338949025
2.236555099 -8.782184601 0.5822887421
2.316075087 -9.046684265 0.8709614873
2.342988968 -9.065946579 1.167600513
2.348663568 -9.070028305 1.465669036
2.337404013 -9.020514488 1.759353518
2.377031088 -9.147507668 2.079507113
2.373946905 -9.120592117 2.382573128
2.373538733 -9.108143806 2.691025496
1.208462834 -5.228122234 0.3604821265
1.513791084 -6.314185619 0.4505766332
2.210444927 -8.789562225 0.5828164816
2.289800406 -9.062412262 0.871615231
2.30879426 -9.048663139 1.166986108
2.318995714 -9.074307442 1.465929627
2.305699348 -9.017113686 1.75855732
2.33384943 -9.100131989 2.071424961
2.347238302 -9.136323929 2.384623528
2.342374086 -9.1027565 2.688534021
2.343798161 -9.0963974 3.002123594
1.128044844 -4.84024477 2.006131887
1.194466829 -5.236167431 0.3604064882
1.485910892 -6.286731243 0.4529885948
2.181336403 -8.791452408 0.5835187435
2.260242462 -9.066493034 0.8721475005
2.278700829 -9.050880432 1.167290926
2.28609395 -9.066963196 1.465230823
2.278150558 -9.022762299 1.758872271
2.308303356 -9.119595528 2.073791504
2.310870171 -9.117901802 2.380069256
2.310364962 -9.099528313 2.686502218
2.31390214 -9.100708961 3.001696587
1.113642097 -4.842263699 2.005840302
1.16580677 -5.190371037 0.3656234443
1.504905224 -6.43059206 0.4447626472
2.151395559 -8.79554081 0.5841952562
2.231733799 -9.074325562 0.8727166653
2.248623848 -9.052987099 1.167592168
2.252213955 -9.055644989 1.464208126
2.247217894 -9.027181625 1.759011984
2.273139238 -9.104678154 2.070790291
2.282015562 -9.125851631 2.38064599
2.276963472 -9.09657383 2.684494734
2.284633636 -9.112769127 3.003308535
1.155292869 -5.213862419 0.3640456498
1.523953319 -6.578505993 0.4363152683
2.123345613 -8.801075935 0.5847913623
2.194880247 -9.051160812 0.8729592562
2.217135668 -9.055369377 1.167917848
2.218437433 -9.04419136 1.463180065
2.217706919 -9.031099319 1.759119987
2.246577978 -9.126250267 2.073478937
2.245871067 -9.107151985 2.376080275
2.248153925 -9.104391098 2.6850667
1.462153196 -6.229251862 2.224181652
1.264798284 -5.500421047 2.207243204
1.152746677 -5.261956692 0.3599849343
1.497024536 -6.556782246 0.4383744299
2.102307081 -8.827401161 0.5848132372
2.164371967 -9.051034927 0.8734391928
2.190581083 -9.064587593 1.168543696
2.186320305 -9.038378716 1.462625623
2.18561101 -9.025319099 1.758078575
2.214538574 -9.116418839 2.0713346
2.214493036 -9.10538578 2.37481308
2.218207359 -9.102305412 2.68342948
1.422070026 -6.151811123 2.202379942
1.139584064 -5.273675442 0.3595282733
1.336535931 -6.018932819 0.4721987844
2.076688766 -8.842432976 0.5851583481
2.135921478 -9.058531761 0.8739970326
2.155913353 -9.048989296 1.168022871
2.157338381 -9.044003487 1.46302557
2.156536818 -9.024800301 1.757692575
2.166421175 -9.051418304 2.060556412
2.159389973 -9.014205933 2.35627532
2.162212372 -9.008073807 2.660464764
1.401091576 -6.147334576 2.2002244
1.204631686 -5.405326843 2.175913095
1.124371648 -5.27764225 0.3598252237
1.400851607 -6.342587471 0.4529227018
2.047996283 -8.845766068 0.585796833
2.106441259 -9.062057495 0.8745109439
2.123903036 -9.042912483 1.167947412
2.127331734 -9.045664787 1.46310246
2.128076792 -9.032236099 1.758248568
2.133823395 -9.043571472 2.058725119
2.129407883 -9.015924454 2.355728865
2.130236149 -9.002280235 2.657969713
1.06913662 -4.96172905 1.880207181
1.19706893 -5.440954685 2.18592906
1.106214523 -5.269973278 0.3612510264
1.422657609 -6.508070946 0.4434297979
2.020294428 -8.852869987 0.5863338709
2.074004173 -9.053850174 0.8748969436
2.095946789 -9.052192688 1.168591022
2.093370914 -9.031772614 1.461894512
2.097609282 -9.031876564 1.75788343
2.100318432 -9.031769753 2.05629158
2.100913048 -9.023241997 2.356281519
2.099306583 -9.000142097 2.656341791
1.052900314 -4.95789814 1.878468752
1.090050936 -5.269959927 0.3619206846
1.426862836 -6.607918262 0.4379913211
1.996449113 -8.875393867 0.5864768028
2.041657448 -9.045511246 0.8752777576
2.065001965 -9.049757004 1.168688655
2.062958241 -9.031271935 1.461802959
2.069124699 -9.039107323 1.758433223
2.072297096 -9.040912628 2.05714035
2.067539692 -9.01140976 2.353153706
2.071807861 -9.011123657 2.657762766
1.029987574 -4.927752495 1.869671822
1.079609632 -5.293087482 0.3603305221
1.402172804 -6.597613335 0.4393394887
1.969606042 -8.886200905 0.5869116187
2.010345697 -9.040932655 0.8756958842
2.034591675 -9.049141884 1.168872595
2.035959482 -9.044194221 1.462830067
2.038208723 -9.036601067 1.757830858
2.042785883 -9.044206619 2.057089806
2.03810358 -9.014698982 2.352963686
2.039484739 -9.003087044 2.654818773
1.017710805 -4.938785076 1.871959567
1.055893898 -5.262011051 0.3640058935
1.362101912 -6.519052029 0.4448087811
1.94036293 -8.893371582 0.5874681473
1.980985403 -9.044005394 0.8761941195
2.002293825 -9.040654182 1.16868937
2.006515265 -9.04734993 1.463052511
2.006375551 -9.036257744 1.757481456
2.012806177 -9.045474052 2.056736469
2.004890919 -9.002615929 2.349826097
2.008642435 -9.006635666 2.654515266
1.004190922 -4.948076248 1.87375617
1.043196678 -5.279425144 0.3629923463
1.336921096 -6.504599571 0.4463803172
1.910639167 -8.892320633 0.5881892443
1.948340654 -9.039534569 0.8766307235
1.969133735 -9.034324646 1.168619037
1.975644588 -9.050742149 1.463298559
1.976945996 -9.039306641 1.757561088
1.978139043 -9.033526421 2.054311275
1.972233295 -8.998380661 2.348182678
1.97737062 -9.002144814 2.652435064
1.011589766 -5.21326828 0.3700379133
1.342521071 -6.616139412 0.440249145
1.883205652 -8.907060623 0.5885455608
1.918095827 -9.038493156 0.877078712
1.941633224 -9.045017242 1.169337034
1.94342792 -9.042045593 1.462549448
1.947006583 -9.046455383 1.758124709
1.94593513 -9.024942398 2.052452326
1.945635319 -9.012795448 2.350190163
1.943824649 -8.994073868 2.649503946
1.322164893 -6.618856907 0.4407390654
1.857094646 -8.921380043 0.588873744
1.887362003 -9.041563988 0.8775923848
1.910836339 -9.048169136 1.169714212
1.910785913 -9.037438393 1.462143779
1.916659236 -9.045422554 1.757736802
1.91511488 -9.028113365 2.05241251
1.913023591 -9.008323669 2.348538637
1.913578033 -8.993135452 2.64828825
1.298707247 -6.60787487 0.4420519471
1.831795573 -8.93951416 0.5891038179
1.855386376 -9.032497406 0.8779460192
1.881012797 -9.048932076 1.169970036
1.882315755 -9.044029236 1.462673187
1.882748365 -9.028798103 1.75550127
1.887506008 -9.03854847 2.053541422
1.881892562 -9.003397942 2.346856117
1.882922769 -8.990182877 2.646631718
1.274030447 -6.59095335 0.4437142015
1.806829929 -8.95952034 0.5892845392
1.828750849 -9.046723366 0.8785563707
1.848112226 -9.035946846 1.169581652
1.853380203 -9.048575401 1.463038564
1.851188898 -9.021718979 1.75441277
1.857206583 -9.037322998 2.052869081
1.851691484 -9.002187729 2.345906258
1.240899444 -6.534933567 0.4477245212
1.777005792 -8.95797348 0.5899910331
1.797729015 -9.041332245 0.8789455295
1.817064643 -9.030631065 1.169554472
1.824439764 -9.05301857 1.463400722
1.82143724 -9.022274971 1.754242659
1.825209498 -9.028268814 2.050992966
1.821525931 -9.000864983 2.344952583
1.205637813 -6.46704483 0.4524303079
1.748485804 -8.962177277 0.5905504227
1.767612219 -9.039733887 0.8793745637
1.788654923 -9.036905289 1.170073152
1.792486787 -9.043732643 1.462630033
1.796412468 -9.044061661 1.756608725
1.789455175 -9.001712799 2.046411276
1.793090582 -9.007108688 2.345470667
1.193322062 -6.504426956 0.4507855177
1.721213222 -8.972146988 0.5909636617
1.735861659 -9.030201912 0.8797109127
1.759375215 -9.039175987 1.170405507
1.763159633 -9.046012878 1.462823391
1.766206503 -9.0424757 1.756201863
1.762732983 -9.015584946 2.048126698
1.762122512 -9.001729965 2.343771696
1.765313625 -8.998211861 2.644775867
1.1844455 -6.55937767 0.4480873942
1.698811412 -9.005507469 0.5908043385
1.707485795 -9.036203384 0.8802207112
