# .PCD v0.7 - Point Cloud Data file format
VERSION 0.7
FIELDS x y z
SIZE 4 4 4
TYPE F F F
COUNT 1 1 1
WIDTH 1302
HEIGHT 1
VIEWPOINT 0 0 0 1 0 0 0
POINTS 1302
DATA ascii
24.8304882 -41.8744545 7.7046628
26.09743118 -43.90885544 9.852930069
31.11344147 -52.86824799 3.137094736
22.150774 -37.85196304 3.967343569
22.17592239 -37.83224869 5.483113289
23.80536079 -40.49485397 7.461925983
25.95438957 -44.01275253 9.860331535
30.74083138 -52.65507889 3.128031969
25.20038605 -43.27402115 4.430818081
22.44939232 -38.58559036 5.572898865
23.62987709 -40.51618576 7.455800056
30.37820816 -52.45373154 3.119509459
22.77758408 -39.50673676 4.104094982
22.5883522 -39.12221146 5.635029793
23.3597374 -40.37667084 7.422735691
24.39479828 -42.07210541 9.42467308
30.04263306 -52.29358673 3.112856865
22.54969597 -39.42747498 4.094526768
21.60162735 -37.74616241 5.454781055
23.47366333 -40.88782501 7.4990592
29.69045067 -52.10064316 3.104726315
22.43783379 -39.54544449 4.101925373
21.48844337 -37.84861374 5.462086201
23.20977402 -40.75710678 7.467665195
28.77698898 -50.92712021 3.052211046
22.29553795 -39.61126328 4.104876995
22.06952286 -39.17035675 5.62321949
28.42395782 -50.73526764 3.044159651
22.17385101 -39.71292114 4.110928535
21.93338013 -39.24346542 5.626716614
25.2836647 -45.04354477 8.165015221
28.09793663 -50.54562759 3.03615284
21.81472015 -39.39602661 4.08119297
23.20787621 -41.80257416 5.943654537
24.94083977 -44.78268051 8.111865044
26.27139854 -47.98827744 1.037504315
27.77759552 -50.38186646 3.029353857
21.87731361 -39.80698013 4.113894939
23.21014786 -42.12506866 5.97858572
24.9015007 -45.07257843 8.15024662
26.09433937 -48.0568924 1.042124271
27.45373917 -50.18724823 3.021130323
21.79450607 -39.97874451 4.126017094
22.02651405 -40.34488297 5.748720646
22.66903305 -41.42700195 7.533953667
25.90684891 -48.16469574 1.047576189
27.11549759 -50.04319 3.015330315
21.31886673 -39.48962402 4.081366539
22.48431396 -41.47922516 7.532322884
25.77137566 -48.30925369 1.052589774
26.79015923 -49.85689545 3.007526398
21.19716072 -39.58812332 4.08731842
24.42553902 -45.34879684 8.165808678
25.62928772 -48.42256165 1.057214499
26.47691727 -49.6882782 3.000528574
21.37235069 -40.21699905 4.138622761
22.07977676 -41.46718597 5.872183323
22.27305031 -41.77012253 7.56292057
25.50859833 -48.59631348 1.062390208
26.18506813 -49.53461075 2.994180918
21.56405449 -40.90211487 4.194555283
23.62592888 -44.67167664 6.267841816
22.10663795 -41.78775787 7.557551861
25.38417816 -48.76452255 1.067537546
25.96886826 -49.53920364 2.995054245
21.47570419 -41.07370758 4.20673418
21.9135437 -41.77192688 7.546304703
25.27285767 -48.958992 1.072842836
25.88856316 -49.79895782 3.007520914
21.30327988 -41.08834457 4.205581188
25.10586929 -49.06896591 1.077852845
25.75917435 -49.98892212 3.016869307
20.86797714 -40.61865997 4.163184643
21.61086082 -41.91129684 7.55192852
25.00925255 -49.29483414 1.083355904
25.55799103 -50.02168274 3.019056559
20.73537636 -40.70346451 4.168093204
21.68243217 -42.4513588 5.967761517
25.03542137 -49.76268005 1.090370178
25.25427818 -49.85472488 3.012178421
20.4733696 -40.5379982 4.151786804
20.20853043 -39.95944595 5.652058125
24.73888206 -49.60185623 1.093488574
24.9611702 -49.70403671 3.006043911
20.28369713 -40.50963593 4.147165775
22.43064117 -44.62817383 6.227978706
21.95221329 -43.64126205 7.811500072
24.43746948 -49.42705536 1.096464753
24.67301559 -49.55903244 3.000172853
20.35178375 -40.98724365 4.185472488
21.80580521 -43.7243576 7.816752911
24.16257477 -49.30086517 1.099699736
24.37725067 -49.39474869 2.993429184
20.10652542 -40.84944534 4.171631813
21.9376812 -44.41397858 6.190495014
23.87998581 -49.15542984 1.10276258
24.09358215 -49.25048447 2.987600803
19.97023582 -40.92634964 4.176018715
21.3047905 -43.47496033 7.759408951
23.59344482 -48.99781418 1.105695009
23.79883194 -49.07974625 2.980571747
21.47369576 -44.19048691 7.868395805
23.29818535 -48.83927155 1.108766079
23.51653099 -48.95111847 2.975501299
21.17280388 -44.10865021 4.440840721
21.31591606 -44.27210617 7.873243332
23.01966095 -48.68961716 1.111650109
23.23163223 -48.79186249 2.969003439
20.8646946 -43.85922241 4.417583466
21.2624855 -44.54874039 7.910388947
22.80105591 -48.66134262 1.115318418
22.96027756 -48.65641403 2.96359396
20.42020988 -43.32067108 4.369972229
20.82364464 -44.03076172 7.818006039
22.68647194 -48.85084152 1.120468736
22.76234245 -48.67120361 2.965037346
20.44345665 -43.7514801 4.404269695
20.67230797 -44.10285568 7.821991444
22.57079697 -49.04014969 1.125625372
22.64481354 -48.85503387 2.974197865
20.15363884 -43.5267334 4.383261681
20.75469208 -44.66790009 7.906226635
22.45409966 -49.22922134 1.130786061
22.54491043 -49.07844925 2.985178471
19.76243782 -43.08017731 4.343611717
22.35065269 -49.42688751 1.135824323
22.44201469 -49.29812622 2.996005058
22.23515129 -49.62282562 1.14104867
22.33468819 -49.48834991 3.005461931
19.58100128 -43.44524384 4.370599747
22.14441872 -49.85293579 1.146340132
16.83066559 -37.85455704 2.475032568
19.41633034 -43.45897675 4.369959354
22.02910042 -50.05398178 1.151619077
16.60433006 -37.68058014 2.467688322
19.19836426 -43.37367249 4.360925674
21.89671326 -50.2421875 1.15699935
22.00855446 -50.13145828 3.0373559
16.99404716 -38.86779785 3.980121851
21.78880692 -50.46472931 1.162454844
16.20616913 -37.49496078 2.460517645
16.3915062 -37.86759567 3.8944664
21.66292 -50.67256546 1.167997837
21.77010918 -50.48750687 4.953000546
21.56434059 -50.92228699 1.173683167
15.77967834 -37.23222733 2.449832916
21.65695381 -50.70197296 4.969013691
16.03673935 -38.46052933 1.080315709
16.07118416 -38.25984955 2.497525692
16.16737366 -38.43695831 3.937712669
15.79879093 -37.98289108 2.485526085
15.64948559 -37.58692551 3.864958525
16.0338192 -38.42285919 5.372944355
20.94683266 -50.9238205 1.184889436
15.53163815 -37.71185684 2.473794222
15.70885181 -38.08569717 3.905394077
20.69553185 -50.81184006 1.187678695
15.38908005 -37.73255539 2.475428104
15.48942757 -37.92676163 3.890699148
15.30920887 -37.9041214 2.483985662
15.2338953 -37.67649078 3.868393183
15.11773396 -37.80560684 2.480169058
15.21941853 -38.00786591 3.894841909
31.22572708 -76.80344391 12.95088673
20.74536514 -52.4246788 1.211677432
15.09084034 -38.10990143 2.494837523
15.05701065 -37.96192551 3.889776468
30.81015968 -76.54499817 12.89863396
19.32290268 -49.37932968 1.190099835
15.03130817 -38.31910324 2.505123138
14.88339138 -37.904953 3.883755922
30.49882317 -76.49945068 12.88119602
19.12644768 -49.37759781 1.193553925
14.86212063 -38.27468872 2.503812551
19.27693939 -49.31631851 4.836981297
19.01099205 -49.58187103 1.198726892
14.69631863 -38.2369957 2.502815962
19.1111393 -49.39238358 4.841779232
30.05230904 -76.92286682 12.92790413
18.8950901 -49.78779221 1.203922033
14.60785198 -38.39596176 2.510862589
18.98922348 -49.5812149 4.856033802
29.82304001 -77.12257385 12.94948292
20.12694359 -53.52017593 1.23940599
20.28884697 -53.45471573 5.178153038
20.00483513 -53.75276947 1.245095015
20.10992622 -53.60347748 3.211934566
20.11987877 -53.56410217 5.185715199
28.41288567 -75.04463196 12.59830093
19.86569786 -53.97178268 1.250861168
19.96726418 -53.8112793 3.222625017
19.97282982 -53.76037979 5.200489044
28.08780479 -75.01087189 12.58285522
19.73291206 -54.21110153 1.256813288
19.73811531 -53.79036331 3.222803116
19.84414864 -54.00857544 5.219627857
27.84534454 -75.19426727 12.60211563
18.45193672 -51.28986359 1.234557748
19.47291946 -53.6413765 3.217036247
19.71773911 -54.23814392 5.237315178
18.20785904 -51.1658783 1.236886263
18.3808651 -51.22395706 3.106729507
18.41614151 -51.25785065 4.987324715
18.05326653 -51.28744125 1.241388798
18.15198708 -51.14109421 3.103969336
18.17476273 -51.14163971 4.976321697
17.86531448 -51.31616592 1.245045662
18.02408409 -51.33763123 3.114102364
18.03520203 -51.30594254 4.988743305
26.39981842 -74.45659637 12.44879055
17.6211338 -51.18376541 1.247214317
17.79985619 -51.2644577 3.111805439
17.82351875 -51.26876831 4.984406471
26.1576252 -74.59253693 12.46167088
17.36260605 -50.97734451 1.248497725
17.5633316 -51.12504578 3.106401682
17.5914669 -51.14299774 4.972786903
26.21091461 -75.52942657 12.60188198
26.9227829 -77.45716095 15.82101727
17.11709213 -50.83137131 1.250461936
17.31852531 -50.98575974 3.10106039
17.40391731 -51.16997147 4.973869801
25.9971714 -75.75819397 12.62956905
16.8721199 -50.68241882 1.252360821
17.0749073 -50.84537506 3.095670938
17.21505165 -51.19249344 4.974617958
25.53154755 -75.25681305 12.54191494
16.62928391 -50.56370544 1.254667163
16.82572746 -50.71250916 3.090686798
16.95741844 -51.03972244 4.960757732
25.03015327 -74.67874908 12.44199753
26.24709511 -78.16571808 15.9230299
16.39616585 -50.44103622 1.256738901
16.5802784 -50.58607483 3.086003304
16.67951393 -50.79208374 4.939101696
24.76590919 -74.79198456 12.45148373
25.86055374 -77.91320801 15.86181164
16.17770576 -50.32972717 1.258724928
16.35642624 -50.46230316 3.081334829
16.49234581 -50.78257751 4.93735218
24.57444382 -75.03843689 12.48289299
15.94050407 -50.1860466 1.260527849
16.14037514 -50.35850143 3.077593803
16.25461578 -50.64633942 4.925046921
24.30517387 -75.05136871 12.47755909
25.2371521 -77.79473114 15.81626606
15.73433399 -50.134655 1.263185859
15.90246868 -50.21285629 3.071973801
16.01681519 -50.50525665 4.912379742
24.38638687 -76.18897247 12.64916134
25.17336464 -78.51765442 15.94626522
15.50942421 -50.02140427 1.265218258
15.66569901 -50.09552765 3.067724466
15.70141888 -50.11619949 4.879137516
23.82343292 -75.38436127 12.51449108
24.90074348 -78.60441589 15.95208263
15.30100441 -49.95682526 1.267694235
15.44534779 -49.96603012 3.062800884
15.47522449 -49.99938202 4.868572235
14.42191887 -47.71255112 1.248675227
15.2222271 -49.85353088 3.05872488
15.24351883 -49.86065292 4.856225014
14.1164341 -47.29571915 1.247472048
14.99419117 -49.72098541 3.053721666
15.01768684 -49.7361412 4.845098495
13.87500858 -47.10959244 1.248645067
14.77037907 -49.62825394 3.05062747
14.78262997 -49.60751343 4.833631516
13.65683365 -46.96595383 1.250060201
14.64701653 -49.83636093 3.061459064
14.6465292 -49.77321625 4.846687317
13.43179417 -46.82370377 1.251596808
11.89140415 -41.16705322 2.659632683
14.52404881 -50.0194664 4.866428375
13.23152351 -46.73192215 1.253470659
11.7467289 -41.19480133 2.661897421
14.35326004 -50.0735054 4.870271683
22.51900291 -77.80062103 12.84406948
13.0260067 -46.6181488 1.255092978
14.08718395 -49.8585968 3.066102982
11.75039196 -41.686203 4.17337513
22.28878212 -78.01504517 12.87100124
12.81821918 -46.49194336 1.256557703
13.89639091 -49.83816147 3.066352606
11.59187889 -41.67119217 4.17165184
21.97711372 -77.94729614 12.85384178
12.68952274 -46.64621735 1.260893703
11.15072823 -40.69773865 2.641704321
11.47773743 -41.8129921 4.182971478
12.56410408 -46.81557846 1.265390277
11.03824615 -40.83260345 2.648981094
11.17556381 -41.27814865 4.138165474
21.60143852 -78.69232941 12.95771122
12.46529865 -47.08694077 1.270958662
11.11205864 -41.65340805 2.688264132
10.95916653 -41.04174042 4.118160248
21.56994057 -79.64795685 13.10093498
12.05404186 -46.19087982 1.264257431
10.67386055 -40.59208298 2.639764547
10.76374149 -40.8755455 4.104012012
1.894665599 -7.891628742 2.403687239
10.61820889 -41.3637619 1.215830684
12.79465008 -49.14952087 3.040328741
10.57986355 -40.74700928 4.093018055
10.6895895 -41.08029556 5.586277485
1.871100903 -7.901903152 2.405041456
11.65049076 -45.93695068 1.266863465
10.49935722 -41.05977249 2.663636208
10.40406609 -40.64469147 4.084228039
10.50546265 -40.95188141 5.569297791
1.844996572 -7.902662277 2.404214382
1.846708894 -7.899352551 2.67100358
11.45964241 -45.84553146 1.268502831
10.14855766 -40.27962875 2.628204346
10.32977486 -40.93155289 4.107745647
10.37311745 -41.01887512 5.575698853
1.81841898 -7.901435852 2.40294838
1.821102142 -7.90193224 2.670473814
11.26084328 -45.71840286 1.269732237
9.930240631 -39.99714661 2.616013765
10.16609859 -40.8744812 4.102761745
10.28977871 -41.30862427 5.608642578
1.794399738 -7.92465353 2.143459558
1.791613936 -7.904200554 2.402574301
1.795231938 -7.908477783 2.670972347
11.08513641 -45.67975235 1.271890163
9.842507362 -40.25607681 2.629201889
10.02863216 -40.91924286 4.106250763
1.76733768 -7.921285629 2.142093182
1.762706876 -7.89331007 2.399119854
1.765356541 -7.893981934 2.665899754
10.95344734 -45.81916428 1.275965095
9.87159729 -40.93631363 2.662033081
9.957415581 -41.23255539 4.132035732
10.07183266 -41.64328003 5.645569801
1.736534715 -7.902550697 2.137778997
1.741239071 -7.906630516 2.401310444
1.74150753 -7.897846222 2.665840626
10.82369995 -45.96987152 1.280165553
9.732144356 -40.97237778 2.664780855
11.58233833 -48.52904129 4.736898899
9.898620605 -41.52183533 5.629734039
1.713823795 -7.91615057 2.13971734
1.714755058 -7.905016422 2.400030851
1.71734941 -7.905683517 2.666810989
11.21033382 -48.30776215 1.308397293
9.58045578 -40.95743561 2.665147066
9.693606377 -41.37833405 4.143807888
9.744574547 -41.53829956 5.63024807
1.689192414 -7.922033787 2.140181065
1.684333563 -7.892208576 2.396151066
1.692367911 -7.915613174 2.668307066
10.32609844 -45.29420471 1.277910233
9.433454514 -40.99217987 2.667903423
11.16098213 -48.27270508 4.715330124
11.17626858 -48.23866653 6.427183151
11.18090439 -48.19587708 8.149376869
1.665122271 -7.935769558 2.142138958
1.658406019 -7.892281532 2.395300388
1.664999604 -7.910102844 2.665740728
10.14880562 -45.23246384 1.279705882
9.286103249 -40.99363327 2.669053078
10.95694733 -48.14613342 4.704730034
10.98163986 -48.15330124 6.415519238
10.99397659 -48.14378357 8.138378143
1.636853337 -7.926167011 2.139650106
1.634277105 -7.899860859 2.396193981
1.63680923 -7.900719166 2.662161112
9.979958534 -45.2051506 1.281865358
9.160170555 -41.08804703 2.674574852
10.76058769 -48.04786301 4.696509361
10.77800083 -48.02455139 6.398749352
10.79121685 -48.01964951 8.116257668
1.607357383 -7.91070509 2.136050701
1.609674692 -7.90545702 2.396648169
1.611309767 -7.902540207 2.661605835
9.899280548 -45.57355881 1.288444638
10.55084133 -47.94674683 2.997917175
10.56415272 -47.9449234 4.687932014
10.58588791 -47.9414711 6.387477875
10.59248161 -47.90819168 8.096199036
1.58447659 -7.923886776 2.1379776
1.582473278 -7.899544716 2.394477367
1.587523699 -7.911820412 2.663067818
9.708834648 -45.44952393 1.289502978
1.556327343 -7.956763268 1.11924994
10.37031078 -47.84896851 4.679965496
10.38330269 -47.80720901 6.370173454
10.39981651 -47.81908035 8.079705238
1.559819102 -7.929318905 2.138427496
1.554909229 -7.89162302 2.391865253
1.562850475 -7.91724205 2.663517714
10.01130676 -47.62045288 1.316516638
10.15790939 -47.72421646 2.990045071
10.16920757 -47.71523285 4.668896675
10.19112873 -47.7148056 6.357910633
10.20535469 -47.71761703 8.061377525
1.5334692 -7.926982403 2.13739872
1.531170726 -7.900755405 2.393185377
1.535676837 -7.911235332 2.660933495
1.475728512 -7.926280022 0.3659068346
1.474787712 -7.912530422 0.6172348857
1.475727201 -7.907817364 0.8672963381
9.967988968 -47.63618469 2.987205982
9.976265907 -47.61380005 4.660537243
9.99552536 -47.60221863 6.343304634
10.00719833 -47.59410858 8.039712906
1.505501628 -7.916861534 2.134890079
1.509442449 -7.919346809 2.396690607
1.508968592 -7.907017708 2.65885067
1.451668859 -7.933356285 0.3662275076
1.454385996 -7.937220573 0.6171979308
1.466718435 -7.898321629 1.117087126
1.478441954 -7.910477161 2.133115292
1.482350469 -7.913050652 2.394506454
1.485121369 -7.915950298 2.660302401
1.426777482 -7.93643856 0.3667801023
1.425873995 -7.922663212 0.6181069016
1.423201084 -7.900300026 0.8679657578
1.442266703 -7.903382778 1.117522955
1.445316076 -7.908940315 1.368583441
1.444199204 -7.888075352 1.618362546
1.448524833 -7.899575233 1.873739719
1.445454121 -7.875121117 2.125796318
1.446984768 -7.866527081 2.383125782
1.454522014 -7.892598152 2.653157234
1.417397738 -7.906400681 1.117864013
1.420796275 -7.913917065 1.369017363
1.419329524 -7.8910923 1.61856401
1.424382925 -7.906480312 1.874474168
1.422148943 -7.885846615 2.127337456
1.419385791 -7.856172085 2.380055428
1.423329949 -7.865327358 2.644994736
4.442781925 -23.55698967 1.050177932
1.403022528 -7.917695999 2.1329422
1.398774266 -7.880152702 2.384863853
1.40301466 -7.891046047 2.65098834
4.357268333 -23.53895378 1.051166654
9.011611938 -47.092659 2.968178511
9.026370049 -47.10691452 4.619209766
9.041536331 -47.12266922 6.281010628
9.057535172 -47.09845352 7.951603889
1.380660415 -7.934067726 2.135590076
1.380549431 -7.923458576 2.394074678
1.376067877 -7.890365124 2.649920464
4.275393486 -23.56065178 1.052671194
8.821815491 -47.01931 2.96611619
8.819475174 -46.94569397 4.606081486
8.851171494 -47.00544739 6.266199589
8.853815079 -46.95627594 7.92746067
1.350650072 -7.91779089 2.131970882
1.354757309 -7.922421455 2.393187523
1.35624516 -7.919746876 2.656924725
4.194110394 -23.56361771 1.05389154
8.635951996 -46.91815186 2.962676764
8.64770031 -46.91921234 4.604145527
8.661002159 -46.88355637 6.250889301
8.703309059 -47.04488754 7.939274788
1.325286388 -7.918544292 2.131654739
1.326088309 -7.905950069 2.388790131
1.331546426 -7.924362659 2.65734911
4.116060734 -23.58400345 1.055311441
8.448372841 -46.80252075 2.958554983
8.475113869 -46.88621902 4.601698875
8.481898308 -46.81560516 6.242042542
8.512345314 -46.91720963 7.917641163
1.30208528 -7.930802345 2.133555889
1.299686074 -7.900878429 2.387018681
1.306127429 -7.925086498 2.656758308
4.036180496 -23.59427834 1.056607246
8.143541336 -46.03142929 2.92341423
8.150118828 -46.00713348 4.52909708
8.173779488 -46.03155518 6.148189545
8.183386803 -46.02226257 7.77723217
1.277409196 -7.935247898 2.133974791
1.275785446 -7.909145355 2.388313293
1.278286457 -7.912395477 2.652620077
3.955580473 -23.60033035 1.0578475
7.964231968 -45.93751144 2.920304298
7.974560261 -45.93503952 4.523458481
7.996242523 -45.95005798 6.137850285
8.005766869 -45.94124985 7.763019085
1.250306606 -7.926063061 2.131798983
1.253553152 -7.92693758 2.391799212
1.251238346 -7.90340519 2.649490118
3.876669407 -23.61595345 1.059196591
7.788428307 -45.85864258 2.917909861
7.796220303 -45.84263611 4.516161919
7.814631462 -45.84046936 6.124228001
7.824766636 -45.83618164 7.745157242
1.224293709 -7.922585011 2.130730629
1.228187084 -7.927361012 2.391335011
1.226931691 -7.909560204 2.650408983
3.799366951 -23.64116096 1.060655713
7.607569218 -45.74560547 2.913898706
7.621627331 -45.76721954 4.51030302
7.635532379 -45.73996353 6.111735821
7.647259235 -45.74599075 7.729677677
1.200967073 -7.934509754 2.132622719
1.199876547 -7.910382748 2.38691783
1.202269912 -7.913724899 2.650818825
3.724818468 -23.68387222 1.062322617
7.432875156 -45.66339493 2.911351204
7.44240427 -45.65968323 4.501805305
7.458580494 -45.64659119 6.100142956
7.467853069 -45.63951492 7.711754322
1.175630927 -7.934727192 2.13228941
1.172983408 -7.900992393 2.384251595
1.177917361 -7.919710636 2.651732922
3.6601336 -23.78952789 1.064749599
7.25592041 -45.5627594 2.90793252
7.265967369 -45.56324005 4.494255066
7.283611774 -45.56037903 6.08945179
7.286439896 -45.51477432 7.69108057
1.150938749 -7.938733101 2.132694483
1.150594831 -7.918457031 2.38772893
1.151966095 -7.9160676 2.650110006
7.084462643 -45.49104309 2.905889511
6.448836327 -41.43452072 4.152029514
7.108712196 -45.46957779 6.07826519
7.121251583 -45.48499298 7.685174942
1.123755932 -7.927125931 2.130130053
1.125931382 -7.922365665 2.388130665
1.12483418 -7.904687405 2.646455288
6.224392414 -41.64629745 1.285052896
6.912695408 -45.41274643 2.903537273
6.283730984 -41.30695343 4.14190197
6.931498051 -45.35847092 6.064719677
6.980759144 -45.61086273 7.703418732
1.099394321 -7.932892323 2.130900145
1.099441051 -7.914621353 2.385893822
1.100490451 -7.91040659 2.647360802
6.072721481 -41.60445404 1.286559463
6.172726631 -41.58489227 2.722827435
6.127419472 -41.22995758 4.135995865
6.755126476 -45.2466774 6.051142693
6.807314396 -45.52522278 7.689012051
1.074412346 -7.934689522 2.130925655
1.074502945 -7.916422367 2.385850191
1.076707006 -7.919867039 2.649278402
5.919111252 -41.54620743 1.287849069
6.022064209 -41.54879761 2.722373962
5.965541363 -41.11096954 4.126626492
6.585782051 -45.175457 6.042430878
6.632764339 -45.42719269 7.672763348
1.049269915 -7.916205883 2.385364532
1.051727057 -7.921593666 2.649164677
5.797206402 -41.70717239 1.291831017
5.880018711 -41.5694809 2.724630117
5.800304413 -40.96175003 4.114768505
6.413593292 -45.08001328 6.030893326
6.457581997 -45.3187027 7.654972553
6.426198959 -45.03755569 9.214285851
1.025182366 -7.923621655 2.386634111
1.025065064 -7.911747932 2.646003485
5.678618908 -41.89947128 1.296206951
5.764105797 -41.77561951 2.735734701
5.640903473 -40.84542465 4.10566473
6.245752811 -45.00947952 6.022361279
6.278224945 -45.17432022 7.63170433
6.258001804 -44.96597672 9.198895454
1.000501752 -7.927092075 2.387022257
5.563305855 -42.12512589 1.301006198
5.648202896 -41.99134064 2.74731636
5.487823486 -40.76797485 4.099812984
5.732513428 -42.48562622 5.722714901
5.752092361 -42.51275635 7.219428062
6.08713007 -44.87041473 9.179020882
5.437192917 -42.33556366 1.305725932
5.522587776 -42.19978714 2.758637905
5.327091217 -40.68098831 4.093221664
5.574974537 -42.41658401 5.71446228
5.584664345 -42.42747879 7.205452919
5.910113811 -44.78105545 9.1603508
5.31761694 -42.55064774 1.310413957
5.401717663 -42.39900208 2.769474745
5.173498154 -40.58851242 4.086167812
5.417989254 -42.34695816 5.706184864
5.431107044 -42.38568878 7.198304653
5.746865749 -44.73093033 9.149338722
5.196379662 -42.76341629 1.315082431
5.280776978 -42.60778427 2.780789375
5.020346642 -40.49348068 4.078923225
5.259283066 -42.25901031 5.695777893
5.308111191 -42.58062744 7.227800846
5.581099987 -44.65681458 9.133841515
5.075622559 -42.99172974 1.319957256
5.161389351 -42.8400116 2.793246031
4.868897915 -40.40578079 4.072309971
5.104446888 -42.1960907 5.68838644
5.188914299 -42.81641006 7.26366663
5.410561085 -44.53917313 9.110135078
4.958861351 -43.20294952 1.32452631
5.047792435 -43.07104111 2.805599928
4.725748539 -40.32262039 4.066060543
4.953283787 -42.09821701 5.676883221
5.073645592 -43.03529358 7.297002792
5.242669582 -44.37121582 9.076982498
4.839436054 -43.46835327 1.329894543
4.923476219 -43.28675461 2.817311287
4.577467442 -40.24964523 4.060714722
4.795642376 -42.00063324 5.665462494
4.950918198 -43.26649857 7.332275867
5.077737331 -44.28351974 9.059167862
4.712305546 -43.67976379 1.33458662
4.798159122 -43.50607681 2.829217672
4.431987762 -40.19591904 4.056993008
4.641870499 -41.9300766 5.657293797
4.827300072 -43.50325775 7.3684659
4.948718071 -44.50565338 9.100511551
4.576467037 -43.89358521 1.339418292
4.663888931 -43.72585678 2.841239691
4.276619434 -40.11070251 4.050711632
4.480831146 -41.85380554 5.648503304
4.692848682 -43.72475052 7.402344704
4.835594654 -44.95677948 9.185539246
4.443825245 -44.15273666 1.344842792
4.532041073 -43.98297119 2.855077744
4.122771263 -40.0328064 4.045063972
4.320414543 -41.77690506 5.639685631
4.561617374 -43.99103546 7.443212032
4.717967987 -45.39592361 9.268361092
4.31358099 -44.37691498 1.349728942
4.404322147 -44.22302246 2.868050337
3.977594137 -39.96552658 4.040281773
4.166555882 -41.68681717 5.629331589
4.434074402 -44.23650742 7.480940819
4.599844456 -45.78318024 9.341409683
3.782930851 -40.35977173 1.299500942
4.274199486 -44.45474625 2.880647421
3.840538502 -39.90497971 4.036039829
4.013379574 -41.59615326 5.618951321
4.301172733 -44.44423294 7.512904167
4.492429733 -46.22413635 9.424798965
3.644528866 -40.29042816 1.300303221
3.738443613 -40.34184265 2.684260845
3.702985048 -39.83403397 4.0309515
3.86856246 -41.51018524 5.609147549
4.178104877 -44.68823624 7.550536156
4.389615536 -46.74309921 9.523122787
3.506806135 -40.22259521 1.301110625
3.597505808 -40.24452972 2.680855036
3.567037821 -39.77451706 4.026834488
3.725452185 -41.43557739 5.600731373
4.051826477 -44.91417694 7.585439205
4.268927097 -47.10534668 9.59165287
1.836528301 -22.37446022 0.3165951073
3.373507023 -40.20011139 1.302497745
3.459182501 -40.16860199 2.67847991
3.445393562 -39.87137604 4.035770416
3.582530499 -41.35652161 5.591822624
3.925485373 -45.15550995 7.622779846
4.093941689 -46.88404846 9.549069405
1.749775887 -22.3737011 0.3179689646
3.230750561 -40.39667511 1.307106495
3.307066679 -40.24976349 2.68394804
3.306201696 -40.09327316 4.055349827
3.411562443 -41.27534866 5.58281517
3.768717289 -45.42665482 7.664820671
3.884363651 -46.61777115 9.497941017
1.678029776 -22.37142944 0.3191255033
1.817162991 -24.06080818 1.093206644
3.191225767 -40.4436264 2.694593906
3.202186108 -40.4277153 4.084162235
3.270647526 -41.20509338 5.575033665
3.277027845 -41.21450424 7.014399052
3.708263397 -46.34023285 9.44482708
1.605273128 -22.35495758 0.3205778301
1.727953434 -23.95531845 1.092835546
3.078140974 -40.68894196 2.707742691
3.080849886 -40.65710068 4.104299545
3.128079891 -41.10662079 5.563938141
3.133843899 -41.11061478 6.998587132
3.528883457 -46.09789276 9.398497581
1.533317089 -22.4003334 0.3207290471
1.644063234 -23.91332054 1.093293071
2.955437422 -40.92050171 2.720320702
2.956476927 -40.86624527 4.122784615
2.979917049 -41.01807022 5.554091454
2.98582387 -41.02643585 6.985890865
3.355338812 -45.90972137 9.362579346
1.458493233 -22.40756607 0.3216968775
1.564282179 -23.9268837 1.094482183
2.829611301 -41.12976456 2.73184514
2.83137846 -41.08494186 4.142103672
2.842926025 -41.07756042 5.561876774
2.84835577 -41.081707 6.99479723
3.18065238 -45.6856308 9.319903374
1.383124709 -22.40655518 0.3228296041
1.483654976 -23.92819786 1.095503211
2.705688477 -41.3884697 2.745783567
2.705849886 -41.31916046 4.162755489
2.71581459 -41.28916931 5.587787628
2.723955393 -41.33570862 7.034467697
3.009166479 -45.48439789 9.28167057
1.308023214 -22.40927124 0.3238673806
1.401578069 -23.90527534 1.09619391
2.578097582 -41.61688614 2.758282423
2.579852343 -41.57088852 4.18490839
2.589275599 -41.53208923 5.617471218
2.598563194 -41.60116196 7.075974464
2.838880539 -45.27860641 9.242653847
1.232233167 -22.39974785 0.3251546919
1.322889447 -23.93796539 1.097625613
2.447870493 -41.82696152 2.76991725
2.452126265 -41.82222748 4.20706892
2.462858438 -41.80435562 5.650697708
2.469794035 -41.84057236 7.113525867
2.668414593 -45.04471207 9.198369026
1.154064775 -22.41411972 0.3259671032
1.244851112 -23.98636055 1.099267006
2.318676472 -42.08050156 2.783682346
2.320315123 -42.0313797 4.22574234
2.331753969 -42.0266571 5.678037643
2.337023258 -42.03813934 7.144678593
2.387060881 -42.83290482 8.77728653
1.075309038 -22.41822433 0.3269853592
1.158639789 -23.95879555 1.099927425
2.179871321 -42.32203293 2.796966553
2.182463408 -42.29023361 4.248673439
2.192723513 -42.26477432 5.707361698
2.197538376 -42.2711792 7.181417942
2.22855401 -42.76648331 8.765079498
1.000939608 -22.43584251 0.3276480734
1.077113628 -24.02679634 1.101878405
2.040301323 -42.5830574 2.811224699
2.042350054 -42.54066849 4.270945072
2.052560091 -42.51432419 5.738106251
2.057831526 -42.5333519 7.222738266
2.072316885 -42.73478317 8.759579659
1.899279118 -42.69161987 2.818027258
1.902946353 -42.68478012 4.284297466
1.913191676 -42.65991211 5.756487846
1.917854905 -42.67034149 7.244742393
1.922503471 -42.6766777 8.749103546
1.649168134 -42.56348038 1.357307076
1.749820709 -42.61607742 2.815894604
1.754020095 -42.62531662 4.280642986
1.764350414 -42.6046257 5.751013756
1.767730474 -42.58963013 7.233155251
1.773539901 -42.62785721 8.740476608
1.500722051 -42.4850235 1.357969522
1.600758672 -42.53601456 2.81354475
1.604457498 -42.53743744 4.274631023
1.614840269 -42.52103043 5.742210388
1.617810369 -42.49850845 7.220017433
1.622798324 -42.52353287 8.721349716
1.362968922 -42.49374771 1.359729648
1.45234704 -42.45741653 2.811268568
1.462376118 -42.43682861 4.267504215
1.466426253 -42.45079041 5.735037804
1.469178796 -42.42463684 7.209605217
1.481074691 -42.44592285 8.70734787
1.219961286 -42.57218552 1.362529397
1.311623335 -42.37407684 2.808686256
1.320555687 -42.55110168 4.278475761
1.316757202 -42.32445145 5.721223831
1.336769938 -42.61275864 7.239723682
1.331219792 -42.32484818 8.685178757
1.072196722 -42.48620224 1.363051176
1.164350271 -42.29444885 2.806364775
1.174525023 -42.54336166 4.279250145
1.177141309 -42.26487732 5.715334892
1.189915299 -42.5951767 7.238142014
1.184087634 -42.26804733 8.675339699
1.017157316 -42.19433212 2.803045988
1.026496291 -42.45143509 4.272988319
1.023274779 -42.19723511 5.708654881
1.042456627 -42.54745102 7.231957436
1.036728024 -42.18519974 8.660610199
-22.45597839 15.24616909 0.8518992662
-21.82111549 14.81304741 1.662213326
-22.48540306 15.29876041 2.516746044
-22.46218491 15.3602581 0.8478890061
-21.21351624 14.44933128 1.642124772
-22.41450119 15.34936047 2.512121439
-21.91207314 15.04246426 0.8515347838
-21.07514 14.44582176 1.636372685
-20.94239426 14.32638931 2.402870893
-21.71873093 14.99514008 0.8504800797
-21.31685448 14.73147011 1.642271757
-20.8907795 14.3836813 2.399644852
-21.33979797 14.80158806 0.8520484567
-20.97953796 14.56269073 1.630616426
-21.76580238 15.16457176 2.465706348
-21.30625725 14.87040806 0.8490492105
-20.65847015 14.40842724 1.619422555
-21.75772858 15.25607491 2.465746164
-21.3155098 14.9782095 0.8452353477
-20.6379261 14.48936367 1.617342472
-45.29782486 34.00264359 4.228203773
-44.65599442 33.60685349 6.028105736
-21.52201843 15.24879169 0.8383318782
-20.67170906 14.61399269 1.616888404
-21.47932243 15.24158669 2.446280241
-44.60400772 33.8008194 6.028584957
-21.05844688 14.97992134 0.8413617611
-20.63699341 14.68937969 1.614285111
-21.80179977 15.60899162 2.471168041
-21.02948952 15.05731487 0.8380582333
-20.72087669 14.85612869 1.615297794
-21.07846832 15.12901974 2.417662859
-20.91487885 15.06526947 0.8360301256
-20.92152596 15.11971569 1.619765997
-21.08604813 15.23713398 2.418926716
-20.84745216 15.11617279 0.8331013918
-20.69269943 15.03316116 1.611410141
-21.08537102 15.33913898 2.419580221
-42.48823166 33.02408981 5.801345825
-21.14483261 15.46291542 0.8246615529
-20.57403946 15.0357151 1.606348634
-20.58781433 15.03585339 2.382972479
-42.49257278 33.25733948 5.808578968
-20.61374474 15.16950035 1.605977178
-20.53019714 15.08364582 2.379311085
-41.98386765 33.06319427 5.753842354
-20.93348885 15.48869896 0.8204087615
-20.61751175 15.27416229 1.604525447
-20.75604057 15.37413216 2.396994352
-42.44142914 33.67765427 5.816019535
-21.0787468 15.71991348 0.8139203787
-20.50319481 15.27960014 1.599589467
-20.86261559 15.56715298 2.40573597
-43.22785568 34.5777359 5.918317318
-21.17181396 15.90399647 0.8083851337
-20.83248711 15.66731071 1.607572794
-21.02020836 15.81074142 2.418372393
-41.34015274 33.21711731 5.6965065
-20.93441391 15.81251526 0.8080964684
-20.67773438 15.63918781 1.601428986
-20.61490822 15.56920147 2.388613462
-41.15488434 33.28736115 5.680837631
-20.67475128 15.69432068 0.8084588647
-20.81580162 15.86811829 1.603737593
-20.50370216 15.582407 2.381021976
-40.37241745 32.85071182 5.592754841
-20.68803596 15.81037903 0.8042066097
-20.71980095 15.89039993 1.599299073
-20.45094109 15.6405201 2.377798319
-40.31492615 33.02704239 5.592580795
-20.6721096 15.90171337 0.8004187942
-20.35321808 15.67493057 1.587044597
-20.45506287 15.74843121 2.37887001
-39.2663002 32.33299255 5.471323967
-20.71917534 16.05423164 0.7952785492
-20.32111549 15.75087643 1.584479928
-20.63535309 16.01240158 2.393247366
-40.39744949 33.55653763 5.616566181
-21.58966637 16.93249702 0.7755092382
-20.19943047 15.75263309 1.579252958
-20.72027397 16.19994164 2.400488377
-40.43831253 33.83541489 5.629001617
-21.30263138 16.79474258 0.7761030197
-20.36949921 16.00961113 1.582461357
-20.77549553 16.35731506 2.405463934
-40.28483582 33.93023682 5.617311001
-21.31497574 16.90081215 0.7721543908
-20.34727859 16.08529472 1.580309629
-41.55834961 35.16888046 3.977585077
-38.66787338 32.67883682 5.424937725
-21.19087219 16.90102959 0.7700482011
-20.31202507 16.16013908 1.577608705
-39.90324783 33.90953827 3.854179859
-37.83514404 32.14519119 5.329318047
-20.96569633 16.86493683 1.594400644
-39.6376152 33.89940262 3.835828066
-38.43095016 32.91142654 5.409689426
-37.78332138 32.46872711 2.066757202
-38.41882706 33.02208328 3.74535203
-38.489254 33.20204926 5.424307346
-37.66137314 32.57733536 2.059774637
-38.29375839 33.14340591 3.737687588
-39.01839066 33.92137909 5.496959686
-37.62531281 32.76598358 2.055188417
-38.36207581 33.42237854 3.744527817
-38.39132309 33.5666275 5.426538944
-37.42665482 32.80271912 2.046042681
-38.97627258 34.22784805 3.792919874
-38.21935654 33.63422012 5.412462711
-37.76537323 33.34716415 2.051833153
-38.71487045 34.21456909 3.774887562
-38.53125381 34.16045761 5.45859623
-37.42923737 33.25406265 2.038842678
-38.19374466 33.951931 3.737108231
-37.98470306 33.8716011 5.397950172
-41.48295975 37.26745224 0.3112192154
-39.78141785 35.71915436 3.859796286
-37.94852066 34.07997894 5.40124321
-37.84111786 34.11885452 2.042550802
-39.58200836 35.78285217 3.846649885
-38.30459595 34.6583519 5.453293324
-40.81301117 37.11496735 0.3052813709
-36.69670486 33.23672104 2.007462502
-39.48925018 35.92491913 3.841436148
-38.20104599 34.79421234 5.447992325
-36.56383133 33.33279419 2.000132322
-39.15306091 35.8409996 3.81777668
-38.1821785 35.01357269 5.45335865
-36.50466537 33.50140381 1.994794846
-36.55642319 33.52331161 3.621669054
-39.71904373 36.77527618 5.654429436
-35.92159653 33.14963531 1.975291252
-36.36323547 33.55997849 3.60877347
-37.30334473 34.61748123 5.358363628
-35.85563278 33.30929947 1.969786644
-36.19560242 33.62111664 3.597831249
-37.08871078 34.63850403 5.339060307
-35.92263794 33.61514664 1.96763134
-36.11927795 33.78501129 3.593967676
-37.95512009 35.76383972 5.456830978
-35.92625809 33.84783173 1.963922024
-36.33665466 34.23618317 3.612498045
-37.38833237 35.43098831 5.393143177
-35.86556625 34.0279541 1.958276629
-36.21308517 34.35520935 3.605066538
-40.18812561 38.5594368 5.75701046
-13.08454037 10.91953278 4.827970982
-13.05113602 10.92406178 5.345269203
-13.16620636 10.86317348 1.355173111
-36.38292694 34.7646637 3.620034218
-36.37209702 34.8792572 5.28054142
-13.14096832 10.89940548 2.818042517
-13.08443642 10.87818432 3.303297043
-13.06904221 10.90001392 3.801776171
-13.04401302 10.90868664 4.303815365
-13.0256691 10.92839336 4.816536427
-13.02014542 10.96228218 5.344934464
-13.11404037 10.80514431 0.3886400759
-13.07233429 10.79878521 0.8709919453
-13.0759306 10.83924961 1.351632357
-13.08613014 10.84155369 1.835226893
-13.05512619 10.84630299 2.31750989
-13.05117607 10.87592888 2.806145191
-13.0332756 10.89480495 3.297441959
-13.02470493 10.92386723 3.797007799
-13.00242043 10.93543816 4.299470425
-12.98276234 10.95382309 4.811331272
-12.975914 10.98646927 5.338735104
-13.04341221 10.80106354 0.3892537057
-13.02115345 10.81473351 0.869326055
-13.01358795 10.84371376 1.348832726
-13.02104664 10.84331036 1.830817342
-13.00666809 10.86536503 2.313676596
-13.01090336 10.90373516 2.803082228
-12.99433899 10.9240942 3.294413567
-12.98166752 10.94895935 3.792620182
-12.96609879 10.9676981 4.296925545
-12.95828152 10.99881172 4.813381195
-12.99364471 10.81825447 0.3883239329
-12.9961977 10.85794163 0.8670181632
-12.96648121 10.86381149 1.34643352
-12.99873066 10.88960075 1.829692364
-12.98285866 10.91024494 2.312998295
-12.97191715 10.93282223 2.800260305
-12.9702034 10.96905994 3.294830799
-12.97078514 11.00825405 3.797404766
-12.96864223 10.86127567 0.385525912
-12.96968269 10.8996439 0.864734292
-12.96600914 10.93315315 1.345242739
-12.96660995 10.92569065 1.827818036
-12.97635841 10.93910027 0.3802186549
-36.32474136 36.03915024 5.315392971
-35.46469498 35.25675583 1.920054436
-35.15063858 34.89229965 3.537425518
-36.08695984 36.02999496 5.293246746
-37.42234039 37.61682892 1.965927243
-35.12692642 35.10552597 3.53765583
-36.06833267 36.25701141 5.299328327
-36.61283493 36.9923439 1.940973759
-36.30432892 36.62838364 3.630564213
-35.27661896 35.64043808 5.205612183
-36.09091568 36.6730957 1.923454165
-36.28191757 36.85515976 3.631020069
-36.11458206 36.80779648 5.322562218
-35.15574646 35.89093781 1.895642161
-36.15644455 36.9696846 3.62353611
-35.85318375 36.7711525 5.297430515
-34.75564575 35.69178772 1.881413221
-36.02047729 37.21104431 5.327991009
-34.85252762 36.04539108 1.879606962
-36.08182144 37.5364151 5.344938755
-35.63984299 37.15517426 3.590285301
-37.11994553 38.9708786 5.489556313
-33.92529297 35.48860168 1.848217607
-35.44865799 37.1939888 3.57773757
-36.90697479 38.99728012 5.471162319
-36.64573288 38.81998825 3.672955036
-36.73360443 39.05439758 5.457470894
-34.62526703 36.77331924 1.856949806
-36.13764954 38.48959351 3.635768175
-37.7697525 40.52274323 5.603199005
-34.58490372 36.98020554 1.851557851
-36.51775742 39.19662857 3.667729378
-35.61919785 38.29966736 5.329965115
-34.01308823 36.56725693 1.833358169
-35.29296112 38.03738403 3.574847698
-35.78739929 38.7624588 5.361633301
-34.4919281 37.38375473 1.840377212
-36.00169373 39.13463593 3.6324687
-35.53554535 38.73414993 5.337943077
-34.33106995 37.45194244 1.832021117
-34.49742889 37.62406158 3.517627001
-35.43048477 38.87842941 5.333675861
-34.64001083 38.09366608 1.834518075
-34.28461456 37.64434433 3.503529787
-35.37689972 39.0983963 5.336787224
-34.58179474 38.2882309 1.828495741
-34.40806198 38.05439377 3.515590429
-35.42164612 39.42491531 5.352594376
-34.31000137 38.22528076 1.81746769
-35.70825577 39.89341736 3.619762421
-37.29025269 41.97137451 5.612089157
-34.15438843 38.30163574 1.809160352
-35.45819092 39.86691666 3.602767706
-34.9066124 39.34717941 5.303726196
-34.16775513 38.58520508 1.804733276
-35.27681351 39.92277908 3.591150284
-34.78378296 39.47114944 5.29729414
-34.42335129 39.17108917 1.805779934
-37.58721161 43.05971909 3.775084496
-34.68422318 39.6242218 5.294030666
-34.25224686 39.23196793 1.797022104
-34.49436951 39.6649971 5.278648853
-35.84040833 41.50079727 1.827860355
-36.52235413 42.9403038 1.832770467
-36.14205933 42.77080917 1.818684101
-37.49876785 44.48468018 3.782707214
-36.33623123 43.32410812 1.817486882
-37.3589325 44.61922455 3.774687529
-36.04074097 43.24655914 1.805546761
-37.00181961 44.47142029 3.749498367
-36.00335312 43.50453186 1.799197912
-36.72616196 44.4264679 3.730732918
-35.78687668 43.54361343 1.78869772
-36.57152176 44.55466843 3.721703291
-37.20015335 45.73418427 1.812968016
-36.65937042 44.98949432 3.731777906
-35.1587677 43.32552719 1.764197469
-34.99405289 43.41323853 1.755124807
-37.36963272 46.59440613 3.794629574
-35.13006592 43.90952682 1.752248287
-37.17705536 46.66764069 3.782593966
-36.94877625 47.02846527 3.771066427
-36.81830215 47.21232224 1.768610597
-49.67002487 68.49658966 1.963240504
-49.14416885 68.73745728 1.934555054
-48.79640579 68.72996521 1.918669343
-48.11781693 68.22077179 1.896905422
-27.97558594 39.42434692 4.704832077
-28.47230339 40.52647781 4.790845394
-46.13139343 68.78955841 1.79412353
-26.65537834 37.92942429 4.533818722
-26.05528069 37.25154877 4.456192017
-26.07750511 37.44363785 5.981087685
-26.33699226 37.82138443 2.979738712
-25.28876114 36.29146576 4.353264809
-26.07885933 37.73313904 6.001598835
-26.29411888 38.21573639 4.515178204
-25.93183517 37.78199387 5.990044594
-27.26713562 40.16414261 7.926119804
-44.7483139 68.66709137 1.731972456
-27.16823959 39.76896667 3.054620981
-25.22145271 36.74045181 4.365868568
-25.75188637 37.7758255 5.971295834
-27.08135796 40.16666412 7.904021263
-24.45362473 35.5827446 2.83335948
-24.70186234 36.14639282 4.298465729
-25.64984703 37.8984375 5.969625473
-26.97281265 40.29751968 7.904249191
-24.48799515 36.06830597 4.277523994
-24.98497391 37.07413864 5.843782425
-25.14862633 37.51189804 7.403475761
-24.49436188 36.35976791 4.289972782
-24.92974091 37.2555275 5.851112843
-24.98094559 37.52009583 7.384316444
-24.19756889 35.96941757 2.820942163
-24.70194244 36.99730682 4.333276272
-24.95309067 37.60235214 5.8781991
-25.95382881 39.48727417 7.700382233
-24.15070534 36.19797897 1.390078783
-23.76632309 35.52789688 2.788230181
-24.46939087 36.90299988 4.310205936
-24.93278122 37.86351776 5.894826412
-25.5633831 39.13866806 7.618528843
-23.91913986 36.08298111 1.381409526
-23.78399467 35.83712769 2.792746067
-23.98469925 36.35490036 4.247704029
-25.32514572 38.84516907 6.004448891
-26.34607887 40.81705856 7.882710934
-23.21534729 35.13217545 2.748293638
-23.71033478 36.16370773 4.217254162
-25.00963402 38.60084915 5.955387115
-26.24599648 40.96659088 7.886262894
-26.1891613 41.06798935 9.546587944
-29.73932266 46.846241 1.447413087
-22.84218407 34.75681305 2.720085144
-23.13202858 35.43360519 4.139595509
-24.41163826 37.86719131 5.843023777
-24.06946564 37.4296608 7.267412663
-23.67788887 36.91594315 8.651049614
-29.50609207 46.80871201 1.437137723
-22.78318787 34.94245911 2.718321562
-22.99201012 35.46766663 4.129539967
-24.16144371 37.91024399 7.327658653
-23.51794624 36.92560196 8.630800247
-29.2775135 46.75863647 1.42731452
-22.96413231 35.52901459 2.736453533
-23.67206573 36.9526825 4.246828556
-24.13858986 38.15962601 7.350727081
-23.41765976 37.02753448 8.63104248
-29.0563755 46.71977997 1.417614818
-22.80072403 35.50630569 2.725678682
-23.23707008 36.45145035 4.190468788
-23.69305229 37.45641708 5.742129326
-24.01329422 38.22544098 7.342968464
-23.84000778 38.08550644 8.830055237
-25.6421032 41.59163284 11.22792149
-28.81737518 46.64671707 1.407725573
-24.70635796 39.22111511 2.889492035
-23.11351776 36.50669098 4.182711124
-23.30638123 37.03933334 5.673757076
-24.93175888 40.20545959 7.65447855
-24.50865746 39.81653214 10.76082039
-28.56488037 46.60321808 1.396609664
-23.07724571 36.76608276 4.190608025
-25.34341431 41.10545731 6.169538498
-24.89327049 40.47994232 7.67852211
-23.8442688 38.73553848 8.918444633
-24.31890869 39.82304382 10.73338318
-23.86478806 39.16249466 12.15481758
-28.33823776 46.58575821 1.386198521
-22.40511322 35.66131592 2.701966524
-22.37930298 35.79096603 4.09314394
-22.9660778 37.04517365 5.640769005
-24.74558067 40.55407715 7.669234276
-22.70254135 36.92895889 8.522596359
-24.21674919 39.97690201 10.74385357
-23.65516853 39.10702896 12.10865211
-28.1048336 46.53478622 1.376109719
-23.26216507 37.55646515 2.77815938
-22.58578873 36.46869278 4.138315201
-22.56974411 36.62255859 5.571182251
-24.53359222 40.50705338 7.640021801
-22.87486267 37.56079865 8.631097794
-23.91729355 39.93484116 12.31808472
-27.88474464 46.48731232 1.366574645
-23.21234131 37.75593185 2.777199507
-22.72661018 37.01814651 4.172809124
-23.17152023 38.04610062 5.733940601
-22.44317245 36.85856247 7.020099163
-22.86308861 38.03414154 10.21623898
-23.35963821 39.17847824 12.0738306
-27.66480446 46.45723343 1.356695294
-23.19138527 38.01195526 2.778733015
-22.43493843 36.77157974 4.138899326
-22.6564827 37.36567688 5.634016037
-22.35434151 36.98006058 7.022686958
-22.79043579 38.19694901 10.23290539
-23.23247337 39.26166153 12.06953812
-22.14983368 36.35802078 1.292257786
-25.0885849 41.93263626 2.944359541
-24.50547218 41.03288651 4.485513687
-22.31415367 37.2118988 7.04241991
-22.54771042 37.86034012 8.629128456
-22.46139526 37.89347839 10.13325024
-23.05163002 39.25641251 12.0387373
-22.01504898 36.40155792 1.28497088
-24.86808586 41.87707138 2.929626703
-23.68752289 39.8000412 4.367648125
-22.11252594 37.14790344 7.012879848
-22.48515701 38.05765152 8.64799881
-22.39800262 38.0900383 10.1571722
-23.27731705 40.03753662 12.23326206
-23.09422684 39.87850189 13.80968952
-21.8112812 36.31134796 1.277015448
-21.99805641 36.66184235 2.687148809
-23.43689346 39.64733887 4.341087818
-21.79514885 36.64610291 5.497815132
-21.97811508 37.18219757 7.001326561
-22.41434288 38.24094009 8.663960457
-22.94692421 39.4875679 10.47397327
-22.57192039 38.95580292 11.89966488
-22.99784279 40.02808762 13.82753086
-26.76460075 46.27730179 1.31726563
-22.3110714 37.57996368 2.717557192
-24.04225349 41.16877365 4.454158783
-21.58226204 36.52114487 5.468122959
-22.75802422 39.04272842 7.285097122
-22.54915428 38.83576965 8.763001442
-22.504879 39.1560936 11.92932892
-22.95168495 40.28078842 13.87885189
-26.53744125 46.22264862 1.307470798
-21.57809448 36.455616 2.657996893
-23.86222458 41.16246033 4.43952322
-21.94516373 37.55270767 5.579209328
-22.38711548 38.84350967 8.743268967
-22.10002136 38.45921707 10.17644882
-22.27394867 39.0259285 11.86561489
-22.22506523 39.1468811 13.48116207
-26.31454659 46.1741066 1.297748685
-21.43969727 36.49015808 2.649567127
-23.66104507 41.11258698 4.42137289
-21.76411819 37.51089859 5.558803082
-22.8772049 39.95511246 7.394853115
-22.22351646 38.84704971 8.722841263
-21.91436386 38.43061447 10.14480019
-22.24061203 39.29707336 11.91533852
-22.11530685 39.26269913 13.48906708
-26.0906353 46.14102554 1.28766036
-21.47546196 36.88843536 2.65639782
-23.83770561 41.83878326 4.466457844
-21.39925194 37.11140442 5.494367599
-21.61465645 38.16554642 10.05655956
-22.55929375 40.31721115 12.17398643
-21.99828148 39.38156509 13.49655247
-25.87161827 46.09584808 1.278035641
-21.30820274 36.88264084 2.645687103
-22.07124329 38.82036972 5.685338974
-23.86447334 42.92971039 9.495506287
-21.45934296 38.17735672 10.03637314
-23.91184998 43.49459839 13.03735924
-21.91049194 39.54532242 13.5199995
-25.66104126 46.04582214 1.268902421
-21.09565735 36.75151825 2.630665779
-21.49875069 37.75810623 4.106199741
-22.30872536 39.63013077 5.768180847
-23.00584793 41.50089264 9.18908596
-21.58200073 38.75337219 10.15241432
-21.71041679 39.22750092 11.8166399
-21.71861649 39.47288132 13.46915245
-25.44581795 46.00412369 1.259369969
-20.95326614 36.76134491 2.621731997
-21.4206295 37.92533112 4.107219219
-21.24707794 37.96227264 7.00265789
-22.70654869 41.47207642 10.77789021
-21.65205383 39.4524765 11.85344505
-22.51256561 41.52197647 14.09592152
-24.93497467 45.36711884 1.247435451
-21.29368591 38.0092659 4.100829601
-22.38602257 40.49075317 5.839772224
-21.09445381 37.99240112 6.989129066
-22.65335846 41.51068115 9.146179199
-22.29579926 40.98468018 10.63622284
-21.55936813 39.62453461 11.87413597
-21.27082443 39.23574829 13.33471966
-22.8286438 41.37554169 1.225406885
-21.28105354 38.33420181 4.113859653
-24.53486824 45.41475677 6.410480022
-21.00489235 38.37152863 8.503260612
-22.18907166 41.12272644 10.64497471
-20.74435043 38.23474121 11.46135902
-21.14262009 39.32921219 13.33494759
-22.6532402 41.37037659 1.217035532
-22.57778931 41.4285965 4.349410057
-22.51011848 41.49636459 5.926811695
-22.46873474 41.64097214 7.529527187
-20.09853745 36.75787354 8.165493965
-22.29830933 41.73118973 10.76509953
-20.53276062 38.11850739 11.4045229
-21.14399147 39.69015503 13.42164803
-22.52396584 41.46224976 1.208944798
-21.05114937 38.31283951 2.645903349
-22.43815422 41.49908447 4.341529369
-22.36105156 41.54707336 5.916706562
-20.97975922 38.78847122 7.061904907
-19.95386696 36.7739296 8.149829865
-20.87788773 38.99634933 10.09527493
-20.44794273 38.27857208 11.42435169
-21.07518196 39.90096283 13.46047497
-24.09111023 45.20466614 1.209888816
-23.98726082 45.22315979 4.624174595
-23.91233826 45.29567337 6.343405724
-20.98104095 39.14204025 7.10004282
-19.81417656 36.80016327 8.136281967
-22.83575058 43.68434525 11.17716217
-20.32009697 38.34472275 11.41828918
-20.55158997 39.0958519 13.17798615
-23.88302994 45.15991592 1.200698137
-20.85019112 38.56557083 2.636143923
-21.8939743 41.06187439 4.28006506
-23.74931908 45.34946823 6.332334042
-20.56183815 38.57262421 6.99358511
-19.67450905 36.82585526 8.122735977
-21.79325485 41.75800323 10.69971943
-22.7652874 44.19314575 13.00197029
-20.4224205 39.16618347 13.17307281
-23.78012848 45.3435173 1.192017436
-20.69228554 38.56792831 2.626200676
-23.71088982 45.43891525 4.612036705
-23.7007103 45.65642929 6.351030827
-19.59742546 36.99127197 8.13654232
-20.60585403 39.46723175 10.13927078
-22.56280899 44.14518738 12.96112919
-20.26291275 39.16743469 13.14653778
-23.71739388 45.61805725 1.183450103
-20.48680305 38.46401215 2.612018824
-20.40058708 38.49206924 4.051992416
-23.6372242 45.93454361 6.366224766
-21.18370247 40.68326569 7.287991047
-20.10198402 38.92279816 11.50462818
-20.40957832 39.87322617 13.34152031
-23.64562988 45.87626266 1.174761772
