# .PCD v0.7 - Point Cloud Data file format
VERSION 0.7
FIELDS x y z
SIZE 4 4 4
TYPE F F F
COUNT 1 1 1
WIDTH 1302
HEIGHT 1
VIEWPOINT 0 0 0 1 0 0 0
POINTS 1302
DATA ascii
3.913520098 -4.550567627 1.517201543
3.647093296 -4.297073841 1.645110369
2.426983595 -3.157037973 1.477535486
2.455182076 -3.179680586 1.607939601
2.721161366 -3.422398567 1.834590435
21.04566765 -20.87396431 0.6745968461
36.23307037 -35.08118439 2.329040289
37.20767975 -35.94959641 4.157742977
37.00056076 -35.69139862 5.920906067
3.893464565 -4.557386875 1.516423941
3.606372356 -4.282783508 1.638857365
2.406159163 -3.153423786 1.474219799
2.447129965 -3.188200474 1.608299613
2.700976133 -3.421333313 1.83064115
37.04682541 -36.09395981 2.37435317
37.06635284 -36.0492363 4.160706043
36.49406433 -35.45614624 5.872794151
3.86476922 -4.555942535 1.51401937
3.712601423 -4.405610085 1.667209744
2.326966524 -3.094641447 1.454164147
2.454611778 -3.211332083 1.6138978
2.684083223 -3.422327757 1.82775557
36.04562759 -35.37096024 2.341429234
36.19116211 -35.46017838 4.097401619
3.838207245 -4.555044174 1.511851907
3.588821173 -4.312604427 1.641249776
2.30115056 -3.084800959 1.449180722
2.442626476 -3.215417147 1.612811685
2.711519957 -3.466014147 1.842292666
35.49011612 -35.07769394 2.327882767
35.61977386 -35.15314484 4.061365604
4.361124516 -5.088011742 1.40052557
3.786734819 -4.531362057 1.505099654
3.588196993 -4.335972786 1.644499779
2.355739832 -3.152291536 1.467497945
2.455532789 -3.244001389 1.620321631
2.560281277 -3.340044022 1.787189603
20.35619736 -20.75988007 0.6888290644
34.9643631 -34.80742264 2.315390587
35.0896759 -34.88005447 4.028764248
4.337841511 -5.094881058 1.399958849
3.724068642 -4.496360302 1.496165156
3.709497213 -4.4769907 1.677013278
2.501591682 -3.308410883 1.512405396
2.443054676 -3.248482943 1.619253516
2.46691823 -3.267669201 1.754362345
20.228302 -20.77332115 0.6921286583
34.44953537 -34.54226685 2.303146362
34.53910446 -34.58135986 3.993908644
4.310288429 -5.097472668 1.398781896
3.748370886 -4.545210361 1.503775239
3.910458565 -4.697133064 1.728972077
2.570438862 -3.392013788 1.535271168
2.384502649 -3.208347559 1.602440357
2.462697029 -3.280232906 1.756360769
20.11906815 -20.80437851 0.6953203082
34.03816986 -34.37346268 2.295258999
34.06363678 -34.35058975 3.965693474
4.229468346 -5.049127102 1.390143275
3.752554417 -4.574866295 1.507591605
3.808297634 -4.623933792 1.708089828
2.561214447 -3.401381254 1.535671234
2.367598057 -3.208899975 1.599947572
2.451518536 -3.286088705 1.755635977
19.99504089 -20.82712173 0.6986955404
33.95492935 -34.53724289 2.302351475
33.95045471 -34.48482895 3.971945524
4.227649212 -5.076416016 1.392595768
3.79543066 -4.644203663 1.519053936
3.758017778 -4.601873875 1.699820876
2.246613503 -3.109771729 1.446384788
2.334492683 -3.192630291 1.591704249
2.552625179 -3.40274477 1.79961586
19.94235229 -20.91376495 0.701608777
33.87117004 -34.68932724 2.308940172
33.86665726 -34.63674927 3.980204821
4.255991459 -5.135346413 1.399544835
3.717592239 -4.593174934 1.507101417
3.603640556 -4.474788189 1.665929317
2.33289957 -3.207958937 1.594457269
2.445145369 -3.314293146 1.760742664
19.88999367 -20.99397087 0.704384625
33.80963135 -34.85232925 2.316042662
33.78955078 -34.78401947 3.988346815
4.248240948 -5.154298306 1.400928855
3.719275713 -4.619456768 1.510351658
3.584714413 -4.479717731 1.66473341
2.711240292 -3.602978945 1.588841558
2.317305803 -3.20702672 1.591902852
2.434305191 -3.319634914 1.759997845
19.86184311 -21.10603333 0.70719558
33.72455978 -35.00411987 2.322636843
33.70589828 -34.9370079 3.996743202
4.21855545 -5.155677795 1.399563193
3.713185787 -4.639410019 1.512270212
3.58323288 -4.503343582 1.668001056
2.708144665 -3.619791746 1.591316938
2.30326581 -3.209968567 1.590353608
2.431191206 -3.333516359 1.762543321
19.83381081 -21.22588921 0.710146606
33.63565063 -35.16444016 2.329614162
33.61699295 -35.09712219 4.00552845
4.253882408 -5.221377373 1.40751946
3.707734823 -4.661419868 1.514490485
3.689003229 -4.636983395 1.69795239
2.684789181 -3.615277767 1.587619543
2.292378187 -3.215198994 1.589741349
2.451973915 -3.372409582 1.774932384
19.81568909 -21.34953499 0.7129309773
33.53666687 -35.30298996 2.335632563
33.53617477 -35.25404358 4.014331341
4.244283199 -5.241858006 1.408972502
3.698676109 -4.678548813 1.515865564
3.63721633 -4.610402107 1.688931465
2.669732094 -3.619010925 1.586380005
2.277395725 -3.216229677 1.587692261
2.429726362 -3.367206097 1.769839644
19.78445435 -21.4603405 0.7157719135
33.45380783 -35.45851135 2.342424631
33.44631958 -35.40222931 4.022331715
4.108085632 -5.126018047 1.600011945
3.657154799 -4.656911373 1.697689295
2.679286003 -3.647890568 1.592530489
2.34386611 -3.30051446 1.614364147
2.38466692 -3.338504076 1.755456924
19.75822258 -21.57695198 0.7186000943
33.38414001 -35.62826157 2.349866867
33.35723495 -35.55163193 4.030466557
33.36343384 -35.49707794 5.717557907
3.903300524 -4.94362545 1.562904119
3.611053944 -4.63561821 1.690023422
2.66824007 -3.655782938 1.592522621
2.359733343 -3.333728552 1.623337388
2.377387285 -3.348149776 1.756361842
19.73554802 -21.69797897 0.7214229703
33.29849243 -35.7820549 2.356600761
33.28820038 -35.72247314 4.040623665
33.26951218 -35.64181519 5.726679325
3.742359877 -4.804187298 1.534219146
3.603365898 -4.653843403 1.691938281
2.602887869 -3.607214689 1.576070189
2.367311239 -3.358692169 1.629442573
2.476947784 -3.468520641 1.800994396
19.71363068 -21.82056618 0.7242516279
33.20671463 -35.9298439 2.36307478
33.20187378 -35.87589645 4.049168587
33.24082184 -35.85549164 5.745614529
3.699947834 -4.787063599 1.529035211
3.454165459 -4.523766518 1.65820682
2.567656755 -3.589360476 1.568648577
2.368030787 -3.376722574 1.633155346
2.486501694 -3.496551752 1.809023261
19.69247437 -21.94470406 0.7270857692
33.11701202 -36.08035278 2.369680882
33.11489105 -36.02912903 4.057714939
3.720922709 -4.842115879 1.345214009
3.679484367 -4.792720795 1.528225422
3.435992241 -4.530038357 1.657357812
2.535279036 -3.574133158 1.56204164
2.151981831 -3.166764259 1.559184432
2.350010157 -3.371387005 1.756886959
19.66795731 -22.06602478 0.7299386859
33.0375824 -36.24234772 2.376813412
33.0245018 -36.17928314 4.065992832
3.689399719 -4.836186409 1.343114853
3.645462751 -4.78384304 1.524670601
3.436719418 -4.55632019 1.661310554
2.525855541 -3.582931757 1.562425971
2.175964355 -3.208118916 1.571024299
2.338630676 -3.376736403 1.756148577
19.63604736 -22.18008041 0.7328201532
32.9601593 -36.4071312 2.384081364
32.93889999 -36.33507919 4.07481432
3.662033796 -4.834451675 1.341624737
4.020938873 -5.213777542 1.604256034
3.410404444 -4.553853512 1.658399105
2.508378506 -3.583122253 1.56033814
2.186403513 -3.235501051 1.578073859
2.314080954 -3.368008614 1.749934673
19.61576843 -22.30742645 0.735675931
32.87113571 -36.56005859 2.390825987
32.84993744 -36.48775101 4.083364964
32.84893036 -36.42470551 5.781103611
4.03539753 -5.259722233 1.610909939
3.424341202 -4.594589233 1.665789962
2.143776655 -3.20612669 1.565922618
2.301423073 -3.371807337 1.748643637
19.59077644 -22.4304657 0.7385535836
32.7895546 -36.72162628 2.397969484
32.77375793 -36.65496445 4.093278885
32.72291183 -36.53741837 5.785912037
4.093829155 -5.353944778 1.626641273
3.43803525 -4.635464668 1.673187971
2.185559511 -3.271095753 1.466680884
2.148814678 -3.227820635 1.57105279
2.35800457 -3.450375795 1.776384354
19.57590294 -22.56545639 0.7414153218
32.69649124 -36.87123108 2.404584885
32.69144821 -36.81616211 4.102652073
4.084834576 -5.383301735 1.414717674
4.068830967 -5.357925892 1.625341892
3.451481342 -4.676481247 1.680593252
2.090880156 -3.185244799 1.440217137
2.153312445 -3.249951363 1.576202989
2.364609241 -3.475542307 1.783320189
19.5471611 -22.6935997 0.7444617152
32.60850525 -37.03968048 2.41205287
32.59807587 -36.97848129 4.111872196
3.995175838 -5.309653759 1.614160895
3.408397675 -4.656967163 1.673575759
2.105211258 -3.217113733 1.447553754
2.126720667 -3.237323761 1.569801807
2.34856987 -3.477040529 1.780958891
19.51758575 -22.81393051 0.7473753095
32.53408432 -37.21120834 2.419674635
32.50763321 -37.13194656 4.120569706
32.46522141 -37.02204895 5.82052803
3.984985352 -5.329420567 1.615875959
3.379350185 -4.651240349 1.669965863
2.393442869 -3.552663803 1.541198969
2.11066103 -3.236059189 1.567242026
2.290400267 -3.431006908 1.760479331
19.49799919 -22.94631004 0.7502775192
32.44424438 -37.3662262 2.426564693
32.42181396 -37.29119873 4.129816532
32.36759186 -37.16755295 5.830064297
3.96018219 -5.33292532 1.614559412
3.36615324 -4.662971497 1.670485497
2.141115427 -3.289972544 1.464724183
2.110202074 -3.252043724 1.570453286
2.19786334 -3.34598875 1.725171447
19.48036194 -23.08182716 0.7531871796
32.34973145 -37.5165863 2.433255196
32.34190369 -37.45774078 4.139750957
32.25879288 -37.30088425 5.837946892
3.970906973 -5.376311779 1.620686889
3.366000652 -4.68938303 1.674452186
2.36040926 -3.553164482 1.537387371
2.104487419 -3.26225853 1.571740866
2.17897296 -3.3421278 1.721119165
19.4699173 -23.22652245 0.756096065
32.26511002 -37.6787529 2.44048667
32.25725555 -37.61969376 4.149279594
32.15207672 -37.43690872 5.846239567
3.350064993 -4.698112011 1.674281836
2.370504856 -3.583343029 1.543954492
2.100015879 -3.27391386 1.573510051
2.172894955 -3.352556229 1.722553015
32.18238831 -37.84376907 2.447856665
32.16268158 -37.77097702 4.157850266
32.06444931 -37.59508133 5.85763216
3.374354124 -4.752708435 1.684811234
2.361051798 -3.591567039 1.54432106
2.090359449 -3.279737234 1.573352814
2.179480076 -3.377404928 1.729479074
32.08974075 -37.99808884 2.45475626
32.07270432 -37.92804337 4.166970253
31.96175003 -37.7365799 5.866750717
3.849532843 -5.332298279 1.606764555
3.351747513 -4.75401926 1.682916284
2.349001646 -3.596806288 1.543858886
2.070476055 -3.273824453 1.569338918
2.158069134 -3.370478868 1.724322557
32.00946045 -38.16734314 2.462337255
31.9910965 -38.09555435 4.177059174
31.87273026 -37.89438248 5.878148079
3.602345705 -5.077219963 1.557839513
3.325312376 -4.750747204 1.679980755
2.370234251 -3.640462399 1.55416286
2.068459749 -3.288335323 1.572071075
2.136734247 -3.363434553 1.719161391
15.63329411 -19.3406086 0.7717260718
31.92835426 -38.33652115 2.469925404
31.91131401 -38.26596451 4.187428474
31.767519 -38.03384781 5.887055874
3.613447189 -5.119814873 1.563937664
3.29893899 -4.747339249 1.677040219
2.567179441 -3.889075279 1.621653557
2.06763196 -3.304333448 1.575286746
2.134310722 -3.378118515 1.722242355
15.50962543 -19.32465363 0.7742236853
31.82578468 -38.48117447 2.476421833
31.8242588 -38.42867279 4.197113037
31.69001007 -38.20640945 5.900533676
3.683327436 -5.231939316 1.58278811
2.963508368 -4.380908012 1.590358496
2.537600756 -3.875655174 1.615835786
2.05789113 -3.310024738 1.57512641
2.113052368 -3.370903969 1.717074871
15.35482979 -19.26395035 0.776601553
33.59749985 -40.84100723 2.582479239
33.53491592 -40.712883 4.399546623
31.61055756 -38.36426544 5.91252327
3.743019342 -5.331842422 1.599416256
2.869175434 -4.292936802 1.568295121
2.578248501 -3.94371748 1.632801175
2.054841042 -3.322720766 1.577362537
2.149595261 -3.430599451 1.737194419
15.27150917 -19.2943306 0.7790254354
33.47060013 -40.97321701 2.588437796
33.41333771 -40.85092926 4.406746864
31.52766991 -38.5320282 5.925386429
2.60154295 -3.993077278 1.644407511
2.036289454 -3.317971706 1.573820591
2.118332148 -3.41159749 1.72762394
15.20980072 -19.35058022 0.7814292312
33.39546967 -41.16814423 2.597226143
3.653526068 -5.287784576 1.587815523
2.539925575 -3.946773767 1.485314608
2.571830988 -3.979580879 1.638588786
2.035234451 -3.333960533 1.577038646
2.098345757 -3.405672312 1.723000884
15.13774109 -19.39424896 0.783831656
33.30669403 -41.3475914 2.605329752
3.489155531 -5.120382786 1.555602908
1.983825564 -3.292909384 1.447118163
2.011767626 -3.323102474 1.571558475
2.087034941 -3.409985065 1.722228885
15.09079933 -19.46867371 0.7862240076
33.19680786 -41.50216293 2.612327099
3.464277744 -5.120253563 1.553928494
2.520969152 -3.96740818 1.486806631
1.967936516 -3.290729761 1.444937468
2.006928205 -3.334565639 1.573325753
2.070822716 -3.408320904 1.719251633
15.00080967 -19.49008369 0.7886143327
32.96278763 -41.5043869 2.61248827
33.02218246 -41.52326584 4.446648121
3.378112793 -5.044793129 1.538615227
2.517657757 -3.985309839 1.489287853
1.957858086 -3.296381235 1.444847941
1.996682882 -3.340367317 1.573174477
2.064401627 -3.41846633 1.720680475
14.87260628 -19.46997643 0.7911018133
32.84874725 -41.66835785 2.619933844
32.83516312 -41.59721756 4.447953224
3.387747765 -5.087897778 1.544746161
2.539747477 -4.035798073 1.499086261
1.96914947 -3.327471018 1.451812267
1.985628605 -3.344276428 1.572522402
2.019860506 -3.382738352 1.705034137
14.76540661 -19.46853256 0.7934530377
32.76232147 -41.8528595 2.62831068
32.74496841 -41.77678299 4.459043503
3.327139378 -5.04254055 1.534973264
2.496618509 -4.004714489 1.490451455
1.949552774 -3.320592642 1.448379636
1.979448915 -3.354176283 1.573805213
2.082398415 -3.477941036 1.737894654
14.6504879 -19.44987679 0.7956619263
32.65758133 -42.01536179 2.635710001
32.65614319 -41.94426727 4.469317913
3.32371068 -5.068024158 1.538012147
2.481328726 -4.006791592 1.489437461
1.975648761 -3.367093086 1.576056838
2.090599537 -3.505779743 1.745932937
14.59186554 -19.50873947 0.7980086207
32.57543182 -42.19234085 2.643765926
32.56306839 -42.12197495 4.480277061
3.285206318 -5.047945976 1.532934666
2.474076509 -4.020030499 1.490876675
1.969801903 -3.376634598 1.577324748
1.971158028 -3.374725819 1.695489764
14.55388832 -19.59425354 0.8003709316
32.47040939 -42.3560257 2.651240587
32.47405624 -42.30583191 4.491804123
3.454313755 -5.292824268 1.575345874
2.481389523 -4.051819324 1.496494293
2.66596818 -4.28020525 1.704301
1.955055714 -3.37584734 1.575215459
1.969576478 -3.390595675 1.699116707
14.50570488 -19.66707039 0.8027265668
32.38796997 -42.54943466 2.660063267
32.36576462 -42.46595764 4.501227379
3.558351755 -5.457769871 1.603284001
2.467880011 -4.057327271 1.49619472
2.459835291 -4.041550159 1.637610316
1.933150887 -3.365830421 1.570194364
1.967908502 -3.406484365 1.70274508
14.46695137 -19.75245667 0.8050935268
32.11522675 -42.49757385 2.657869577
32.1908989 -42.54056549 4.503044605
3.547204018 -5.476380825 1.604973435
2.44228363 -4.047224045 1.49240768
2.446374178 -4.046989918 1.637170434
2.047268867 -3.530189753 1.620466352
1.956693172 -3.41026783 1.701955318
31.69126701 -42.24601746 2.646706343
31.79236031 -42.32329559 4.478891373
32.50165939 -43.17601776 6.432809353
3.528716564 -5.485558987 1.604984283
2.440838099 -4.068174362 1.495590448
2.32769537 -3.916143656 1.600009918
2.328799725 -3.91331315 1.739684343
1.961952448 -3.435278893 1.708901525
31.29124832 -42.02064133 2.636728764
31.35101891 -42.04503632 4.449419022
3.422424793 -5.379805565 1.584551096
2.454833508 -4.109484196 1.503311753
2.287324905 -3.885407209 1.589948297
1.950716257 -3.442774534 1.589083195
1.982290864 -3.480164766 1.723038554
31.18955994 -42.18530655 2.644301653
29.55674553 -39.97273254 4.260594368
2.466187 -4.147792339 1.510342121
2.289315224 -3.910855293 1.594930172
2.015381575 -3.547092915 1.62000978
1.98717618 -3.50536108 1.729994774
31.09307098 -42.37275696 2.652919769
29.67174721 -40.42520142 4.296216488
28.83265305 -39.24295425 5.880761623
2.443525791 -4.142624378 1.507616997
2.28225255 -3.923473597 1.596554041
2.016582251 -3.56800127 1.624708295
1.979837656 -3.515647888 1.731438518
30.98500252 -42.53059769 2.660209417
29.15656281 -40.02288055 4.256220818
30.95394897 -42.36471176 6.286153316
3.38617301 -5.431732178 1.589039683
2.423866272 -4.140064716 1.505566597
2.280994415 -3.943903685 1.600268483
1.948931098 -3.497419119 1.600733519
1.962518334 -3.511749029 1.727885246
30.8951931 -42.71392822 2.668657303
29.00173378 -40.10015869 4.258838654
30.84285355 -42.51856232 6.297326088
3.341940403 -5.405321121 1.582851171
2.451234341 -4.200632095 1.517502189
2.276117086 -3.959655762 1.602730393
1.993109226 -3.575718641 1.623416424
1.955598116 -3.521622419 1.729311228
30.79620171 -42.88585663 2.676603794
28.8455162 -40.17523956 4.26129818
30.84653664 -42.82914352 6.329248428
3.034850121 -5.021547794 1.513707876
2.443140507 -4.213886738 1.518951416
2.445505142 -4.211341381 1.667956352
2.039069891 -3.657472849 1.647088647
2.305632114 -4.013216972 1.903525591
30.69993973 -43.06243515 2.684771299
28.67855453 -40.2352066 4.262458324
3.084667206 -5.119990826 1.529669642
2.710704088 -4.603647709 1.603379488
2.519448519 -4.336510658 1.699332952
1.907611132 -3.498815536 1.595842004
2.307168245 -4.038225174 1.909995675
30.61215782 -43.25181961 2.693527222
28.67882156 -40.52555084 4.283987999
29.1162281 -41.0625 6.078423023
3.043099403 -5.093840599 1.523703218
2.695366859 -4.609864235 1.60312283
2.391079903 -4.185568333 1.657446504
1.888163567 -3.491316795 1.591773033
2.299488544 -4.050867081 1.912035584
30.50949097 -43.42159653 2.701412201
28.56213379 -40.65601349 4.291417122
28.92656136 -41.09583664 6.074291229
3.012167692 -5.081913471 1.520261049
2.739935637 -4.699049473 1.621090412
2.216831207 -3.968798876 1.598342538
1.902916789 -3.530853987 1.602309108
2.27708602 -4.04326725 1.906868935
30.41640091 -43.60585022 2.709960938
28.40551567 -40.73090744 4.293979645
28.70931435 -41.08948135 6.065030098
3.014766932 -5.116523266 1.524983406
2.454838753 -4.329177856 1.53842783
2.201468229 -3.970127106 1.59703052
1.891379595 -3.534294605 1.601647735
2.268236876 -4.054265976 1.908352137
30.30508804 -43.76548767 2.717413902
28.23026657 -40.77916336 4.294234753
28.09440804 -40.52084351 5.982142925
3.010279655 -5.141516209 1.528018713
2.182721138 -3.966606617 1.594457984
1.883222103 -3.542423487 1.602446795
2.298424006 -4.119970798 1.929251194
30.20797539 -43.94612503 2.725823879
28.32455063 -41.2102356 4.328157425
28.04920197 -40.76639557 6.005759716
3.729977608 -6.194225311 1.710219264
2.404590368 -4.309162617 1.531162262
2.178159237 -3.984129429 1.597354054
1.873442292 -3.549270868 1.602773428
2.260387182 -4.090304375 1.916312695
30.12980843 -44.17123032 2.736263752
27.79550743 -40.70077133 5.989107609
3.63330102 -6.097478867 1.691669345
2.403300285 -4.334045887 1.535093546
2.206606865 -4.047708511 1.612406373
1.858531713 -3.547821999 1.600645065
2.236400843 -4.08122921 1.910599113
30.02278709 -44.34012222 2.74416995
28.19254112 -41.63949203 4.357768536
27.54943085 -40.64365768 5.973684788
2.393478155 -4.345613003 1.536195993
2.186588764 -4.042517662 1.609413505
2.219706535 -4.085663319 1.763917327
2.220772982 -4.08266592 1.908749104
29.91040421 -44.50221252 2.75178194
28.17790604 -41.90847015 4.377639294
27.38523865 -40.70329285 5.973584652
2.395392418 -4.372944355 1.540794611
2.178864241 -4.054919243 1.61103797
2.253729105 -4.158739567 1.784298897
2.213385105 -4.094704151 1.910766721
29.81729698 -44.67700577 2.75996232
28.73338318 -43.03144455 4.471999168
27.32639694 -40.91661072 5.993546486
2.369835138 -4.361757755 1.53697288
2.153935432 -4.04113245 1.605919838
2.28016305 -4.220502853 1.80125773
29.71344185 -44.85353088 2.768248796
28.67862892 -43.2684021 4.488797188
27.11274147 -40.88825607 5.982503891
2.406601191 -4.44665432 1.400202155
2.364308596 -4.37974453 1.539481878
2.139578104 -4.043747425 1.605018854
2.324187279 -4.310115337 1.826550484
2.187558174 -4.105219841 1.909836531
29.63207626 -45.06472397 2.778110266
28.35337448 -43.10477066 4.470644474
27.1297226 -41.23130035 6.018964291
2.239759445 -4.221478939 1.503955483
2.096216917 -4.004545689 1.593196273
2.320261955 -4.331412792 1.830868959
2.166544199 -4.098475456 1.905199289
29.51861572 -45.24608994 2.786658049
28.19483376 -43.20322418 4.47522974
27.04351807 -41.40816498 6.034246445
2.535092592 -4.694150925 1.440715671
2.199028969 -4.187094688 1.495189309
2.079846144 -4.003688812 1.591444731
2.301554441 -4.32474947 1.981782317
13.85248661 -22.00085068 0.8572635055
29.40976906 -45.41876602 2.794809341
27.19378853 -42.01181793 4.36771059
26.50385475 -40.90200424 5.961204529
2.56993556 -4.775533676 1.453624725
2.187476158 -4.194718838 1.495560527
2.051593542 -3.984850645 1.585058928
2.117524385 -4.079548359 1.75047195
2.370509863 -4.454152107 2.024456024
29.25097656 -45.79507446 0.9404873252
29.30009842 -45.59120941 2.802962303
29.43841553 -45.74482346 4.688867092
24.20913506 -37.71767044 5.542537212
2.511694193 -4.716656208 1.442422509
2.17806673 -4.205587864 1.496636271
2.049356937 -4.005010128 1.588775754
2.128786802 -4.120844841 1.761103034
29.16259003 -46.00264359 0.9458432198
29.21244621 -45.79862213 2.812705517
29.34236908 -45.94067001 4.702004433
2.841700315 -5.256563187 1.349218965
2.490720749 -4.713766098 1.440860629
2.155670881 -4.196665764 1.49347651
2.048078537 -4.026823997 1.592916012
2.115307808 -4.12497139 1.760485172
1.775663614 -3.603663683 1.724610925
29.0612278 -46.19162369 0.9511423707
29.10852432 -45.98245621 2.821398258
29.23443794 -46.11967468 4.713696003
2.438558817 -4.662610054 1.431053162
2.086196661 -4.114980221 1.474774837
2.048800707 -4.05194664 1.597901821
2.087011337 -4.106294155 1.753011823
1.762975216 -3.604978323 1.723241806
28.95243073 -46.37033844 0.9564104676
29.01126671 -46.1778717 2.830626249
29.11053276 -46.27495956 4.723351955
2.814656973 -5.283421516 1.351070523
2.457490444 -4.721013069 1.440001249
2.068500757 -4.11228323 1.473010898
2.050932646 -4.080753326 1.603751898
2.080408573 -4.122021675 1.755833983
1.744038939 -3.596562386 1.718528152
28.8337326 -46.55216599 0.9619236588
28.89643097 -46.36471558 2.839502335
28.89656258 -46.30707932 4.722172737
2.798224211 -5.291514874 1.351337194
2.41571641 -4.68657589 1.433043599
2.103294134 -4.192791462 1.488936305
2.034470558 -4.079624176 1.601992726
2.082661867 -4.150442123 1.762558699
1.754802823 -3.635221481 1.729986906
26.94724464 -43.89697647 0.956093967
28.79074097 -46.54968643 2.848285913
28.79507446 -46.49852371 4.735022545
2.775389433 -5.289465904 1.350309253
2.389716864 -4.67488575 1.430041075
2.108591318 -4.226678848 1.494956136
2.006509781 -4.060268402 1.595587254
2.072248697 -4.159286022 1.7634058
1.754441619 -3.655868292 1.735304713
26.8446064 -44.06714249 0.9610573649
28.6809063 -46.72939682 2.85684514
28.68833733 -46.68306732 4.747294903
2.883682013 -5.496134758 1.376023889
2.718822479 -5.227892399 1.523061991
2.07488513 -4.199000835 1.487887859
2.017282486 -4.101945877 1.604801178
2.064905882 -4.173015118 1.765723109
1.746772408 -3.665181398 1.736721396
28.52025223 -47.12034607 0.9778961539
26.6091404 -43.75098801 2.722787142
28.57960701 -46.86572647 4.759425163
2.844447613 -5.469013214 1.371772528
2.686871767 -5.210447311 1.518969178
2.06224966 -4.20452261 1.487891912
2.099318981 -4.258091927 1.643174648
2.062636375 -4.194949627 1.770493269
1.747223616 -3.68749094 1.742600679
28.42749596 -47.31351852 0.9830210209
26.46136475 -43.84689331 2.727554798
26.41949844 -43.70788193 4.483347893
2.646559238 -5.184585571 1.334670305
2.629038811 -5.150748253 1.507736444
2.057442427 -4.221351147 1.490356088
1.965861917 -4.069372177 1.593660712
2.04898119 -4.198792934 1.769868374
1.71351862 -3.654101372 1.729495525
28.32459831 -47.50981903 0.9883941412
28.38954735 -47.32026672 2.884914875
26.25502014 -43.77582169 4.48588419
2.635699987 -5.200549603 1.33599484
2.608652592 -5.149290085 1.50645709
2.027210712 -4.198301315 1.484333992
1.9706496 -4.100804806 1.600327373
2.033868074 -4.198928833 1.768242598
1.699765086 -3.653490305 1.727559686
28.22581863 -47.71454239 0.9938123226
28.28114891 -47.50776672 2.893878698
25.07434273 -42.17091751 4.344285011
2.656527758 -5.266987801 1.34378922
2.552535534 -5.090723038 1.495484471
2.048430681 -4.259093285 1.496033072
1.967997789 -4.122980118 1.604494572
2.073865175 -4.290300369 1.793636441
1.701090932 -3.677378178 1.733996749
28.10545731 -47.90343475 0.9993927479
28.16663742 -47.70516586 2.903329134
24.93289566 -42.27942276 4.350356579
2.625041485 -5.251135826 1.341027379
2.51661706 -5.066133022 1.490235209
1.969257951 -4.151867867 1.610357046
2.033155441 -4.25142765 1.780263066
1.685816407 -3.675346136 1.731515169
27.9912281 -48.1041069 1.005031824
28.06031609 -47.91776657 2.913481712
24.38582039 -41.70943832 4.298092365
2.706038475 -5.422763348 1.362105727
2.224478006 -4.613481045 1.412893772
2.321386099 -4.770123959 1.601136684
1.959259152 -4.16237545 1.611565471
1.962763667 -4.162476063 1.752137542
1.679502964 -3.688041687 1.734059334
28.60986519 -49.55276871 1.01655221
27.9436512 -48.11473465 2.922942877
23.06024933 -39.81480026 4.132110596
2.719840527 -5.483911514 1.369114399
2.205735683 -4.613072395 1.411872864
1.949767709 -4.178138733 1.475492358
1.965219498 -4.199719429 1.619551301
2.006345272 -4.262820721 1.780025244
1.659323931 -3.677653313 1.728779435
28.49885559 -49.7336731 1.021774769
28.58138275 -49.55970383 2.988822699
20.89235687 -36.42488861 3.838314772
2.643020391 -5.388384342 1.3563236
2.198387861 -4.628862858 1.413674116
1.934822679 -4.177779198 1.474397421
1.972687602 -4.236124516 1.627490401
2.005960464 -4.287761688 1.785769463
1.641199231 -3.668238163 1.724025011
28.40246201 -49.96086884 1.027457118
28.45648003 -49.73674393 2.997397661
20.72171974 -36.41820145 3.835211039
2.59920001 -5.349493027 1.350705624
2.175307512 -4.619400501 1.411196828
1.938232303 -4.209953308 1.480071306
1.96688807 -4.25306654 1.630382061
1.661628366 -3.725211382 1.741650581
28.29347229 -50.14837265 1.032725692
28.34671021 -49.94116974 3.007226229
20.45167351 -36.2242012 3.816208363
2.581613302 -5.355071545 1.350731492
2.160268545 -4.623519421 1.411008835
1.921250701 -4.206124306 1.478263736
1.960008979 -4.26832056 1.632851005
1.682183623 -3.782068014 1.759271145
28.17693329 -50.34407043 1.038268685
28.25537682 -50.15958405 3.017672777
20.09056854 -35.88186264 3.784434319
2.550141096 -5.336453915 1.347707748
2.69914794 -5.58766222 1.571477532
1.932251573 -4.251991272 1.486788869
1.959509254 -4.293381214 1.637848616
1.832835078 -4.069849014 1.716914892
1.97812295 -4.31621027 1.93751204
28.06035614 -50.5412941 1.04382515
28.13155174 -50.34287262 3.026572943
2.50679636 -5.294784546 1.341822267
2.411679983 -5.122704983 1.492719054
1.921452045 -4.260393143 1.487489223
1.8795439 -4.181464195 1.608486176
1.935523391 -4.27457428 1.775343657
1.969899058 -4.329704762 1.940102935
27.95054436 -50.75227737 1.049460769
28.02545547 -50.55897522 3.036973238
2.619880438 -5.538221836 1.184172034
2.495518208 -5.312566757 1.343383431
2.086518764 -4.583491325 1.401796579
1.917418242 -4.280740738 1.490682125
1.87611258 -4.203586578 1.612660289
1.816633105 -4.094593525 1.721030593
2.066199541 -4.526667595 2.004284143
27.83866692 -50.98192215 1.055430055
27.8957901 -50.75538635 3.046528578
2.599910259 -5.542550564 1.184219956
2.490755796 -5.340295792 1.346231818
2.017683268 -4.492731571 1.385804415
1.865382433 -4.217391014 1.476432562
1.872169375 -4.223699093 1.616394997
1.775846362 -4.048545361 1.706080914
2.057489872 -4.542519569 2.00747323
27.72167778 -51.18381882 1.061034322
27.78934097 -50.97462463 3.057101965
20.83396721 -38.39499664 3.989619493
2.495682001 -5.387585163 1.351507545
1.970390677 -4.437487125 1.375812769
1.845096946 -4.208384991 1.473559499
1.866567135 -4.242442131 1.61972332
1.70173645 -3.943350554 1.673882842
2.04370594 -4.547951221 2.007282257
27.59195328 -51.38503647 1.066865444
27.66901588 -51.1915741 3.067619801
20.55755043 -38.21937561 3.97210741
2.488598824 -5.411908627 1.353925705
1.955444694 -4.441191196 1.37561059
1.8109833 -4.175487518 1.465704799
1.85575664 -4.250610828 1.620485306
1.749329686 -4.054310799 1.704761624
2.042316437 -4.577179909 2.014954567
27.48329163 -51.60583115 1.072588563
27.56593513 -51.42100525 3.078686953
20.42783165 -38.29249191 3.975986004
2.484243393 -5.441466808 1.357001781
2.013398647 -4.576408386 1.397276282
1.794743657 -4.173132896 1.464248419
1.847735643 -4.263882637 1.622522354
1.734481573 -4.053565979 1.703104973
2.143326998 -4.791043282 2.084278107
27.31410217 -51.69487 1.077345967
27.4377594 -51.60641861 3.087773085
20.352911 -38.45103836 3.987287283
2.474017143 -5.460567474 1.358767271
1.907894015 -4.412967205 1.369402289
1.791348696 -4.192864418 1.467414498
1.834033966 -4.266843319 1.622006893
1.715572238 -4.043952942 1.698963165
2.099895716 -4.742491245 2.066142321
26.99120522 -51.49571228 1.080423355
27.2314949 -51.62656784 3.089339972
19.36655426 -36.91621017 3.854402304
2.453179598 -5.458218575 1.357881665
1.789121628 -4.22065258 1.336863518
1.774749756 -4.188369274 1.465581536
1.817208171 -4.262557507 1.619770288
1.704130054 -4.047883034 1.698766232
2.095260859 -4.764567852 2.071553469
26.67796898 -51.33144379 1.083865643
26.91833496 -51.44481659 3.081751585
21.50485802 -41.22986221 4.21929884
2.457675695 -5.503125191 1.362912536
1.769654274 -4.210837364 1.334578156
1.753910184 -4.177166462 1.462332249
1.813362479 -4.282307148 1.62349236
1.705885053 -4.077675819 1.705990076
1.756972313 -4.168256283 1.871626616
26.3643322 -51.16208649 1.087221503
26.60535049 -51.28033066 3.074986219
21.40932655 -41.39090347 4.230597496
1.973157525 -4.622598648 1.401872516
1.727633595 -4.155431271 1.456933141
1.80421865 -4.293756008 1.625102878
1.718384385 -4.128045082 1.719144702
1.722862124 -4.131978989 1.857916951
26.04484177 -50.97694397 1.09042418
26.30401611 -51.13375854 3.069039583
21.30554008 -41.53762054 4.240698338
2.29875493 -5.27900219 1.333729386
1.755614758 -4.240577221 1.338115096
1.719865203 -4.168376923 1.45868206
1.789548635 -4.294811249 1.624156237
1.687103629 -4.096282959 1.708590508
1.697104931 -4.110777855 1.849250793
25.74529839 -50.82574081 1.093775511
25.99116325 -50.96086502 3.061902285
26.05255508 -51.01656342 5.043308735
1.754876137 -4.267716885 1.341907501
1.702922463 -4.163864613 1.456852317
1.806587696 -4.35640955 1.638128996
1.691132545 -4.131298065 1.71730423
1.625161886 -4.001039982 1.811375737
25.43981934 -50.65882111 1.096976757
25.67250061 -50.77219772 3.05405283
22.18024826 -43.93458176 4.439474106
2.271686316 -5.301956654 1.335457683
1.848483205 -4.477721691 1.375776887
1.66974926 -4.127820492 1.448574543
1.726972461 -4.23255682 1.606476188
1.683325171 -4.144021511 1.719594955
1.623083115 -4.02368021 1.817293763
25.2190361 -50.65449524 1.101147056
25.37639236 -50.62285233 3.047994614
21.94607925 -43.84817886 4.429750443
2.238147974 -5.27444315 1.331478596
2.126575708 -5.051208019 1.469288826
1.642242074 -4.102088451 1.442436934
1.747412443 -4.301089287 1.622157216
1.663033009 -4.13260746 1.714961648
1.634934545 -4.073642254 1.832205057
25.10453224 -50.86011124 1.10663116
25.18088722 -50.66819 3.05079484
18.24465561 -36.91495514 3.839790344
2.217423677 -5.271566868 1.330574989
1.886108279 -4.613983631 1.396729469
1.629210472 -4.104265213 1.442026734
1.737225056 -4.310614109 1.623336792
1.704501987 -4.24191618 1.744957209
1.618506193 -4.069029331 1.829136968
24.98446274 -51.05657196 1.112063289
25.05792236 -50.85746765 3.060153723
18.41752625 -37.5735054 3.893629313
2.190622091 -5.258327007 1.328366041
1.995044589 -4.862644672 1.43676877
1.614411592 -4.10287714 1.440897584
1.70261085 -4.273317337 1.613002896
1.692145944 -4.248097897 1.745291948
1.590850949 -4.042085171 1.818757057
24.86956787 -51.28763199 1.11793673
24.93943787 -51.07945251 3.071054459
24.94737625 -51.03302383 5.030848026
2.164710522 -5.244572639 1.326130986
2.013144493 -4.935410976 1.447887182
1.621072054 -4.145702362 1.448749661
1.673253775 -4.244262695 1.604779363
1.682092547 -4.257407665 1.746599793
1.556831121 -4.003250599 1.804447532
24.71118927 -51.40999985 1.122891784
24.8231411 -51.28617859 3.081238985
18.34465218 -38.09034729 3.933405161
2.14256525 -5.239974499 1.325014591
1.812077522 -4.564595222 1.386492848
1.662952662 -4.25885725 1.470948458
1.667851448 -4.264337063 1.608529329
1.670541883 -4.2652421 1.747427821
1.571540236 -4.060171127 1.82161808
24.63066292 -51.71612549 1.129282713
24.69250298 -51.48800659 3.091255426
24.69496155 -51.43019867 5.059128284
1.919646978 -4.818164349 1.427190423
1.651430249 -4.266664982 1.471638203
1.631021619 -4.219256401 1.596447229
1.655268312 -4.26405859 1.74576211
1.528441548 -4.002172947 1.801108241
24.5112114 -51.92251968 1.134812117
24.58435822 -51.7158699 3.102435112
18.0018692 -38.06419373 3.927334547
17.62911606 -37.24913788 5.281754494
1.926655412 -4.867529392 1.434524298
1.689528704 -4.374992847 1.492788076
1.588819385 -4.163700581 1.581803679
1.653024793 -4.290957451 1.752039313
1.524244785 -4.021241188 1.805901647
19.32167244 -41.46429443 1.066748977
19.47403145 -41.51435089 2.638351917
17.86619568 -38.09836578 3.928478718
17.4942894 -37.27853775 5.281414032
1.798556328 -4.6370821 1.396252155
1.669386387 -4.362826824 1.489500403
1.588962674 -4.19178915 1.587653518
1.638905168 -4.28911972 1.750339866
1.507933378 -4.014148235 1.802235961
19.17855263 -41.51002502 1.070157886
19.30395889 -41.50460434 2.638530731
19.34763908 -41.52773285 4.216184616
17.29018402 -37.162117 5.263120174
1.667171836 -4.38783741 1.493759155
1.648005724 -4.343255997 1.623465657
1.634273291 -4.308472157 1.754604936
1.506646156 -4.038118362 1.808705091
19.07317924 -41.65457153 1.074412465
19.16737556 -41.56467819 2.641900063
17.38480377 -37.73728561 3.894536972
17.2322998 -37.35203171 5.282680511
2.014914989 -5.158593178 1.479794979
1.626272559 -4.333159447 1.481849313
1.627522469 -4.331301212 1.619500637
1.626433134 -4.322863102 1.757398844
1.502183676 -4.057176113 1.81350112
23.76444817 -52.16647339 1.15265727
24.12683296 -52.57633591 3.144949675
17.84224129 -39.06878662 4.004971027
17.26842499 -37.77833176 5.330974579
2.010148048 -5.189207554 1.483986497
1.59689033 -4.3034482 1.47498107
1.600725174 -4.30714941 1.612548709
1.619556427 -4.341028214 1.76120162
1.502775431 -4.088649273 1.822257876
17.68255997 -39.41582489 1.065041304
24.00251961 -52.80574799 3.15632534
17.72205734 -39.17717743 4.012265682
17.18119812 -37.94573975 5.347364426
2.026853561 -5.266502857 1.495751619
1.655677795 -4.462661266 1.506270647
1.594518423 -4.325077057 1.615857959
1.616663814 -4.367966652 1.767487288
1.506401181 -4.127123833 1.833273411
17.53894043 -39.45724869 1.068354845
23.8868103 -53.03259277 3.167557955
17.63461876 -39.34015274 4.02426672
16.88868713 -37.65129089 5.307176113
2.041311502 -5.338230133 1.506634474
1.629994035 -4.439799786 1.50082922
1.58411181 -4.334134102 1.617025256
1.600389361 -4.364753723 1.765318632
1.565143228 -4.283820629 1.882621884
22.90753174 -51.70493698 1.161292076
23.75325584 -53.22286606 3.177137613
17.5431385 -39.47812653 4.034266949
16.75575066 -37.7007637 5.30936718
2.032310486 -5.359697819 1.509365439
1.614916682 -4.437997341 1.499690294
1.599660277 -4.400009155 1.631913781
1.590612054 -4.375561714 1.767120838
1.583414793 -4.353478432 1.903780341
22.80599022 -51.95435333 1.167070866
23.65161705 -53.461586 3.188901186
17.68824005 -40.16077042 4.090018272
16.51889229 -37.51966095 5.283294678
2.010117531 -5.350153923 1.507119298
1.599249363 -4.436412334 1.498564839
1.601680756 -4.435505867 1.639503717
1.57017982 -4.361372948 1.761951327
1.537893891 -4.285572052 1.880395055
22.68919945 -52.17258453 1.17263031
23.53053284 -53.68420029 3.199990749
23.52569199 -53.60803223 5.218952179
16.72717285 -38.31252289 5.376983166
1.577173591 -4.42040062 1.494551301
1.590049148 -4.442821026 1.640247941
1.54846096 -4.345588684 1.7562958
1.566927671 -4.381848335 1.910042048
22.59045982 -52.43457413 1.178530455
23.41216087 -53.91576767 3.21150732
21.51947784 -49.56967545 4.877392769
16.58316422 -38.34139633 5.376729965
16.33874321 -37.74301147 6.734900951
1.564012289 -4.42405653 1.494502306
1.577593446 -4.448312759 1.640562057
1.539483309 -4.358010292 1.758590221
1.551527023 -4.380240917 1.908093333
22.46783638 -52.64514923 1.184053183
23.2924614 -54.14715576 3.22303319
21.39069939 -49.7392807 4.889651299
16.40561485 -38.29327774 5.367096424
1.55497396 -4.441585541 1.358436346
1.54609561 -4.416857719 1.492285609
1.564329267 -4.451973915 1.64044559
1.535132766 -4.381043911 1.76386869
1.564848423 -4.443502426 1.927033663
11.22257805 -26.99632835 0.9895008802
23.1587429 -54.34900665 3.233225107
20.82771111 -48.90973663 4.818053246
18.92154503 -44.46167755 6.118071079
16.19758606 -38.12596512 6.78493166
1.540030956 -4.436629772 1.49548316
1.551216841 -4.457644463 1.6407727
1.523813844 -4.390154362 1.765184522
11.01251888 -26.76859283 0.9897735715
23.03106499 -54.59313583 3.24541831
23.03952217 -54.54640961 5.289069176
15.96807289 -37.97037888 6.753827095
1.525433779 -4.438605309 1.495084167
1.543356657 -4.473759651 1.643661618
1.511530161 -4.395409584 1.765489221
1.307347894 -3.919345379 1.755925536
10.88334465 -26.71470261 0.9912743568
15.76690292 -37.90566635 5.308685303
15.77123928 -37.86912155 6.73187542
1.513780117 -4.445686817 1.495752573
1.536940575 -4.493453503 1.64741087
1.457261801 -4.302697182 1.738413334
1.311081529 -3.957346916 1.766924858
10.76534176 -26.67311478 0.9927583933
31.57268906 -75.94841766 4.225760937
20.63873482 -49.87432098 4.893395424
15.49117184 -37.61419296 5.269622803
15.6099596 -37.84895706 6.723058701
1.487384915 -4.416240215 1.489171982
1.52964294 -4.511348248 1.650731564
1.432256341 -4.275379658 1.729729414
1.318110824 -4.002244949 1.780176759
10.6790781 -26.70679855 0.994830966
31.28346825 -75.95659637 4.227466583
18.38303375 -44.92989731 4.477320194
15.48853588 -37.95121384 5.307509899
15.64950275 -38.28899765 6.788462639
1.472614288 -4.41386795 1.488011479
1.509263158 -4.496555805 1.646293879
1.448007941 -4.344348431 1.747936606
1.277935028 -3.935840845 1.757814527
10.58289051 -26.72908592 0.9968998432
10.91874981 -27.34471321 1.999982834
18.25254059 -45.05073547 4.485857487
15.35302639 -37.97278976 5.306930065
15.42257881 -38.09371567 6.751929283
1.471591353 -4.446205139 1.493740559
1.481314659 -4.458411694 1.778624535
1.25098896 -3.901290655 1.74563241
10.47315884 -26.71765518 0.9986847639
10.80209541 -27.32341385 1.999508262
18.10103416 -45.12137985 4.490218163
16.20936775 -40.43112946 5.603076458
15.21468925 -37.9585495 6.724884033
1.622927427 -4.849698544 1.57333982
1.524756312 -4.604194164 1.670139313
1.386081219 -4.262970924 1.723106027
1.255789757 -3.942833424 1.75776732
10.39792156 -26.79114342 1.001157165
30.38083267 -75.95929718 4.231798649
17.99866104 -45.31347275 4.504774094
16.11419868 -40.59403992 5.619413853
15.08837891 -38.02033615 6.72948122
1.614249945 -4.868057251 1.576209188
1.483806372 -4.542799473 1.654533386
1.367655635 -4.251610279 1.718903422
1.233450055 -3.91874814 1.748971581
10.3517437 -26.95171165 1.004446983
30.0473175 -75.92526245 4.231761932
19.23291016 -48.86388779 4.800245762
15.88811874 -40.45344162 5.598685265
15.08377457 -38.40365219 6.785298824
1.587127328 -4.842895508 1.57039845
1.227316499 -3.935653687 1.753200412
10.7205143 -28.15645599 1.016422272
29.74541283 -75.96779633 4.235254765
19.05324364 -48.90089417 4.801766396
15.22803211 -39.21653366 5.444787025
14.97191238 -38.52458954 6.799162388
1.567456841 -4.833760738 1.567827344
1.21519196 -3.936317921 1.752322316
10.76029015 -28.54032707 1.021607518
29.44356346 -75.93191528 4.235011578
18.96836853 -49.17847061 4.823434353
15.03918362 -39.13054657 5.431119919
14.8755312 -38.64739227 6.813885212
1.561585069 -4.85929966 1.572144032
1.538675427 -4.794132233 1.711494565
17.04164696 -43.95148468 12.71705627
1.229234934 -4.002910137 1.772395611
11.81387234 -31.54661751 1.049116015
29.13492584 -75.91483307 4.235719204
15.98374462 -41.98255157 4.220646858
14.91985798 -39.2003746 5.436591148
15.02778625 -39.42866135 6.933429718
1.551243067 -4.871751308 1.573906302
1.523563266 -4.795802593 1.71095407
1.421515107 -4.530114651 1.791918635
1.239172816 -4.058709145 1.789066672
11.73397255 -31.65863228 1.05223
17.25577164 -45.71480942 4.531178474
14.76634979 -39.20193863 5.433663368
14.90650845 -39.49647522 6.939379215
15.17222214 -40.13394547 8.551198959
10.11664772 -27.71394348 1.020253778
14.66754246 -39.3458786 5.448047161
14.80386162 -39.65404892 6.959173679
15.0127449 -40.15036774 8.546942711
14.71346378 -39.29727554 9.874331474
1.405659556 -4.565177441 1.799507618
1.214962721 -4.063827991 1.788465738
9.652996063 -26.75791931 1.013750553
10.52501774 -28.86512566 2.074680328
18.22146034 -49.25309753 4.823851109
14.51486301 -39.36940384 5.447722435
14.61193085 -39.55718613 6.93876791
15.08861256 -40.76688004 8.661672592
14.66578102 -39.59889603 9.936329842
1.398299336 -4.586555004 1.804317474
1.196315408 -4.048287868 1.782487869
9.556107521 -26.78747368 1.015882254
10.39309692 -28.82478523 2.073426962
10.41168594 -28.83997345 3.118978739
10.41683006 -28.8039608 4.165618896
14.4050951 -39.43787384 6.914651394
14.68923759 -40.14742661 8.532031059
14.52968979 -39.64945984 9.939462662
1.38600421 -4.593183517 1.805115819
1.176567435 -4.031064987 1.775951266
9.460920334 -26.8074913 1.017833233
10.28926945 -28.84394455 2.074889421
10.30492401 -28.85171509 3.119192839
10.30253506 -28.79525566 4.162447453
14.15531349 -39.17780685 6.868524075
14.53226566 -40.14648056 8.525006294
14.43281746 -39.80573654 9.967639923
1.380425215 -4.61792469 1.810912371
1.173558593 -4.056682587 1.783009887
9.449082375 -27.04371262 1.021624327
10.19089317 -28.87774467 2.077032566
10.20241356 -28.85940552 3.119126081
10.20341778 -28.82716751 4.164225578
14.13249397 -39.5313797 6.919949532
14.3992672 -40.18860245 8.526898384
14.37942982 -40.082798 10.02434444
1.371347189 -4.633583546 1.814210534
9.304615021 -26.92773247 1.022348523
10.09324646 -28.89816093 2.078534842
10.0984726 -28.87785721 3.119939327
10.10421658 -28.85871887 4.165992737
14.00508404 -39.58149719 6.923459053
14.35042572 -40.48418427 8.578424454
15.05184269 -42.34155273 10.54824162
9.230397224 -27.00716591 1.024822831
9.992009163 -28.92374229 2.080310822
9.999207497 -28.90907288 3.121836185
10.00244427 -28.86760521 4.165154457
14.72970295 -42.03221512 7.307322979
14.08262062 -40.17456818 8.510931969
1.352921367 -4.662789345 1.82029295
9.08114624 -26.87307167 1.025342703
9.88541317 -28.93387985 2.08137989
9.897217751 -28.93240547 3.123095751
9.89358902 -28.88705254 4.165427685
14.5372057 -41.94697571 7.288998127
13.96043968 -40.26764679 8.522764206
1.364991426 -4.745928288 1.691311836
1.35263741 -4.705991268 1.831114531
8.975445747 -26.86110497 1.026960492
9.779889107 -28.96230125 2.083328724
9.796474457 -28.9591465 3.124658346
9.795531273 -28.92126274 4.167614937
14.34743404 -41.88953781 7.274935722
13.7928896 -40.23228836 8.509450912
1.341768146 -4.722997189 1.685121894
8.903554916 -26.94713211 1.029477119
9.686706543 -28.99451065 2.08539772
9.695664406 -28.98552132 3.126210213
9.697991371 -28.95701408 4.17001915
14.30016899 -42.19455719 7.318762302
13.82031155 -40.75736618 8.606185913
8.789565086 -26.90981674 1.030841351
9.587201118 -29.02430153 2.087392092
9.590938568 -29.00021362 3.126808643
9.598820686 -28.97194862 4.170040607
14.16043949 -42.25889969 7.324322701
13.69434357 -40.84596252 8.617293358
8.691035271 -26.93234825 1.032839656
9.48333931 -29.05728149 2.089570999
9.4889431 -29.03884125 3.129389524
9.493002892 -28.9992485 4.171399593
14.03090191 -42.37767792 7.338316917
14.97788811 -45.11968994 9.447842598
6.857806683 -21.68278885 0.9847328067
9.371781349 -29.06713295 2.090687037
9.384166718 -29.05276489 3.129964352
9.383313179 -29.01485252 4.171386242
14.64927387 -44.73596954 7.705826759
14.06273937 -42.90201569 9.007116318
6.787639141 -21.70159149 0.9861884713
6.834404469 -21.67129898 1.748955488
6.847298145 -21.67228889 2.515455484
6.84072113 -21.62622643 3.280822039
6.848758698 -21.62417221 4.056052208
13.92757607 -42.96300888 9.013072968
7.325780392 -22.99643517 5.955316544
6.713164806 -21.71942711 0.9876970649
6.763571262 -21.68810081 1.75018084
6.770276546 -21.68271637 2.515920639
6.771114349 -21.6468029 3.282083035
6.774789333 -21.6315918 4.055170536
6.786563396 -21.64067268 4.840209961
6.778123379 -21.57515144 5.619136333
6.636231422 -21.72937393 0.9891238213
6.692134857 -21.71533585 1.751917243
6.691441536 -21.68715858 2.515903234
6.692346096 -21.66380119 3.282811403
6.70450449 -21.66249847 4.057915211
6.703434467 -21.63226128 4.835560322
6.701183319 -21.59778404 5.620337963
6.555063725 -21.73827553 0.9906002879
6.612103939 -21.72824669 1.753018618
6.617468834 -21.7190609 2.518164873
6.620205879 -21.68881416 3.284590006
6.625623703 -21.6792469 4.058359146
6.62220335 -21.64152145 4.834264755
6.630793095 -21.62828445 5.623622894
1.146808743 -4.476718903 1.901723981
6.482314587 -21.76100731 0.9921393394
6.535717487 -21.73970795 1.754032969
6.545812607 -21.74575615 2.520026207
6.543798447 -21.70031357 3.28476882
6.553931236 -21.7058773 4.060497284
6.55172348 -21.67183876 4.83727026
6.553209305 -21.63620377 5.621694088
6.415467739 -21.79001617 0.9936705232
6.459922314 -21.75279808 1.755127192
6.47473526 -21.76156044 2.521013498
6.469159603 -21.71722412 3.28562212
6.47742033 -21.71715736 4.06025362
6.478930473 -21.68202209 4.836534977
6.474477768 -21.64011383 5.618887424
8.12202549 -26.88170433 7.846076012
7.234174728 -24.75187492 1.024380803
6.391260147 -21.77597046 1.756668925
6.396466732 -21.76679802 2.521119356
6.397387505 -21.74336624 3.287606716
6.401072979 -21.71570206 4.058142185
6.407101631 -21.70809746 4.838795185
6.405199528 -21.66127777 5.620337486
8.007713318 -26.8194294 7.82379055
7.133701801 -24.71947861 1.025538445
7.200741291 -24.71659851 1.893751264
7.20155859 -24.68934441 2.763576031
6.334932327 -21.78717995 3.291788816
7.217224121 -24.66537857 4.519416332
6.342605591 -21.75838089 4.845808029
6.331970692 -21.69560623 5.624540329
7.911944389 -26.83211899 7.821670532
7.047495842 -24.74928093 1.027382851
7.111619949 -24.73702049 1.895297289
7.118123055 -24.72885895 2.766499043
6.252971649 -21.7930069 3.291327953
7.127408028 -24.68393326 4.520040512
7.128100872 -24.65510559 5.40618515
6.783305645 -23.47591019 6.034626007
7.817214966 -26.86434174 7.824657917
6.96007061 -24.77492523 1.029179573
7.016804218 -24.73795128 1.89594245
7.026061058 -24.73939133 2.767032623
6.177796841 -21.82138634 3.293596268
7.042621136 -24.71920395 4.523331165
7.039955616 -24.67897797 5.407620907
6.691078186 -23.47044373 6.029384613
7.727865696 -26.91477585 7.832661629
6.867024899 -24.78103065 1.030771494
6.925965309 -24.75193596 1.897199631
6.937357903 -24.76105499 2.768508434
6.097505093 -21.83232689 3.293801308
6.945486546 -24.71240997 4.520066738
6.951155663 -24.70064545 5.408681393
6.600089073 -23.46835327 6.024999142
7.629514694 -26.93519402 7.832616329
6.791448593 -24.80053902 1.032275558
6.846759796 -24.77472115 1.898813248
6.858364582 -24.76923561 2.76892519
6.025638103 -21.84469032 3.294305086
6.86341095 -24.7256546 4.520191669
6.873763084 -24.71463203 5.408744335
6.528687 -23.48877907 6.026450157
6.202867508 -22.3319416 6.582817554
6.712858677 -24.84140778 1.034139395
6.770757198 -24.80877304 1.900956273
6.766674519 -24.76417351 2.768228769
5.953894615 -21.87121773 3.296476126
6.780230522 -24.7348175 4.519712925
6.783139706 -24.71370125 5.405667782
6.445736885 -23.48381615 6.021883488
6.129601002 -22.34658241 6.582756996
6.628200531 -24.86081886 1.035777688
6.688807964 -24.83797455 1.902908325
6.682623386 -24.78563499 2.769750357
5.877670288 -21.86778259 3.295134544
6.709989071 -24.80578423 4.528844357
6.700055122 -24.73892975 5.407715797
6.36527586 -23.50220299 6.022609234
6.059370041 -22.38623619 6.589303493
5.155042648 -19.81601906 0.3002139926
6.542973995 -24.87800026 1.037386894
6.599291325 -24.8399334 1.903596044
6.597455502 -24.80295753 2.770944595
5.803679943 -21.88614655 3.296375036
6.622980595 -24.81746292 4.528731823
6.620542049 -24.77713585 5.412323952
6.281638622 -23.50901604 6.020713329
5.986849785 -22.41820526 6.59383297
5.075579643 -19.78370667 0.3028123975
6.462934017 -24.89761162 1.038944602
6.515621662 -24.86276627 1.905261517
6.519574642 -24.83038712 2.773004055
5.732257366 -21.91383553 3.2987535
6.535451889 -24.82691765 4.528311253
6.54245472 -24.80445862 5.415007591
6.201127529 -23.52681732 6.021420002
5.911627293 -22.44059563 6.595839024
4.998169899 -19.74439621 0.3054808378
6.37914753 -24.92000389 1.040597558
6.436061382 -24.88418388 1.906835914
6.430140495 -24.8317318 2.772903681
