# .PCD v0.7 - Point Cloud Data file format
VERSION 0.7
FIELDS x y z
SIZE 4 4 4
TYPE F F F
COUNT 1 1 1
WIDTH 1307
HEIGHT 1
VIEWPOINT 0 0 0 1 0 0 0
POINTS 1307
DATA ascii
87.08563995 3.600670338 4.232719898
63.35795593 2.105743408 1.085361481
87.59947968 3.321041107 4.261941433
64.53887939 1.936173439 1.097861886
87.9127655 3.028954744 4.283346176
87.3374176 2.633565903 1.216882467
87.79776001 2.717077494 4.287795544
87.27722168 2.326183558 1.226017237
30.33470345 -2.846680164 1.03761971
30.26984596 -2.948553324 1.040557742
30.30997658 -2.927571535 2.101860762
30.31635284 -3.057971239 1.044433475
30.31254578 -3.03394413 2.105716705
30.29201889 -3.003346443 3.16831851
30.32121277 -2.98130846 4.241046906
30.37561798 -2.960666418 5.328019142
54.33823013 -4.861805439 5.065403938
30.31735611 -3.087234259 4.244925022
30.32631493 -3.063471556 5.325249672
30.2952652 -3.03123188 6.409722805
54.2552681 -5.05548811 5.066529751
30.31962776 -3.119122505 7.524050236
30.34520149 -3.089827538 8.652074814
55.86615372 -5.418992519 3.237834454
54.19625473 -5.241061211 5.069222927
54.06904984 -5.420654297 5.06656599
55.14804459 -5.748317719 3.220315218
53.95798874 -5.591370583 5.064841747
54.96737289 -5.92568922 3.219370842
54.03216553 -5.787662506 5.078230381
53.6465683 -6.036290169 1.285687566
53.9071312 -5.965909481 5.075855255
53.58847427 -6.219460487 1.2914325
54.35777664 -6.252533436 3.206413746
53.87279129 -6.152242184 5.080735683
54.37429047 -6.44570446 3.214216709
53.81796265 -6.336369038 5.084032536
55.53860474 -6.760146141 3.273436069
54.09859467 -6.564858913 5.114596844
53.3842926 -6.678309917 5.065197468
55.69326401 -7.179371834 3.29541111
53.35541916 -6.863475323 5.070676327
86.9401474 -11.07835484 1.65688026
55.762043 -7.384158134 3.305923939
53.22291565 -7.036614895 5.067875385
86.10980988 -11.28581905 1.658834338
56.1157341 -7.623692036 3.329401016
53.73128128 -7.285104275 5.116734028
85.3603363 -11.48257732 1.660934687
49.19207001 -6.959757328 3.022073507
53.61043167 -7.450914383 5.114616394
49.18228531 -7.132743835 3.028278589
49.7672081 -7.15760994 4.811923981
55.19511414 -8.134894371 1.36554265
49.13821411 -7.301350117 3.032951593
48.80944824 -7.210184574 4.741895199
55.21705246 -8.333776474 1.372417808
49.0182991 -7.459681511 3.034175634
48.27290344 -7.312033176 4.70582056
55.10751724 -8.514837265 1.377908111
48.57327271 -7.572677135 3.020459414
48.04240799 -7.45195961 4.694529057
49.3559494 -7.590416908 6.556063175
55.06867218 -8.70535183 1.384156823
48.44659042 -7.727500439 3.021334887
48.09583282 -7.630155087 4.706359863
49.50091171 -7.785859108 6.581576824
55.06084442 -8.900261879 1.390753269
47.64116287 -7.783576012 2.990825176
47.83089066 -7.763206482 4.69227457
49.25960541 -7.927438736 6.561946392
55.06616592 -9.097296715 1.397513032
47.46246719 -7.926804066 2.989198208
47.34742737 -7.870874882 4.66066885
48.68768692 -8.019101143 6.503498077
55.12862778 -9.313097 1.405268788
47.48286438 -8.099154472 2.996823072
47.07403183 -7.99840641 4.645807743
48.05158234 -8.105893135 6.437815666
78.82013702 -13.19517422 1.679875255
47.36442947 -8.250292778 2.998012781
47.13524246 -8.17582798 4.658397198
48.36655807 -8.316967964 6.483122349
78.19208527 -13.37679863 1.682362556
46.81734467 -8.33271122 2.97914052
46.89978027 -8.298623085 4.646272182
47.91781616 -8.419228554 6.438982964
77.51638031 -13.5464325 1.684170485
46.53452682 -8.454317093 2.972558975
46.80045319 -8.450289726 4.645731926
48.35554504 -8.660729408 6.499474525
76.91145325 -13.72337914 1.686668158
46.46035385 -8.608672142 2.975759745
46.73406601 -8.606888771 4.647941113
49.39200211 -9.003744125 6.631044388
76.2251358 -13.89608669 1.688553333
46.4473114 -8.781403542 2.982202768
46.47314453 -8.73874855 4.634471416
49.1869545 -9.155132294 6.616436005
70.92048645 -13.25931263 1.63510251
46.36221695 -8.933411598 2.984929085
46.45153427 -8.910140038 4.640828609
48.81505203 -9.276558876 6.582034588
75.75830078 -14.3610878 1.70187819
48.03734589 -9.396285057 3.07135272
46.35221863 -9.059545517 4.640391827
48.3461647 -9.361063957 6.535123348
75.81704712 -14.64454937 1.712058425
46.48101807 -9.279994011 3.00386095
46.30882645 -9.210175514 4.644245625
49.01187897 -9.653721809 6.623679638
75.89684296 -14.9189415 1.722063661
45.91289139 -9.343026161 2.983566284
46.4693222 -9.406347275 4.665551186
48.38006973 -9.706364632 6.557357311
53.68648911 -11.01085567 1.455349565
45.89863205 -9.506019592 2.989715576
46.51493454 -9.574039459 4.676962852
47.51449585 -9.720111847 6.463422775
76.02874756 -15.49256516 1.742822528
45.7935257 -9.651770592 2.991527319
46.46635437 -9.732749939 4.680956364
47.59795761 -9.907396317 6.482787609
76.0911026 -15.77995491 1.753225684
45.76051712 -9.810975075 2.996825457
47.2723732 -10.05686188 4.756751537
47.63194656 -10.08592415 6.496337414
76.16809845 -16.0710125 1.763859153
45.50160217 -9.925414085 2.991214275
46.38939285 -10.06220722 4.691188812
47.54246521 -10.24072647 6.495166302
50.6217041 -11.17636108 1.44318974
45.2878418 -10.05551815 2.988101721
46.40166092 -10.23288441 4.700454712
47.40989685 -10.39507008 6.489344597
50.22903824 -11.2792244 1.444514036
45.48236465 -10.26008415 3.004519701
45.68916702 -10.26379395 4.6489501
47.44202805 -10.5736866 6.502918243
49.75003433 -11.35228443 1.444299102
45.41371536 -10.40292835 3.007817984
45.44841766 -10.36318398 4.635971069
47.18156815 -10.68349361 6.480792999
50.00264359 -11.58762455 1.454054356
45.16121292 -10.51462746 3.002466679
45.24922943 -10.49473476 4.627724648
47.58185196 -10.93963242 6.538999081
50.13505554 -11.8080864 1.462600231
45.12934494 -10.6807375 3.008284569
45.09037399 -10.62548542 4.622486115
47.70333099 -11.14781666 6.564204693
49.70414352 -11.896101 1.463223219
44.86450577 -10.78732204 3.002282381
45.09857941 -10.79198551 4.631491661
47.68218231 -11.31734943 6.571751118
75.8453598 -17.95602608 1.828391671
45.05952835 -10.99520874 3.019009352
46.07300186 -11.17419815 4.723093987
46.97213745 -11.33400154 6.495663643
75.49674225 -18.15456772 1.833429694
44.84264755 -11.11100769 3.015375376
45.16758347 -11.13782501 4.654199123
46.84765625 -11.47786999 6.490639687
46.26286316 -11.64393902 1.434499741
45.01670456 -11.31593609 3.031197786
45.02240372 -11.27014828 4.650251389
46.41495514 -11.55043602 6.44806385
45.88830566 -11.72583294 1.435271502
45.04403305 -11.4879055 3.039779902
44.9176178 -11.41108036 4.649782181
46.62060547 -11.76886845 6.483374596
45.90269852 -11.89842319 1.441505671
44.98126221 -11.63055229 3.043529034
44.90545654 -11.57357025 4.657321453
46.81561279 -11.98659897 6.517562866
45.70269775 -12.01080704 1.444379687
44.71032715 -11.73090744 3.037189484
45.04189301 -11.77208233 4.677751541
46.79347229 -12.14518547 6.524775505
45.63447952 -12.16293716 1.449432731
44.54012299 -11.85430908 3.03588748
44.88519287 -11.89176178 4.672487736
46.63949966 -12.28038025 6.516395569
45.37369156 -12.26666927 1.451671362
44.58279419 -12.02984905 3.045351505
44.97182465 -12.0877285 4.689213753
46.62973022 -12.45042229 6.525780678
45.37820053 -12.44459724 1.458081007
44.65963745 -12.21467018 3.056608677
44.95915222 -12.2512188 4.696964264
46.67696762 -12.64367771 6.542816639
45.09756851 -12.53249073 1.45965898
44.79763794 -12.41605377 3.071050167
45.19879532 -12.47953796 4.726764679
46.41975403 -12.74264431 6.521287918
45.17658997 -12.72111797 1.466893196
44.68349075 -12.55303669 3.072686911
45.50117111 -12.71780014 4.761752605
46.90044022 -13.03962898 6.591583252
45.41141129 -12.95195961 1.47653234
44.93585968 -12.78638554 3.093132257
45.59973145 -12.92181015 4.779994011
47.64465714 -13.40966797 6.694869041
45.80908585 -13.23726177 1.489058614
44.99207687 -12.97775173 3.103990793
45.74767303 -13.13162804 4.802220821
47.7091217 -13.61352825 6.714727879
46.07435989 -13.48125648 1.499363422
44.70271301 -13.067379 3.096682072
45.88674927 -13.34903145 4.824265003
47.51047897 -13.73819256 6.701398373
45.94309616 -13.62642193 1.503894806
44.7827301 -13.26553917 3.108848572
45.77342987 -13.48984909 4.823714256
47.47393799 -13.91508102 6.708863258
46.46631622 -13.9460535 1.518394351
44.74677658 -13.42372799 3.114671707
46.75961304 -13.93666553 4.92036438
47.82555008 -14.19093132 6.76433897
45.88380051 -13.95539665 1.515517831
45.35626984 -13.75652695 3.153815031
46.86681366 -14.1429081 4.939624786
48.05728149 -14.43606091 6.805075645
48.07314682 -14.75058174 1.556526065
45.34928131 -13.92562771 3.161331654
45.31024933 -13.87393951 4.811252594
47.98989487 -14.90810776 1.561814189
45.42070007 -14.10921764 3.172611237
45.26467133 -14.02334309 4.816313744
47.63628387 -14.9763813 1.562373161
45.43157196 -14.28442574 3.181166649
46.01163483 -14.41404533 4.892611504
22.51032639 -7.646827221 1.157156467
22.48022461 -7.617683411 1.976346135
47.85318756 -15.42250729 1.57989037
45.52867508 -14.67628384 3.203240633
22.46326447 -7.67354393 2.801632643
47.18472672 -15.39961433 1.575428247
45.84866714 -14.94787121 3.228425264
74.70484924 -24.14074707 2.045420408
45.87924576 -15.13248539 3.238312483
45.85369873 -15.08303356 4.919370174
74.78692627 -24.46709824 2.057880163
46.10917282 -15.38033104 3.258945465
49.80821991 -16.49662018 5.286727905
50.57208252 -17.0215168 1.653385639
46.84117126 -15.78091335 3.306284189
49.12703323 -16.46228218 5.235599041
50.69338226 -17.24546814 1.662306786
47.11577225 -16.04925156 3.329679012
48.8147583 -16.54157066 5.217732906
51.12353516 -17.59111595 1.677386284
47.98270035 -16.52215195 3.385740519
48.70545959 -16.70348549 5.219373703
47.72023392 -16.673769 1.625329375
47.84606552 -16.66244698 3.387211561
48.43093491 -16.81071091 5.205976486
47.43622589 -16.75447464 1.626823068
47.76297379 -16.81075096 3.391159773
49.34753418 -17.29316902 5.300352097
47.3833313 -16.91158485 1.6323843
47.65956879 -16.9612484 3.394463539
49.19046402 -17.42221832 5.296783924
50.40011597 -18.12701988 1.693471551
47.27781296 -17.01645279 3.382501364
47.60956192 -17.07633781 5.16294241
52.8684082 -19.17682076 1.745524764
47.01519394 -17.11024857 3.377012491
47.21884155 -17.12756538 5.138098717
47.12884521 -17.38637161 1.648756504
46.66856003 -17.18227196 3.367280006
47.10400772 -17.28125763 5.139192581
47.18869781 -17.60154915 1.657115698
46.72696304 -17.39487457 3.37993741
47.01312256 -17.4429245 5.14253664
49.36116791 -18.22276115 7.204622269
52.27949142 -19.6086235 1.758619189
46.62747192 -17.54293251 3.383434057
46.94525528 -17.60333633 5.147499084
49.30534363 -18.39661026 7.211477757
47.24571991 -17.99359322 1.672108531
46.69955063 -17.74334335 3.396075487
46.69124985 -17.69669724 5.135176182
46.99527359 -18.07933235 1.674046159
46.34670639 -17.78990364 3.384980202
46.67795181 -17.86683273 5.144713879
47.11244583 -18.2993927 1.68292582
47.07061768 -18.2399044 3.434809685
46.4115448 -17.94437599 5.130635738
49.44624329 -19.01186752 7.271519661
46.53616714 -18.27133179 1.678936601
46.48547745 -18.20880508 3.411103964
46.22056961 -18.05750084 5.124155998
48.92782974 -19.01586151 7.217988968
46.50326157 -18.44409561 1.685290813
46.65817261 -18.45870209 3.430143356
46.28868484 -18.26672363 5.1420331
48.58291245 -19.0811615 7.187119007
46.41178131 -18.59480476 1.690526366
45.86085129 -18.34156609 3.394173622
46.30558014 -18.45760918 5.155199528
48.94365311 -19.41106224 7.249320984
46.56986237 -18.8413868 1.70065558
46.39600372 -18.73060417 3.433943033
45.94776917 -18.50555992 5.133020878
46.36713028 -18.94932365 1.703734398
46.53057861 -18.96887016 3.451055288
45.85772705 -18.65477943 5.136135578
46.03394699 -19.00483704 1.704183578
45.44813538 -18.73128319 3.398367643
45.55940628 -18.72233009 5.119485855
48.86901093 -19.96984291 7.284159184
45.88864517 -19.13279343 1.708329439
45.60630417 -18.97720146 3.416816711
45.56187057 -18.9160099 5.132031441
45.62474823 -19.2217617 1.710416079
45.45976639 -19.11209106 3.418229103
45.46496201 -19.06139374 5.134579182
46.30722809 -19.68365479 1.731385946
47.30990219 -20.04504395 3.535126925
45.6558075 -19.32257652 5.164747715
48.89500046 -20.58208656 7.334184647
45.91194153 -19.71013641 1.730465889
45.50479507 -19.49964905 3.439812183
45.15356064 -19.30340385 5.128473282
48.42084122 -20.58782768 7.286062717
45.96976089 -19.92134666 1.738827586
45.43564987 -19.65667152 3.44534421
45.79048157 -19.74950218 5.201833248
46.26833344 -20.23422241 1.752260566
45.34015656 -19.80265808 3.449359417
45.12060928 -19.65816879 5.149298668
45.93888474 -20.28511047 1.7526263
45.40801239 -20.01719093 3.463017941
45.40707397 -19.96334648 5.189196587
48.66764832 -21.28441811 7.366258621
45.35578156 -20.22575569 1.747550607
45.55945587 -20.26836205 3.481709003
45.40584946 -20.14944839 5.201370239
45.41656494 -20.43915558 1.756052732
45.37387848 -20.37663841 3.480521202
45.33636093 -20.3162365 5.207598686
48.95718765 -21.80844688 7.43759346
45.07132339 -20.48660088 1.756243229
45.86991882 -20.78887177 3.520417452
45.35562897 -20.51206398 5.221940994
45.15643692 -20.71117401 1.765313029
45.47431564 -20.80612373 3.506783962
45.8561821 -20.92821121 5.284207821
44.94085312 -20.81322479 1.768245697
45.29287338 -20.91531944 3.505892754
45.74725723 -21.07102585 5.286286831
44.98952484 -21.01342392 1.776222825
45.11487961 -21.02510071 3.505190849
45.94363403 -21.34939384 5.318505287
44.86066055 -21.14389229 1.780681849
45.15327454 -21.22195435 3.51705265
45.86788177 -21.49808693 5.323361397
44.90969086 -21.34545708 1.788733125
45.2636261 -21.46182251 3.533859968
45.6156311 -21.57640839 5.311415672
45.18769455 -21.61782646 3.539436817
45.7402153 -21.81594276 5.336240768
47.80223465 -23.07627678 1.869323611
45.07130432 -21.76467705 3.543086052
45.79117203 -22.04243279 5.355205536
47.93967819 -23.35379601 1.880768061
45.28191376 -22.06394386 3.566818714
47.01634598 -22.81742477 5.491795063
48.27312088 -23.71567154 1.89640379
45.13346863 -22.18672752 3.568079233
46.90303802 -22.96416092 5.494222164
47.60834503 -23.60505295 1.889093041
45.04600143 -22.33794975 3.573111534
47.17197418 -23.59926987 1.886918545
45.8598938 -22.92185402 3.63411665
45.70504379 -22.79149628 5.401124954
48.07632065 -24.24133682 1.916107655
45.07263947 -22.73769951 3.59581089
46.93701553 -23.58325386 5.539562702
48.36978912 -24.59267998 1.931197882
46.51720047 -23.63829613 3.696782351
46.91973495 -23.77723885 5.55199194
47.96762466 -24.60358429 1.929863214
45.56867599 -23.37200737 3.648275375
46.98210144 -24.01091385 5.572624683
48.39453125 -25.02497864 1.94831574
45.5880127 -23.5796566 3.660378456
47.22180557 -24.33385086 5.611518383
49.52828217 -25.80621529 1.984028935
45.47975922 -23.72410965 3.664488792
47.18020248 -24.51875687 5.621841908
47.46154022 -24.97484779 1.942310333
45.86275482 -24.11697769 3.699811935
47.45255661 -24.86257172 5.664515495
47.69045639 -25.3004818 1.956164002
45.85406876 -24.31396103 3.710428476
49.8669014 -26.30044937 5.928279877
47.55693436 -25.44192314 1.96119678
45.94043732 -24.56051445 3.727194309
49.17157745 -26.16280746 5.872127533
47.62875748 -25.68980217 1.971327424
47.69129944 -25.67313004 3.85099411
49.30892563 -26.45128632 5.90201807
47.77555847 -25.97842026 1.983401179
47.68914795 -25.88372803 3.862700224
48.09849167 -26.37312508 2.00043726
47.19002151 -25.83247185 3.842309475
47.80254364 -26.10622978 5.777302742
47.67324829 -26.35061073 1.997783065
47.10594177 -25.99872208 3.848720789
48.93057632 -26.9196434 5.910970211
47.36573792 -26.39919472 1.998457193
47.10219574 -26.2081337 3.860407352
48.71015167 -27.00996399 5.903056145
46.61385727 -26.20463562 1.987625718
46.98870087 -26.358881 3.864984989
47.94440842 -26.82618904 5.839263916
46.65576553 -26.44910049 1.997566938
46.83346176 -26.49718285 3.867440939
47.95802689 -27.05028152 5.856655598
46.75875854 -26.71798515 2.008743048
46.48822021 -26.51961517 3.856754541
47.75077438 -27.15392303 5.850757599
46.0550766 -26.53954315 1.998785138
46.34062195 -26.6495266 3.859068394
48.14950562 -27.59240341 5.90929842
46.12911224 -26.79201126 2.009210587
46.21012115 -26.78846741 3.862522364
47.89212418 -27.66870689 5.898218632
47.17124176 -27.59375572 2.04552269
46.80762863 -27.33823776 3.914626837
47.93321609 -27.91166115 5.919036388
46.75812531 -27.57581902 2.043190718
46.16651154 -27.18902969 3.884050131
47.94935226 -28.15279198 5.938158989
31.84942055 -19.35632515 0.3685791194
47.36013412 -28.14969063 2.068641901
45.9275589 -27.27633858 3.880917072
50.55399323 -29.8669796 6.235541344
31.62085533 -19.37149811 0.3749551177
45.68725204 -27.39984894 2.031970739
45.95762634 -27.50727272 3.895311117
47.79139709 -28.50619698 5.954596996
45.76702118 -27.65991211 2.042780876
46.13272476 -27.81326294 3.919028282
47.67876816 -28.66350555 5.959268093
45.96564102 -27.9808979 2.056515217
45.83340073 -27.85349655 3.911213398
50.342453 -30.45027542 6.266126156
45.62833786 -27.99711037 2.05590868
45.80190277 -28.03973007 3.921014786
50.42190933 -30.72218323 6.291960239
45.83842087 -28.32777786 2.070098877
46.26540756 -28.53294754 3.965512514
45.16777802 -28.1625042 2.060917854
46.18429184 -28.72561836 3.974086761
48.69236755 -30.17164993 6.139376163
45.15254593 -28.36869049 2.069246292
45.34084702 -28.43360329 3.928608418
48.4156723 -30.23587799 6.126737595
45.16709518 -28.59393501 2.078469753
45.2796669 -28.60236931 3.936516523
48.58263779 -30.5694046 6.163124084
44.93885803 -28.6593647 2.080318213
45.43053055 -28.91301537 3.95992136
48.06111526 -30.48175621 6.123333454
44.92646408 -28.86876488 2.088821173
45.53905487 -29.1997757 3.980535269
48.0857811 -30.71729088 6.143229961
44.7759819 -28.99233246 2.093340874
45.66644287 -29.50033379 4.00262928
48.05329132 -30.94155312 6.158705711
29.05741692 -19.40471077 0.4428541958
44.84161377 -29.26297188 2.104644775
44.54136276 -29.02354813 3.936999559
48.25252914 -31.30088425 6.199380875
28.83450317 -19.40446472 0.4486443102
28.65898895 -19.43327141 0.4538397789
44.3883934 -29.42288017 2.109642267
44.40724182 -29.37432098 3.953576326
44.58554459 -29.75880814 2.124109745
44.72149658 -29.78551865 3.988578558
44.60340118 -29.98062706 2.133292198
44.46113586 -29.83778954 3.983218193
28.13656425 -19.50885582 0.4690374136
43.90162277 -29.7419281 2.121129513
44.32620239 -29.97067261 3.986845016
28.04156494 -19.58694839 0.473205477
43.89730072 -29.95885468 2.130058527
44.15587234 -30.07989883 3.987924337
27.96632004 -19.68510437 0.4772956967
43.84362411 -30.1549263 2.137977362
44.33408737 -30.43167877 4.015042782
43.90524673 -30.42907524 2.149507284
44.3263588 -30.66161728 4.028784752
44.25366592 -30.88820076 2.169618368
44.32607651 -30.88642502 4.042489529
44.30385208 -31.14830589 2.180554152
44.11034012 -30.96539879 4.040401936
44.05294037 -31.20293427 2.18203783
45.28020477 -31.99475861 4.14089632
44.68467331 -31.86766243 2.211596012
45.38670731 -32.28988266 4.162425518
44.52589798 -31.9766407 2.215643644
45.24378967 -32.42508698 4.16621542
50.50603104 -36.41292572 2.418378592
49.65582275 -35.75716782 4.511622429
50.03417969 -36.34266281 2.414043188
49.67366791 -36.0291748 4.529022694
49.53935623 -36.20725632 4.535851479
50.80650711 -37.43835449 2.462059259
49.30682373 -36.30173492 4.534442902
50.07288742 -37.16321945 2.44844079
49.51883316 -36.70342255 4.56610918
51.31443024 -37.92692947 6.922553539
49.31253815 -36.81703949 4.566790104
51.26500702 -38.57471466 2.510954857
49.11249924 -36.93437958 4.567937374
48.79354477 -36.97624207 4.560709953
50.60795593 -38.24318314 6.907031536
50.5001297 -38.58566284 2.509313345
49.61788177 -37.86771774 4.642208099
49.08904266 -37.74092102 4.617985249
49.301548 -38.22977066 2.49112463
49.95660019 -38.66532516 4.702968597
41.88875198 -33.04933929 0.4087390304
49.97838974 -39.01737213 2.526117086
41.80011749 -33.21365356 0.4144073129
49.43590164 -38.87717438 2.518797159
50.44150925 -39.5124054 7.004477501
41.70296478 -33.37157822 0.4201443493
48.67044449 -38.55998993 2.503440857
48.1475029 -38.42472839 2.496405363
47.88891602 -38.15093613 4.607616425
47.57915497 -38.23601532 2.487005711
49.3326416 -39.55108643 4.740510941
47.27591705 -38.26531982 2.487511396
41.70129013 -34.30329895 0.4395462871
47.1748085 -38.45362473 2.495265961
47.16234207 -38.38512802 4.600906372
46.80746841 -38.44225311 2.493917227
46.07253647 -37.78218079 4.529739857
46.60485077 -38.53430939 2.497365713
45.98048019 -37.97259903 4.539309025
45.75030899 -38.10881424 2.477287054
49.05830383 -40.66129684 7.023946285
45.4777565 -38.15157318 2.478500128
45.72298813 -38.29472733 4.552602768
45.54435349 -38.48579407 2.492919922
45.84556961 -38.6763382 4.58097744
45.59110641 -38.79262543 2.50613904
45.20164108 -38.41143417 4.544996738
44.93679428 -38.52806473 2.493427038
45.00069427 -38.52414703 4.5465312
44.80811691 -38.68712616 2.499974728
44.86572647 -38.67816162 4.552711487
44.53412628 -38.72279358 2.500945091
45.0909729 -39.13766479 4.589301586
44.61898422 -39.06366348 2.515752792
44.93260956 -39.27384567 4.593715668
44.55505371 -39.27904892 2.524886608
44.77534103 -39.41070938 4.59824419
44.39957428 -39.41584396 2.530474424
44.70666885 -39.62403107 4.610367298
44.35507202 -39.64936066 2.540450811
44.75589752 -39.94097137 4.632709026
44.18791962 -39.77605057 2.545606613
44.95787048 -40.39440918 4.668427467
44.92119217 -40.70013428 2.586824656
46.00183105 -41.59683228 4.777486324
44.76396179 -40.84057999 2.592617273
45.91277313 -41.8047142 4.78883028
45.77217102 -42.02785492 2.645720482
52.94893646 -48.40575409 5.424194813
45.38806152 -41.969944 2.642566442
52.17523193 -48.04143524 5.378472328
51.59527588 -47.91485596 2.910491943
52.06013489 -48.26866913 5.390512466
51.24510956 -47.92420197 2.910337687
51.93234634 -48.48483658 5.401507854
51.89751816 -48.78735733 5.420885563
50.60505676 -47.99174881 2.912289381
51.69160843 -48.93263245 5.425076485
50.51900864 -48.24172211 2.92304492
51.51739883 -49.10702515 5.432133675
50.27235413 -48.62623978 0.5179926753
51.07155228 -49.09534454 2.961037159
51.18861389 -49.13573837 5.425229549
50.00762177 -48.72436905 0.5262456536
50.67707443 -49.07542801 2.959619761
52.5453186 -50.77907181 5.572865009
49.89812088 -48.9540596 0.5333420038
50.54602432 -49.28777695 2.968716145
56.14229584 -55.34595108 0.5088966489
50.23561859 -49.32779312 2.970060349
52.61192322 -51.54545593 5.626702309
50.04315948 -49.48039246 2.976494789
50.29663467 -50.36275864 0.5512170196
22.29561043 -22.69666672 1.769455671
52.93592834 -52.57447052 5.705414295
50.06699371 -50.48162079 0.5589606166
22.27488518 -22.82897377 1.775232196
49.81158829 -50.57409286 0.5667900443
22.28475952 -22.99234009 1.782413363
69.14438629 -70.33547211 0.4903810024
51.57883453 -53.42441177 0.5798512697
51.15778732 -52.68671417 3.118529797
50.22001648 -52.45230865 3.107314348
51.2697258 -55.04020691 3.222577572
51.59241867 -55.76327133 3.254846573
50.48360443 -54.96108627 3.218539238
44.37034988 -50.05568695 0.6838828921
50.42472076 -56.43234253 3.283924103
42.81247711 -50.02606583 0.7189634442
47.06463623 -54.58548355 3.200331926
46.87678146 -54.74926376 3.207626581
42.15324783 -49.95650864 0.7326550484
46.72239685 -54.95166397 3.216671944
4.954498768 -6.600016594 2.111653805
5.008405685 -6.651778698 2.40078187
46.67908096 -55.28412628 3.231577873
4.931867599 -6.614233017 2.111732244
4.919298649 -6.591571808 2.379647493
46.59076691 -55.58548355 3.245100021
4.892535686 -6.608915806 2.107312441
4.883948803 -6.590822697 2.375440836
46.26696777 -55.57168579 3.244475603
4.857126713 -6.607898712 2.103923082
4.854745865 -6.595008373 2.372847795
46.18626022 -55.86427689 3.257635117
4.820244789 -6.602858067 2.099797249
4.816981792 -6.590942383 2.367799759
46.08045197 -56.10902023 3.268658161
4.79764986 -6.616569519 2.099859476
4.772747517 -6.576870918 2.360217571
47.71391678 -58.49376678 3.375875235
4.757616997 -6.611354351 2.09545064
4.728182316 -6.568036556 2.353568316
4.767456055 -6.604857922 2.638110399
47.35251236 -58.48588943 3.375582695
4.719732285 -6.616280079 1.827498317
4.72271204 -6.611992359 2.092421055
4.699725151 -6.57621479 2.351856709
4.726492882 -6.598308563 2.63116312
46.32198334 -57.65542603 3.338336706
4.697393894 -6.631955147 1.828001738
4.681618214 -6.604841232 2.087650061
4.679729939 -6.592513084 2.352597475
4.685643673 -6.591537952 2.624207497
46.09320831 -57.77933121 3.343994856
4.649755478 -6.614473343 1.822621584
4.642883301 -6.598187923 2.083181143
4.632457256 -6.575404167 2.344189644
4.665561676 -6.607778072 2.624947309
46.09721375 -58.19194794 3.362645626
4.618479252 -6.616757393 1.820851803
4.618884563 -6.607374191 2.082490206
4.600143909 -6.576273918 2.340763569
4.624411106 -6.596027851 2.616937399
4.498345852 -6.571969032 0.5367820859
4.50196743 -6.566979408 0.789457202
4.56717062 -6.591838837 1.814302444
4.565258503 -6.579623222 2.07345295
4.539434433 -6.539627075 2.327308178
4.551716805 -6.54479599 2.596331835
4.467434406 -6.573504925 0.5381219387
4.474741459 -6.573231697 0.790171504
4.502130032 -6.573890209 1.042561769
4.497514725 -6.560561657 1.295101166
4.503286839 -6.558220863 1.549501061
4.513613224 -6.56354475 1.8071841
4.509647846 -6.550827503 2.064092159
4.502466202 -6.533978462 2.322201014
4.500267029 -6.52118969 2.584462404
4.460198402 -6.60716486 0.5381152034
4.452704906 -6.588008404 0.7909219861
4.468920231 -6.574636459 1.042610765
4.461871147 -6.558179855 1.294171214
4.470113277 -6.559044838 1.548157334
4.486583233 -6.57223177 1.806544185
4.490002155 -6.568798542 2.065194845
4.501082897 -6.574887276 2.329618692
4.493932247 -6.555791378 2.591029167
31.19475937 -41.03904724 0.8162581921
31.64626694 -41.37657547 2.607237816
4.519776344 -6.675001144 1.303912044
4.559738159 -6.71620369 1.567808986
4.481566429 -6.60883379 1.810927868
4.477586269 -6.595993042 2.068385363
4.466572762 -6.572052002 2.325336456
4.481396198 -6.582802773 2.595175028
30.9066906 -40.95603943 0.8211112618
31.1908989 -41.08248138 2.594141722
4.437162399 -6.593159199 1.806056023
4.450283051 -6.602213383 2.067011833
4.424903393 -6.55980587 2.318546534
4.450585365 -6.584582329 2.5915277
30.72539711 -41.00964737 0.8260381222
31.06744385 -41.21312332 2.600151539
4.4133358 -6.595863342 2.06284523
4.38817358 -6.553520203 2.313416719
4.416241169 -6.581623554 2.586419582
30.3564682 -40.8157196 0.8306732178
30.55232239 -40.83229065 2.583172798
4.369282722 -6.5799613 2.056578875
4.361098289 -6.559437752 2.31161809
4.365374565 -6.556993484 2.57451129
30.07721901 -40.73623276 0.8353634477
30.3413105 -40.84464645 2.583883286
4.325398445 -6.563820362 2.050302982
4.322145939 -6.549706936 2.305640936
4.350144386 -6.578277111 2.577156305
29.89128685 -40.77850342 0.8401588798
30.16667366 -40.90391922 2.586713791
4.293581963 -6.563135147 2.047509909
4.295151234 -6.555346012 2.303832531
4.290177822 -6.540849686 2.561344862
29.85226631 -41.01732254 0.8452119231
30.11057472 -41.12084961 2.596646309
4.267745495 -6.570162773 2.046458244
4.256389618 -6.5452528 2.297841549
4.274962425 -6.561903477 2.563982487
29.84404755 -41.29977798 0.850353241
29.876894 -41.10045242 2.595914125
4.233656883 -6.566040516 2.042956114
4.23299408 -6.555310726 2.297277927
4.234044552 -6.548775673 2.555926561
29.72303963 -41.43105316 0.8552730083
29.94867134 -41.49225998 2.613736391
4.197303772 -6.558588028 2.038748026
4.188579082 -6.537020683 2.289182663
4.193271637 -6.535431385 2.547862053
29.7250576 -41.73176956 0.860491693
29.8445015 -41.64799881 2.620950222
4.161057472 -6.550950527 2.034533024
4.158446789 -6.539674282 2.286551714
4.163184643 -6.538197041 2.54468751
29.57529449 -41.84037018 0.8656129837
29.9415741 -42.09651184 2.641361713
4.139031887 -6.564513206 2.034897089
4.122413635 -6.531995296 2.281369925
4.144451141 -6.554180622 2.545854092
44.99576187 -63.64552689 0.9143049121
45.22835159 -63.58740997 3.608806133
4.120269299 -6.580463409 2.035925865
4.093382835 -6.533630371 2.278694391
45.008564 -64.12797546 0.9224203229
45.35586166 -64.22893524 3.638046741
4.058672905 -6.527199745 2.273919106
44.81999969 -64.33035278 0.9299649
45.16678238 -64.43227386 3.647583008
4.033164501 -6.533318043 2.272490978
44.64434814 -64.55182648 0.9375478625
44.94914627 -64.59588623 3.655348063
44.68488312 -65.08467102 0.9458953142
44.25733185 -64.96983337 0.9529924393
44.92527771 -65.53913879 3.698694229
44.19977188 -65.36632538 0.9610366821
44.65149689 -65.62626648 3.703069687
44.01625824 -65.55708313 0.9681919217
44.51544571 -65.91345215 3.716472864
43.85757446 -65.80967712 0.9758685231
45.21863174 -67.4125061 3.784476042
43.75673676 -66.14997864 0.9838127494
44.89430237 -67.4338913 3.785947323
44.14270782 -67.224617 0.9940670729
44.62156296 -67.53020477 3.790810347
43.99422455 -67.52937317 1.002368927
44.69537354 -68.1725235 3.820332289
43.88096237 -67.86479187 1.010438919
43.97820663 -67.5970993 3.794944286
43.64601517 -68.01576233 1.017895103
47.02361679 -72.76031494 4.028369904
44.05792999 -69.16915131 1.02887845
31.28576469 -49.7520752 0.9652439356
46.7022934 -73.36862183 4.057084084
30.93927574 -49.60300446 0.9698908925
47.38558578 -75.02425385 4.13249445
30.77452087 -49.73799515 0.9755613208
30.71208 -50.01802444 0.9815520644
46.05521011 -74.09233856 4.091863632
30.43729401 -49.93942261 0.9858705401
30.74770164 -50.14641571 3.011279583
30.61736679 -50.61577606 0.9935112596
30.5461731 -50.18681717 3.013572454
29.85971642 -49.76660919 0.994784236
29.99692917 -49.68013382 2.991186142
29.73261833 -49.942276 1.000302315
29.82007408 -49.77417374 2.995943308
29.61492157 -50.13482666 1.005898476
29.89964676 -50.29153061 3.019845247
29.23078918 -49.88233948 1.009483457
29.71558189 -50.37661362 3.024226189
29.13817787 -50.11652374 1.015239
29.53128433 -50.46101761 3.028588533
28.9531002 -50.19545364 1.020275354
29.3742466 -50.59117126 3.035031557
29.0095005 -50.6884079 1.02728796
28.82234764 -50.04853058 3.011049747
28.80158806 -50.73042297 1.032148719
29.12683105 -50.96747971 3.053206444
46.5426178 -81.58222198 4.439613819
44.79749298 -83.75562286 1.255488634
30.70536995 -58.16868973 1.116035461
44.86579514 -84.02097321 4.5585742
30.51942635 -58.3019371 1.121819973
44.76376724 -84.52920532 4.582769871
30.44206238 -58.64159012 1.128815413
30.91394997 -59.14303589 3.431498528
30.07180786 -58.42482758 1.132499576
29.69878197 -58.19734955 1.136051059
30.00789833 -58.40219498 3.39948678
29.51331329 -58.32904816 1.141746283
29.77286148 -58.44075775 3.4020648
29.28912926 -58.38532257 1.146961808
29.53700066 -58.47659302 3.40453124
29.38141632 -59.06731796 1.156120539
29.92271805 -59.73341751 3.462524652
29.02489471 -58.88838577 1.160076737
28.79127693 -58.92656326 1.165141225
29.44343185 -59.83128357 3.468789339
28.94257545 -59.74629974 1.175332069
44.92304993 -93.86927795 1.415373921
44.43767166 -93.68991852 1.421678424
44.19940186 -94.02503204 1.431463361
31.16162682 -67.15175629 1.250958085
30.74575233 -66.83411407 1.253715754
30.03862953 -66.5394516 1.26223135
29.76812553 -66.552742 1.267449379
29.55846596 -66.73069 1.274110556
29.30911446 -66.78951263 1.279620767
29.11932564 -66.98285675 1.286125183
29.02135277 -67.38829803 1.294244647
28.40075111 -67.22510529 1.30300498
45.06894302 -109.2706146 1.65389514
30.79872322 -76.44028473 1.402504921
30.41217995 -76.2430954 1.406362772
29.63253975 -75.05613708 1.401959777
29.60459709 -75.74298859 1.413012624
29.38554764 -75.99245453 1.42071259
29.00492477 -75.78862762 1.424293756
28.74788666 -75.86191559 1.42992866
29.12480736 -76.27861786 4.253195763
28.82596588 -76.24766541 4.253214359
28.8041172 -84.68344116 1.562897921
30.18679619 -92.86012268 1.66262114
29.4954052 -91.82345581 1.658618808
28.63629341 -92.42863464 1.681916475
28.44428062 -92.94065857 1.692718506
-41.51451492 30.35275078 0.5778234601
-41.27919388 30.38160896 0.5733724236
-40.62282181 30.50935173 0.5590513945
-24.2209301 25.24062538 0.4788397551
-24.03527451 25.19345856 0.4768507481
-35.46463394 53.89203644 1.580605268
-35.21608353 53.89681625 1.568878055
-34.97605896 53.91426086 1.55729413
-17.17682457 24.95444298 0.3116911054
-17.03665924 24.91187096 0.3096013367
-16.90800095 24.87848282 0.3073815703
-16.80039597 24.87190056 0.3044427335
-16.68398857 24.85840416 0.3015653789
-9.077619553 11.32937717 0.3330865204
-9.013174057 11.29570866 0.3348675966
-8.947173119 11.25818729 0.3369270861
-8.892573357 11.24156666 0.3374405205
-8.828990936 11.2069664 0.3392736316
-8.756608963 11.1542902 0.3424370885
-8.748859406 11.22755337 0.3362855017
-8.734373093 11.28840733 0.3310319185
-8.689234734 11.2841177 0.3306251466
-8.701724052 11.40034008 0.3212333322
-8.643973351 11.37526321 0.322304666
-9.003749847 12.16955566 0.702291131
-8.591704369 11.36067963 0.3225904703
-8.894755363 12.04465008 0.7051168084
-8.550868034 11.36922264 0.3211480379
-8.522087097 11.40281296 0.3178294301
-8.733381271 12.01070881 0.7014924884
-8.652346611 11.93823719 0.7025141716
-8.348689079 11.3230629 0.3212286234
-8.321510315 11.35968018 0.3176375628
-8.279213905 11.36356258 0.3164823651
-8.218847275 11.32728291 0.3183275163
-8.442178726 11.88472176 0.698135078
-8.198793411 11.37992859 0.3134958148
-8.429899216 11.9602232 0.6937786937
-8.923768044 13.14013958 1.117482185
-8.154939651 11.37967682 0.3126200438
-8.420384407 12.04308605 0.6891263127
-8.114356995 11.3865509 0.3111988902
-8.059434891 11.36034775 0.3122580647
-7.929032803 11.15361023 0.3269693851
-8.226686478 11.90917587 0.6893580556
-7.874423027 11.12480831 0.3282315433
-7.838750839 11.13984203 0.3261772394
-7.809201717 11.16946793 0.3230070174
-8.035912514 11.77696133 0.6895362735
-7.779497623 11.1990118 0.3198284209
-7.997970581 11.79262447 0.6873526573
-7.748879433 11.22662735 0.3167815208
-7.959974289 11.80815315 0.6851665378
-7.69600296 11.20499134 0.3174121082
-7.921924114 11.82354927 0.682978034
-7.667510509 11.23790359 0.3139378726
-7.881913662 11.83957386 0.6806774139
-7.633661747 11.25777054 0.3114413917
-7.843755722 11.85469627 0.678483963
-7.598993301 11.27567291 0.309081912
-7.782615662 11.80568695 0.6788406968
-25.20203209 56.51763153 3.122678041
-7.569334984 11.30646229 0.3057261407
-7.734438419 11.79438305 0.6776663661
-24.95912361 56.46652603 3.106955051
-7.716053486 11.86568642 0.6731963754
-7.690598011 11.9138546 0.6696865559
-7.650258541 11.92902851 0.6673711538
-7.613714218 11.94262886 0.6652742028
-7.57519722 11.95681381 0.6630646586
-7.524307251 11.93706608 0.6621935964
-7.497234344 11.97656727 0.6590492129
-7.470693111 12.02422619 0.6554808617
-7.456507683 12.10764122 0.6504607201
-7.448376656 12.20995617 0.6446509957
-7.449361801 12.3406868 0.6376586556
-7.44560957 12.46020985 0.6310777068
-7.447975636 12.60703659 0.6232563257
-7.638813972 13.25722027 1.051485181
-7.43748045 12.7116375 0.6172001958
-7.435112 12.97735882 0.6027457118
-7.406463623 13.03275204 0.5986080766
-7.587882042 13.69469643 1.03981781
-7.390804768 13.12998867 0.5927138925
-7.578181744 13.81947231 1.036725998
-7.381706238 13.25013828 0.5858319998
-7.369445801 13.36273575 0.5792245269
-7.343558788 13.43336105 0.5743384957
-7.367037296 13.66843796 0.5625036359
-7.368312359 13.83490086 0.5534906387
-7.581056118 14.65930176 1.019315124
-5.366161346 7.404150486 2.252378702
-7.378656864 14.03601837 0.5429518223
-5.350396633 7.378282547 2.005924463
-5.339737892 7.397558689 2.248737812
-7.37534523 14.19515324 0.5341328979
-5.329433441 7.390591621 2.005435228
-5.310731411 7.381366253 2.243426085
-7.364338875 14.33137512 0.5262384415
-5.305751324 7.393284321 2.00361371
-5.289195061 7.391662121 2.242807627
-5.269322872 7.373940945 2.481122255
-7.378628254 14.55994797 0.5143371224
-5.280501366 7.390156269 2.00099659
-5.265542507 7.394274712 2.240849495
-5.243200302 7.36709547 2.477017164
-7.362502098 14.67650795 0.5072875619
-5.251761436 7.369393349 1.996061563
-5.244046211 7.400295734 2.239624262
-5.218775272 7.361726761 2.47338295
-7.342932701 14.80214024 0.4995884895
-5.23126173 7.383295059 1.995835543
-5.216353416 7.387491703 2.234998465
-5.196131706 7.372044086 2.472840071
-7.334402084 14.96184826 0.4904758632
-5.20552063 7.382101059 1.993427038
-5.190264702 7.380297661 2.231378555
-5.172113895 7.372492313 2.470350981
-7.350131512 15.20590401 0.4777513444
-5.184560299 7.389796257 1.992468834
-5.16719389 7.384459019 2.22976017
-5.148757935 7.370651245 2.467525959
-5.154572964 7.366990566 1.987228632
-5.142663002 7.38280344 2.227144241
-5.121444225 7.357620239 2.462233782
-5.129612923 7.363278389 1.984630227
-5.117686272 7.379140377 2.224198341
-5.097536087 7.35779047 2.459751606
-5.126014709 7.38164854 1.749699712
-5.104700565 7.359469891 1.982034922
-5.092755795 7.375380993 2.221255779
-5.074111462 7.359775066 2.457671165
-5.100080967 7.373874664 1.747062564
-5.081248283 7.361343384 1.980229616
-5.065085888 7.360024452 2.216328382
-5.052978992 7.371202946 2.457590342
-5.071867466 7.356327534 1.74346602
-5.060590267 7.374696255 1.979997039
-5.043035507 7.367575645 2.215379238
-5.024577141 7.35204649 2.451116323
-5.050293446 7.365763187 1.742571354
-5.034822941 7.366762161 1.976883054
-5.020050526 7.371211529 2.213767529
-5.032789707 7.392564297 1.743402481
-5.00642252 7.347141266 1.972206235
-8.289785385 25.65739822 0.8228780031
-8.210927963 25.71318245 0.8175430894
-8.117092133 25.69007301 0.813100934
-8.034983635 25.70517159 0.8084542155
-7.942857265 25.68927002 0.8039374352
-7.851933002 25.67894173 0.7993595004
-8.75364399 54.90355682 2.115668058
2.457161903 48.36869049 1.404898763
15.34818172 80.61399078 1.145763874
15.36966896 78.35047913 1.115659595
15.48675442 70.35137939 1.007754207
15.50536823 68.60707855 0.9847251773
15.48513317 67.64012146 0.9735437632
15.49051476 66.78559875 0.9624891877
15.55560112 65.32057953 0.9407300949
15.56953621 64.5109024 0.9298493862
15.61548138 64.20439911 3.235847473
15.66536808 62.52003479 0.9000465274
15.87334728 58.25164795 0.8364657164
16.02785873 58.05125046 0.8262327313
16.29374313 52.9203949 0.7500969172
16.39598274 52.64567947 0.7416947484
16.87862206 50.26987839 0.6892547011
17.39940071 50.74195099 2.558604956
17.07948685 49.78730774 0.6736306548
17.49727821 50.5144043 2.545078516
17.24124527 49.71882248 0.6648877263
17.70619202 50.52577209 2.53819108
17.34031105 49.48073959 0.6572084427
22.03799438 58.43136597 2.733978987
17.76808929 48.6298027 0.6262652874
22.45431519 58.50469589 4.93530798
17.94590187 48.55885315 0.6167763472
17.56288338 46.87002563 0.6155853868
17.64785385 46.65471649 0.6089472175
17.69560051 46.34139633 0.6029795408
17.83000946 46.21648026 0.5950208306
17.87874794 46.07981873 2.338137865
17.84024429 45.8310585 0.5900508761
18.06277466 46.06120682 2.33119297
18.38564873 46.56787491 0.5722506046
17.98138428 45.49067307 2.309296131
18.52379227 46.44800568 0.5642021298
18.12539482 45.41233444 2.301166058
18.53424263 46.08712769 0.5595366955
18.89543724 46.61193466 2.327379704
19.23976326 46.90846252 2.328826904
19.05914688 46.1456337 2.302057266
18.23874474 44.34128571 0.5536990762
18.29269218 44.07233429 0.5480384231
18.40219688 43.91582108 0.5410079956
18.91430092 44.70296097 2.245211601
18.76120758 44.24650192 0.5275877118
18.90496635 44.13622284 0.5194652677
18.64850998 43.45002747 2.200508356
18.64056778 43.28177261 0.5224214196
19.38385963 44.50979614 2.222115278
18.76679993 43.18157959 0.5152700543
18.80807877 43.0550499 2.178787708
18.93748474 43.1477623 0.506757617
18.93413925 42.93844986 2.169932604
19.1807251 43.2309494 0.4961171448
18.99492264 42.68374634 2.157332659
19.05245209 42.64128113 0.495609194
19.03737068 42.41551971 2.144764185
19.18631935 42.54124069 0.4881359339
19.09406662 42.19351578 2.133723021
19.36450005 42.53940582 0.479665339
19.25521469 42.14623642 2.126812458
19.64510536 42.70428467 0.4682050049
19.33722496 41.97299194 2.117089272
19.74442291 42.55744934 0.4618775547
19.35701942 41.67358398 2.10402894
19.5168705 41.81374359 0.4644104838
19.44781494 41.50334167 2.094222069
19.65933418 41.7331543 0.4567952752
19.50008011 41.26696014 2.082859278
19.79158974 41.63470459 0.449475199
19.60476112 41.1243248 2.073839188
19.64380074 41.05070877 0.4500330389
19.75682068 41.06450653 2.066859245
19.9001503 41.17024994 0.4392775297
19.81398582 40.84178925 2.056004524
19.94738007 40.92956924 0.4344328642
19.86989021 40.6191597 2.045219898
20.20266914 41.04378891 0.4236888885
20.00816345 40.53765488 2.037842274
20.49994469 41.22544861 0.4117171466
20.08869743 40.35955048 2.028222084
20.20622444 40.41774368 0.4167434871
20.21920204 40.2814064 2.021264315
20.54279518 40.67949295 0.4038158953
20.25876427 40.03800201 2.010220528
20.61159325 40.48089218 0.3984649181
20.23533821 39.69416809 1.996928573
20.41971016 39.69138336 1.991575241
20.67436409 39.96808243 0.3900470138
20.47876167 39.48566818 1.981592655
20.57805252 39.34610748 1.97317481
20.68599892 39.23589706 1.965723395
20.77545738 39.0823555 1.957074523
20.94702721 39.07265091 1.951940775
20.98871994 38.86059189 1.9423244
21.062006 38.68463898 1.933309317
21.70940018 39.54638672 0.3375308514
21.18914604 38.59227753 1.926179647
21.29171181 38.46277237 1.918270707
21.59172058 38.78590012 0.3350494504
21.4446106 38.4095993 1.912054896
21.74202728 38.55741882 1.909929872
21.99174118 38.64503098 1.906735539
21.80614853 38.10422134 1.890426278
21.89075851 37.9642868 1.882724881
21.86756134 37.65518188 1.871266365
22.00006294 37.57326508 1.864632487
22.10298538 37.46257019 1.857673168
22.18758965 37.31280136 1.849698663
22.27904892 37.18693542 1.842499614
22.38274956 37.07875443 1.835696101
22.51101303 36.99171448 1.829110622
22.6272316 36.88803482 1.822218299
22.73714638 36.77591705 1.815189481
22.8560791 36.67634201 1.808443308
22.98297691 36.58761978 1.801940799
23.11197472 36.50164795 1.795519114
23.25374222 36.44542694 1.789937615
23.35933685 36.32819748 1.782961488
23.48263359 36.2345047 1.776471019
23.6019516 36.13562775 1.769910097
23.74539375 36.08060837 1.764439821
23.8875103 36.01079178 1.758476138
24.05912209 35.97816467 1.753226399
24.1563797 35.85065842 1.746234536
24.28923225 35.76826096 1.740107179
24.61587143 35.92708588 1.738401055
24.83960915 35.95497131 1.734286308
24.68634033 35.51804733 1.721818209
24.80173683 35.41353226 1.715394616
24.95368195 35.35335541 1.709785819
25.07526207 35.26829529 1.703984022
25.19999504 35.17475128 1.697832584
25.44607162 35.23713303 1.69463253
25.96052551 34.88723373 1.670944452
26.33464622 34.82628632 1.660798788
26.70726013 35.00966644 1.659358978
27.17882538 34.608181 1.635555148
27.13396454 34.32424164 1.626668572
27.25025749 34.21737671 1.620624423
27.43389893 34.19459152 1.616129398
27.86126328 34.41964722 1.615232944
27.77766609 34.09771729 1.605941892
27.82847214 33.9204216 1.598920941
28.23950195 33.8902359 1.58983624
29.1391201 34.58961868 1.59581542
28.82600021 34.04620743 1.583700538
28.75355148 33.74223328 1.574969888
28.85795975 33.61976242 1.568920612
29.02400589 33.55931473 1.563783646
29.17303276 33.4811554 1.55841279
29.37590218 33.45582962 1.553798795
29.53764153 33.38881683 1.548615217
29.81955147 33.44983673 1.54541266
29.97019005 33.3812027 1.540436268
30.50229454 33.46333694 1.533452749
31.62842751 33.82189178 1.524860024
31.6228981 33.58761597 1.517553329
31.40783501 32.93648529 1.50083518
31.58760452 32.88817215 1.496244073
32.179245 33.20064926 1.495875239
32.04172897 32.85155487 1.487401485
32.15435791 32.72890091 1.481732845
32.34139252 32.67217636 1.476876497
32.57049561 32.65153885 1.47245574
32.83000183 32.65600967 1.46832943
33.23884964 32.57566833 1.459261894
33.36479187 32.47213364 1.454133034
33.59799576 32.4484787 1.449705362
33.84524536 32.43518066 1.445394397
34.08889008 32.42838669 1.441362262
34.3590126 32.44207764 1.43754828
34.47487259 32.31510544 1.43203187
34.69384766 32.27275848 1.427428603
31.85811043 29.69252205 6.194386959
34.9439888 32.25454712 1.423081279
31.76342583 29.41264343 6.161360741
35.12141418 32.17581177 1.418119669
35.35174942 32.13883591 1.413594007
34.17337036 31.01108932 4.774661064
32.11659622 29.29202271 6.17348671
35.57685852 32.10743332 1.409336448
31.50906181 28.61962509 6.069206238
35.85149384 32.10282898 1.405137539
34.14946747 30.58698082 4.743106842
36.05113983 32.03730011 1.40034759
34.31860352 30.50792503 4.744249344
36.30210876 32.02203751 1.396256208
33.38926315 29.65930748 3.006785393
32.79027557 29.108675 4.58251667
36.53987503 31.98374748 1.391740561
34.20313263 30.00785637 4.703965664
36.78894043 31.95273209 1.387297392
34.30429459 29.87698174 4.698866367
32.01331711 28.04047585 6.049750328
37.05097961 31.93008041 1.382933736
32.26597977 28.03766441 6.066993713
37.31813049 31.9095974 1.378589988
32.12307739 27.804636 4.463127613
37.56965637 31.87559891 1.374126792
37.8736763 31.8905735 1.3703022
36.41122818 30.70804214 3.099066973
33.04722214 28.11589813 4.523507595
38.10660934 31.83932495 1.365691185
31.79532623 27.06982994 2.858699083
38.38795853 31.8224659 1.361378193
31.8366909 26.9199791 2.852129221
38.61646271 31.76501083 1.356725812
33.70560837 27.86967278 7.784403801
38.91299438 31.75574303 1.352477431
31.37018013 26.20422745 2.811335087
32.93025208 27.25974846 4.459898949
33.90209961 27.81512642 7.798125744
39.19861984 31.73658371 1.348145247
31.51651192 26.12493134 2.809783697
32.95381927 27.0844059 4.449064255
39.42074966 31.68133926 1.343734622
33.68499374 27.27013969 7.716973782
39.78307724 31.72474861 1.340100765
37.73219299 30.17976189 3.093532801
40.00456619 31.65456009 1.335368991
31.12022018 25.17231178 5.729947567
33.6153183 26.85562134 7.665267467
40.29483414 31.63147163 1.331003666
31.96082115 25.72130013 2.797845125
31.26002693 25.09100914 5.733137608
40.58340836 31.61668396 1.326907992
33.95814133 26.71114349 7.684956551
40.84481049 31.56983757 1.322366476
32.20202255 25.5218277 2.792548895
41.15054703 31.56328201 1.318326712
32.31630325 25.42638397 2.79006052
41.43892288 31.53142548 1.313894033
32.29906845 25.23208427 2.781012535
32.47065735 25.15739059 7.367822647
41.76737976 31.52482986 1.309634566
31.77672958 24.5714283 5.727151871
33.73375702 25.81283379 7.567469597
42.00997925 31.45835114 1.304966927
30.90877533 23.88196945 4.147229671
31.6107254 24.28391838 5.690618992
33.89838791 25.74538612 7.577672958
42.33921432 31.44820976 1.300678492
30.95703316 23.74155998 4.140485764
31.11141205 23.77856064 5.610933304
34.14992142 25.72511864 7.601937771
42.7456665 31.48690414 1.296697736
30.85308647 23.50133705 4.12044096
31.15761757 23.63686752 5.602679729
43.09609222 31.48580933 1.292446733
31.31323814 23.56672287 5.608701706
43.44539642 31.48155403 1.288166881
31.79645348 23.77232361 4.181381702
31.44540024 23.48065948 5.611711979
43.75631332 31.46174431 1.283998132
31.73834038 23.56129837 4.165491581
31.56342506 23.39357948 5.613635063
44.05441666 31.42004395 1.27948308
35.85795593 26.08868217 2.879392862
32.50245285 23.885149 4.221570015
31.5006485 23.18242073 5.591701984
44.43714905 31.43035316 1.275267839
35.85171127 25.9017601 2.871271133
32.7878685 23.89037895 4.235398293
31.40992546 22.95496941 5.566383362
44.82052994 31.43836403 1.271025896
36.2682457 25.97265816 2.881766081
31.4427166 22.80657578 5.55702734
33.09129715 23.78391647 7.293828487
36.20311356 25.80865288 1.236167312
36.41297531 25.87028122 2.880051613
31.59265327 22.73991585 5.563351154
36.2489357 25.64478874 1.231779933
36.47256088 25.71451378 2.874584436
31.82830048 22.77850723 4.121759892
31.53990746 22.53894997 5.543321609
36.39870071 25.55512238 1.227988362
36.15633392 25.33701134 2.852965832
31.83631325 22.61407089 4.1122365
33.63519669 23.6000576 7.334563732
36.12870026 25.13018417 2.843852043
31.98290062 22.54321289 4.115091324
32.80051804 22.97988319 5.67666769
38.62458801 26.46537781 2.945794582
31.39933777 22.02133369 4.055623055
33.32029724 23.06767654 7.248880386
38.55931091 26.22597504 2.934728861
31.7497406 22.06650734 4.075421333
47.60140991 31.51390648 1.241696358
38.06394577 25.73109055 2.905095577
31.60732079 21.8154583 4.053663254
33.36133957 22.74625397 7.222709656
47.98631287 31.50117111 1.237246394
38.27400208 25.65980148 2.906238556
31.61452675 21.6631012 4.045111179
32.54256058 22.10120964 7.071601868
48.50267029 31.5633564 1.233112693
38.45907974 25.5824852 2.906705618
32.55824661 21.93447685 7.057664871
48.69050217 31.41729736 1.227851987
38.54909134 25.42914963 2.902323246
32.37781525 21.65488434 7.011575699
49.01452255 31.36168289 1.22320652
39.50011063 25.77385902 2.934734106
