# .PCD v0.7 - Point Cloud Data file format
VERSION 0.7
FIELDS x y z
SIZE 4 4 4
TYPE F F F
COUNT 1 1 1
WIDTH 1273
HEIGHT 1
VIEWPOINT 0 0 0 1 0 0 0
POINTS 1273
DATA ascii
84.27166748 -17.21164894 1.851175904
82.34524536 -16.76970673 4.756238937
84.50452423 -17.56277847 1.864812732
82.26937103 -17.05282402 4.764993668
82.54510498 -17.40618896 4.790853024
86.58977509 -18.84396172 5.01351881
87.29586029 -19.38212776 1.944942236
85.15396118 -18.85646248 4.956592083
84.00495148 -18.99189186 1.912115097
84.90673828 -19.11386299 4.957670212
84.08102417 -19.24377441 4.930246353
83.87643433 -19.57749748 1.932069421
83.59872437 -19.44420052 4.919608593
83.77162933 -19.86115074 1.941516519
83.50967407 -19.73032379 4.928397179
83.93535614 -20.22164917 1.955251575
83.59078979 -20.44967079 1.961385131
83.39918518 -20.33309555 4.950157642
83.09002686 -20.6384697 1.965247393
82.96453094 -20.52191353 4.941128731
82.47168732 -20.70931244 4.92977953
82.09111023 -20.92104149 4.924006939
82.30376434 -21.34874725 1.986154675
81.96601105 -21.1937294 4.931102753
81.85552216 -21.46964264 4.93897295
82.57342529 -22.02849579 2.012065411
81.84087372 -21.7697506 4.951762676
82.82041168 -22.39978027 2.026808262
81.654953 -22.02594185 4.955881596
81.90933228 -22.46858788 2.024174452
81.89717102 -22.39369011 4.981945038
81.72145081 -22.73950768 2.032899141
82.29997253 -22.82187843 5.017113686
81.47862244 -22.9794693 2.040217876
82.89361572 -23.2899704 5.061653137
81.41639709 -23.26775551 2.050308704
82.26353455 -23.42799568 5.043170929
81.45331573 -23.58381844 2.061975002
82.1493454 -23.70500946 5.051327229
82.23417664 -24.0378418 5.069894314
82.07950592 -24.30359268 5.07605648
84.41828156 -25.38018036 2.143679857
82.03141785 -24.59962845 5.08783865
84.41712952 -25.68346024 2.154742956
83.52976227 -25.6492691 5.195007324
83.7546463 -26.68836021 5.252429485
84.01708221 -27.16617203 2.206946373
83.83911896 -27.03493309 5.272063255
84.16499329 -27.53510475 2.221335888
84.22286224 -27.89319611 2.234862089
84.78300476 -27.99582481 5.354196548
83.71443939 -27.9765892 5.312022686
83.17614746 -28.52096748 2.252538681
83.96997833 -28.70781898 5.356961727
83.28862762 -28.80501556 5.335463047
82.56455994 -28.95894051 2.265594959
83.99234009 -29.36702919 5.389688492
83.65016937 -29.57682037 5.386773109
82.21811676 -29.78845978 2.294737339
83.38054657 -30.11977196 5.402991295
82.19205475 -30.10181808 2.306330204
83.51857758 -30.49566841 5.426717758
81.77170563 -30.59665489 2.32272768
83.11560822 -31.00726128 5.436642647
81.39336395 -30.78110313 2.327725649
82.63446045 -31.15953255 5.425936222
81.30194855 -31.08593559 2.33873868
81.64976501 -31.13861275 5.387580395
81.7286911 -31.50877571 5.409069538
80.7097168 -31.52461815 2.352297306
81.97207642 -31.92642403 5.439209938
81.05033875 -31.97773361 2.37115407
82.80108643 -32.55430222 5.502062798
80.3649292 -32.02082443 2.369352341
80.33392334 -32.33156586 2.380987883
82.56420135 -33.10927963 5.521224499
80.56389618 -32.72985077 2.397264957
82.29846191 -33.3368721 5.522826672
58.90452576 -24.42283058 1.974017859
82.90584564 -33.92762756 5.575695038
58.85164261 -24.64012527 1.982039571
80.93756866 -34.20710373 2.455444574
86.86349487 -37.66483307 5.915779591
87.43196106 -38.26567841 5.968150139
87.47285461 -38.64466095 5.989508152
85.71383667 -39.29537201 5.959327221
85.26105499 -39.80918121 5.970198631
17.13954353 -8.876903534 0.5160823464
16.93286896 -8.856315613 0.521186173
16.80384636 -8.867386818 0.5249474645
83.99087524 -40.39875793 2.709125042
84.1860733 -40.40649033 5.963288307
16.70964813 -8.897820473 0.528229177
16.62944984 -8.930865288 0.5311909914
16.51866531 -8.948561668 0.534606576
81.72529602 -40.40069962 2.699054718
82.65129089 -40.76501083 5.927419186
16.4671917 -8.994672775 0.5370984674
82.80922699 -41.1979332 5.956702232
16.35825729 -9.012112617 0.5404501557
81.12792206 -40.81270599 2.712596893
83.49926758 -41.89471817 6.019529819
16.28160286 -9.044986725 0.5432966948
16.26026154 -9.105355263 0.5453054309
80.8720932 -41.3901329 2.734218121
82.40623474 -42.07429886 5.990407467
16.22622108 -9.1593256 0.5474996567
80.78010559 -41.6972084 2.745937109
16.16887665 -9.201277733 0.5500310659
80.54084778 -41.92971039 2.754097223
82.89187622 -43.04240036 6.061182022
16.09545135 -9.234664917 0.5527875423
83.30168915 -43.61723328 6.107607365
16.06099319 -9.287986755 0.5549659729
81.07238007 -42.91556168 2.795387268
83.1374054 -43.89997482 6.117557526
16.0422802 -9.349571228 0.5569136143
84.32469177 -44.88770676 6.214549541
16.02509689 -9.412065506 0.5588377118
81.92656708 -44.0860405 2.845436573
16.0059166 -9.473590851 0.560788691
15.9970541 -9.540794373 0.5625931621
15.99845886 -9.613770485 0.5642546415
15.98574638 -9.682922363 0.5661990047
15.90871334 -9.931819916 0.5739899874
87.46622467 -50.19335175 3.111985683
15.82159138 -9.955493927 0.5768386126
86.85887146 -50.25115967 3.111933708
15.77449131 -10.00539875 0.579226315
86.32778931 -51.96178436 3.178964138
15.96249485 -10.63721371 0.5886180997
15.94378185 -10.70610809 0.5906569958
15.93840504 -10.77958679 0.5924457312
15.92252541 -10.84679508 0.5943644643
15.91145229 -10.917202 0.5962252021
67.32761383 -42.99298477 2.744966745
15.92702579 -11.00864983 0.5978565216
66.53000641 -42.83412552 2.735674381
15.92539501 -11.08569908 0.5996110439
66.32907867 -43.0316124 2.743064404
15.92856026 -11.1622591 0.6012262702
66.30271912 -43.34030151 2.755630255
15.92455864 -11.23846722 0.6030158997
66.235466 -43.60736465 2.766364813
15.91687202 -11.31258106 0.6048508286
66.43122101 -44.06250763 2.785732508
15.91722202 -11.39225483 0.6065961123
15.92719173 -11.47871113 0.6082376838
15.92346191 -11.55645943 0.6100379825
15.92103577 -11.63543415 0.6118274927
15.91494274 -11.71227455 0.6136606932
15.92006493 -11.79710102 0.6153752804
82.85591888 -57.23504639 3.38301754
15.92807484 -11.88437271 0.617064774
15.93568134 -11.97181702 0.6187641621
82.39774323 -57.7684288 3.403713942
15.92452526 -12.05078125 0.6207566261
82.21813202 -58.09030914 3.416540146
15.92608643 -12.13902187 0.6226192117
15.93244934 -12.22696018 0.6243482828
15.94814873 -12.32206631 0.6259889603
15.95688534 -12.41274643 0.6277080774
15.95709801 -12.49773979 0.6295182705
15.96981525 -12.59233379 0.6312112808
81.97090149 -60.52476883 3.517419815
16.00460625 -12.70376301 0.6326983571
81.76208496 -60.81029129 3.528797865
45.49551392 -34.95523453 0.3579674065
45.41614914 -35.39286041 0.3691987991
45.45446396 -35.67259216 0.3741132021
45.48817444 -35.9506073 0.3790951967
66.12792206 -51.9016304 3.111879349
66.06617737 -52.22267151 3.125304937
65.36806488 -52.78675461 3.147513151
80.84185791 -66.92899323 3.785329819
80.59779358 -67.69657135 3.817576647
80.51743317 -68.10531616 3.834891558
30.47526932 -26.85907364 0.5649324059
81.33982086 -69.76054382 3.907532215
30.25704384 -26.85586357 0.5702266693
30.08308983 -26.88936996 0.5751689672
30.37300873 -26.98051643 1.968333721
29.97717285 -26.98105049 0.5796101689
30.22425461 -27.03657722 1.970456243
30.28769493 -27.05207634 3.371943712
30.40902328 -27.1078167 4.790603161
30.48019218 -27.12901688 6.220208168
29.92364311 -27.11842346 0.5836818218
30.12516975 -27.14443207 1.974912524
30.17491531 -27.13913918 3.37450099
30.23722267 -27.15362167 4.785268307
30.30242348 -27.17016029 6.210344791
30.3727932 -27.18120384 7.652981758
30.5002346 -27.24998665 9.134169579
29.93999481 -27.31794357 0.5872873068
30.07998276 -27.28100204 1.980715513
30.11144638 -27.26912308 3.381314278
30.12403297 -27.24045944 4.786847591
30.21314049 -27.26893234 6.214229107
30.24896812 -27.25953102 7.650279999
30.28478813 -27.24008369 9.103448868
30.47396469 -27.31883621 12.12759018
40.69746017 -37.06243515 0.5203855038
30.11330032 -27.45706367 3.393829823
30.10785294 -27.40312767 4.800541878
30.1456871 -27.39619827 6.223157883
30.1738472 -27.38024139 7.658698082
30.18149567 -27.33620834 9.104979515
30.26537895 -27.36740685 10.59702492
30.30640793 -27.35996056 12.1043663
40.41011429 -37.06018448 0.5273281932
30.1647377 -27.55947495 7.682308197
30.1336956 -27.48117638 9.121936798
30.18928528 -27.48784637 10.60709095
30.21700478 -27.4689045 12.11036968
40.10544586 -37.04031372 0.5343285799
30.23389244 -27.67196083 12.15647793
39.82327271 -37.05121231 0.5413839817
66.05534363 -60.50253296 3.479959726
39.58031464 -37.08333969 0.5478992462
65.63504028 -60.56116867 3.481805086
46.46554565 -45.52363968 0.5483989716
82.65213776 -80.93904114 4.394242764
83.54334259 -83.45675659 4.505653858
65.46203613 -69.2579422 0.5562716126
65.39135742 -69.6627121 0.5655984282
65.24617004 -70.01521301 0.5756510496
66.06873322 -78.16828918 0.70846802
63.9959259 -94.72901917 1.047143579
46.36674881 -79.09107971 1.147770405
28.80944061 -67.40843201 1.298424363
26.0646019 -78.38213348 1.514273643
25.93795395 -78.90525055 1.524269581
20.28911018 -114.283165 2.129928112
19.88289452 -114.2941055 2.135904789
19.45441055 -114.2912216 2.141974926
17.73135567 -106.4576111 2.053789377
17.35449409 -106.467453 2.059260368
16.97260094 -106.4443893 2.064306974
16.57457542 -106.4346695 2.069747686
16.19764137 -106.4364548 2.075034857
15.82148552 -106.4408569 2.080325842
15.4443903 -106.435997 2.085474491
14.71365929 -106.4513626 2.095741272
9.072149277 -106.1527405 2.16615963
5.551091671 -90.97303772 1.995142937
4.282640934 -91.48648834 2.017925262
2.011649847 -105.9545746 2.249475241
1.643853068 -105.8889084 2.252807379
1.277221084 -105.8779526 2.256876945
-44.16074371 30.59484482 0.6060643196
-44.07149506 30.74694443 0.5995016694
-43.9756546 30.88339615 0.5933704972
-43.90893173 31.0635128 0.5860606432
-43.84941483 31.24954796 0.5786042213
-43.8310585 31.45631218 0.5709478259
-43.79167175 31.6368866 0.5639039874
-43.7556572 31.83185196 0.5563593507
-43.72125626 32.04006195 0.5483250022
-43.71182632 32.25741959 0.5402837992
-43.69271851 32.45697403 0.5327200294
-43.67890549 32.68437576 0.5241823196
-43.64833069 32.89963531 0.5158078074
-43.63948059 33.12187576 0.5074636936
-43.63423538 33.34821701 0.4989894629
-43.59998703 33.55217743 0.4908764064
-43.58644867 33.77404785 0.4823773801
-43.61347961 34.03059769 0.4731666744
-43.60231781 34.25704575 0.4644661844
-22.32521439 33.70559692 2.675178289
-22.18113327 33.71920776 2.666029453
-50.61227417 84.37260437 1.704836011
-22.04128838 33.75286865 2.657382965
-50.27223206 84.44915009 1.687281489
-49.88368225 84.43691254 1.669138789
-49.38479233 84.25579834 1.649039984
-49.0940094 84.41531372 1.632139683
-48.72199631 84.3900528 1.614974618
2.610699654 52.8103714 1.45512414
2.792296171 52.79477692 1.445157051
2.976084232 52.79641724 1.435310245
3.157935143 52.78153229 1.425361037
3.341317654 52.77790451 1.415488958
3.527975798 52.79740524 1.405756593
16.17672729 77.14180756 1.058609843
12.43255806 55.12768936 2.947703362
12.64081383 55.1373291 2.939601898
12.84587193 55.13469696 2.931101561
25.64396477 47.1658783 2.146059275
26.04653168 47.0883522 2.131774664
17.59251022 28.86715889 0.4178414047
17.6656723 28.76150131 0.4135006368
53.85039902 71.46231842 2.369782209
53.89326859 71.01465607 2.352490187
53.83196259 70.44410706 2.333141804
53.82104111 69.93946838 2.315107822
53.90252304 69.08979034 2.282667398
35.70885468 46.82387924 1.884425998
53.74300766 66.56794739 2.196250677
53.77542877 66.16781616 2.181439638
53.74441147 64.3276062 2.117703438
53.78464508 63.95140076 2.1038239
53.76914215 63.49482727 2.08836031
53.77283859 63.08440018 2.074147463
53.71720505 62.59135056 2.058351278
53.74348068 62.1900444 2.044098139
53.73476028 61.75435638 2.029426336
53.71820831 61.31365967 2.014793634
40.36807632 46.5763092 1.779691458
53.71459961 56.90986252 1.868638515
53.813694 56.63659668 1.857961059
53.71987534 56.1587944 1.84423244
55.17863083 47.21175003 1.548879266
54.96500015 46.71345901 1.537940741
55.07216644 46.48531723 1.529978514
55.05503464 46.16156769 1.521178484
55.46156693 44.87248611 1.479981303
55.5726738 44.63586807 1.472044706
55.56680298 44.31370544 1.463447571
55.85982513 42.97175217 1.423986197
56.3690567 41.23630524 1.373054981
56.51592636 41.03190613 1.36613214
56.78750992 40.60829163 1.352326393
57.43887711 39.26468658 1.312157869
57.35848618 38.91859436 1.304885864
57.6427002 38.52096939 1.292363167
57.73961639 38.3016777 1.286194205
57.88021088 38.10911179 1.280200481
57.99238586 37.88468933 1.273830533
59.5008812 35.89121628 1.214116812
59.69251633 35.71004868 1.208371401
59.86258698 35.51648712 1.202623844
60.03663635 35.33892441 1.197216153
60.22781372 35.17006302 1.191863894
60.93100357 34.69891357 1.175550818
61.80043411 34.01686478 1.153986096
62.08699036 33.87533188 1.148646593
62.27669525 33.68402481 1.143261075
62.55911255 33.53786469 1.137963176
62.78893661 33.37880707 1.132928252
63.02406311 33.2069931 1.127651572
63.31087494 33.07334137 1.122684717
66.28191376 31.8905983 1.077106476
66.52497864 31.70679855 1.072065711
67.19707489 31.4160862 1.061974764
28.26016235 14.09994698 1.07463944
28.2046032 12.44722462 1.050486803
73.73376465 23.77388382 0.9150674343
32.16561508 6.040372372 2.23458147
99.50561523 15.43016911 0.7419272065
32.25566864 5.932783604 2.236464977
59.83955765 6.968539238 0.8741562366
45.67191696 5.446857452 0.9245535731
45.73095703 5.260685921 2.649961233
45.72518539 5.096251488 2.649226189
45.70890045 4.931083202 2.64820838
45.72394943 4.768584251 2.648223162
64.49038696 5.31482935 0.8575515151
30.05448151 -3.842318058 2.206495285
30.05355835 -3.961310625 2.208441496
30.05616951 -4.080943108 2.210542679
5.188612461 -84.07807922 2.464238405
-5.105303764 -96.76189423 3.306438446
-5.445720673 -96.75527954 3.325413704
-5.29151392 -96.85488129 6.742947578
-5.11883831 -96.92840576 10.17762756
-5.786067963 -96.74746704 3.34438014
-5.631697178 -96.81900024 6.76031971
-6.145353317 -96.80993652 3.365956545
-5.990764141 -96.86527252 6.783493042
-5.81795454 -96.9107132 10.21657944
-6.483687878 -96.72774506 3.383240461
-6.326383591 -96.67527008 6.791996956
-6.158987045 -96.90026093 10.23557281
-6.823981285 -96.71630096 3.40218854
-6.672584057 -96.85128784 6.821914673
-7.012069225 -96.80261993 6.838774681
-6.84088707 -96.87579346 10.27353573
-7.504389286 -96.68985748 3.4400599
-7.352618217 -96.78866577 6.857726574
-7.181744576 -96.86177063 10.29250526
-7.847697258 -96.74675751 3.460721016
-7.69419384 -96.79746246 6.878088951
-7.522552013 -96.84654999 10.31146622
-8.191500664 -96.80243683 3.481404781
-8.02898407 -96.6574707 6.889691353
-7.863344669 -96.83013916 10.33042145
-8.376192093 -96.78353119 6.917150021
-8.854587555 -96.7514267 3.517926693
-8.698210716 -96.73786163 6.933466911
-8.532809258 -96.89415741 10.37679005
-9.194898605 -96.73169708 3.536841154
-9.040561676 -96.75389099 6.95453167
-8.875248909 -96.9020462 10.39838314
-9.536179543 -96.72674561 3.556151152
-9.382902145 -96.76473236 6.975364685
-9.214606285 -96.85308075 10.41467762
-9.880055428 -96.76049805 3.576467514
-9.726362228 -96.79030609 6.997160435
-9.574136734 -96.85742188 10.43721008
-10.23745728 -96.7359848 3.596315861
-10.08710289 -96.81347656 7.019911766
-9.919659615 -96.90536499 10.46298313
-10.57771206 -96.71142578 3.615206957
-10.42489529 -96.74893951 7.036401272
-10.26060677 -96.88058472 10.48191261
-10.92333603 -96.75744629 3.635951996
-10.76470089 -96.71508789 7.05480814
-10.60146046 -96.85459137 10.50083065
-11.25800228 -96.65873718 3.652961731
-11.11113167 -96.76763153 7.078560829
-10.94227123 -96.8274231 10.51974201
-7.153956413 -41.23233414 0.7411916256
-11.43549061 -96.75273132 7.097233772
-11.29088974 -96.89827728 10.54822922
-11.93330383 -96.74620056 3.693542242
-11.77960205 -96.76706696 7.118809223
-11.62355518 -96.76950073 10.5575304
-7.294458866 -39.57318497 0.7707523108
-12.27859879 -96.77146912 3.713902235
-12.12492561 -96.79212189 7.141126633
-11.95316792 -96.81171417 10.58239174
-12.61900806 -96.73976135 3.732771873
-12.46614361 -96.76824188 7.160493851
-12.322299 -96.90507507 10.61456203
-7.523927212 -39.02453995 0.7904231548
-12.97627735 -96.7052002 3.752570868
-12.80848694 -96.75508881 7.180597305
-12.66322994 -96.87187958 10.63345528
-7.656829834 -38.95065308 0.798581481
-13.30899715 -96.76828766 3.773086548
-13.15320873 -96.76456451 7.202186584
-13.00409031 -96.83748627 10.65233898
-7.792462349 -38.90615845 0.8064908385
-13.64484406 -96.6892395 3.790734053
-13.49359894 -96.72914124 7.221039772
-13.33093929 -96.83541107 10.67336941
-7.931819916 -38.89697647 0.8141267896
-13.99265289 -96.72431183 3.811555147
-13.83764172 -96.72825623 7.242128849
-13.67249584 -96.80660248 10.69301224
-8.071870804 -38.89326477 0.8217194676
-14.32976055 -96.65880585 3.829609632
-14.18489838 -96.7539444 7.264975548
-14.0220232 -96.85181427 10.72004604
-8.213359833 -38.90097427 0.829230547
-14.52842426 -96.74267578 7.285572529
-14.3824358 -96.83442688 10.7421875
-8.353969574 -38.90023804 0.8367969394
-15.03828144 -96.67712402 3.870985746
-14.87334919 -96.74208832 7.306921482
-14.72906303 -96.8454361 10.76612282
-8.496126175 -38.91091156 0.8442878723
-15.37679958 -96.76487732 3.892487526
-15.2193594 -96.74821472 7.328778744
-15.07585716 -96.85521698 10.79006195
-8.645343781 -38.97463226 0.8514510989
-15.7261095 -96.79375458 3.913366556
-15.56559849 -96.75309753 7.350642681
-15.39336014 -96.76319122 10.80286121
-8.798729897 -39.06555176 0.8584715724
-16.06653595 -96.75000763 3.932186604
-15.90694046 -96.71716309 7.369966507
-15.76071262 -96.79602051 10.8304882
-16.4238205 -96.70278931 3.951933384
-16.27145195 -96.72523499 7.393283367
-16.11652565 -96.86923981 10.86113262
-16.77367401 -96.7279129 3.972826958
-16.61540413 -96.70659637 7.413873672
-16.47439384 -96.82041168 10.88090515
-17.08692551 -96.61161041 3.988567829
-16.9478302 -96.72869873 7.436087132
-16.78095627 -96.77752686 10.89783859
-17.28867912 -96.68395233 7.455136299
-17.13521576 -96.82728577 10.92655087
-17.79533958 -96.71121216 4.032026291
-17.63906288 -96.70516968 7.47855854
-17.48994827 -96.87576294 10.95528603
-17.99098778 -96.7330246 7.502514362
-17.83079529 -96.82448578 10.97409821
-18.47546196 -96.60804749 4.069560528
-18.33424187 -96.70041656 7.522587776
-18.1794014 -96.82516479 10.9982748
-18.83508873 -96.68107605 4.092178822
-18.67933273 -96.67842102 7.543437004
-18.54012299 -96.78843689 11.02000332
-10.11447144 -39.27476501 0.9258039594
-19.20358658 -96.6947403 4.11406517
-19.03444862 -96.71828461 7.568459034
-18.89238548 -96.80819702 11.04638481
-19.52669525 -96.64164734 4.131879807
-19.38297844 -96.71350861 7.590620995
-19.24117279 -96.80310059 11.07037258
-10.4004364 -39.26322174 0.9410896301
-19.87584114 -96.63980865 4.152340889
-19.73563957 -96.73108673 7.614364624
-19.56473732 -96.74859619 11.08820629
-10.54348755 -39.25668335 0.948733151
-20.24003792 -96.72341919 4.17553854
-20.08189774 -96.70806122 7.635484219
-19.93865585 -96.78521729 11.11796188
-20.59724426 -96.66087341 4.195217133
-20.44797516 -96.69650269 7.658596516
-20.29598427 -96.82343292 11.14679813
-10.82949066 -39.20146179 0.9645371437
-20.93718338 -96.60009003 4.213938713
-20.79580116 -96.67879486 7.680245876
-20.63659286 -96.76235962 11.16555595
-10.96953678 -39.21632767 0.9717179537
-21.28986931 -96.60890961 4.234921932
-21.13157654 -96.69049072 7.702812195
-20.98614502 -96.75099182 11.18956089
-21.63601875 -96.67467499 4.256757736
-21.48472786 -96.69779968 7.726331234
-21.35295296 -96.83233643 11.22329712
-21.97599983 -96.61026001 4.275466442
-21.8315239 -96.66854095 7.747454166
-21.67656136 -96.77082825 11.24110413
-22.35705757 -96.66694641 4.299212933
-22.20505524 -96.68567657 7.772990704
-22.03403664 -96.70157623 11.26076889
-22.72791862 -96.66724396 4.321175098
-22.55664062 -96.67733765 7.795727253
-22.42904663 -96.82635498 11.30080128
-23.05092049 -96.60243988 4.338934422
-22.89213181 -96.67510986 7.817800522
-22.7526722 -96.76125336 11.31859398
-23.24328423 -96.6603775 7.840276718
-23.09012413 -96.76531219 11.34373379
-15.78325367 -57.16081619 0.9915181994
-23.75383186 -96.6618042 4.381917477
-23.60499763 -96.69519806 7.866275787
-23.45603561 -96.81919861 11.37555885
-24.1144104 -96.68777466 4.403902531
-23.94836426 -96.63884735 7.886045933
-23.79620361 -96.74510193 11.394063
-24.30828285 -96.65933228 7.911254883
-24.17994308 -96.79262543 11.42685699
-9.9083395 -27.87707901 1.062925339
-24.83256531 -96.63430786 4.445516109
-24.68386459 -96.66693115 7.936865807
-24.53549767 -96.78796387 11.4529705
-25.17238617 -96.55871582 4.464169025
-25.03594589 -96.64572906 7.959366322
-24.89302254 -96.70821381 11.47259426
-25.55606461 -96.67690277 4.48957777
-25.37109566 -96.62714386 7.980932713
-25.23781776 -96.73200989 11.50067043
-25.87904358 -96.60272217 4.507296562
-25.73577118 -96.65792847 8.007289886
-25.60008049 -96.75063324 11.52969933
-26.21879578 -96.52346039 4.525930882
-26.09017372 -96.64069366 8.030356407
-25.92339706 -96.67500305 11.54743099
-26.60430145 -96.63751984 4.551424026
-26.44925499 -96.64159393 8.054807663
-26.30760765 -96.70638275 11.57948494
-26.96115303 -96.55160522 4.57098484
-26.81423378 -96.66444397 8.080938339
-26.66619682 -96.70166779 11.60646629
-9.630028725 -23.79247284 1.100898981
-27.30742455 -96.56983948 4.592138767
-27.1692543 -96.64328003 8.10402298
-27.02965546 -96.71498871 11.63554096
-27.67106056 -96.58259583 4.614239216
-27.53019524 -96.64406586 8.128787041
-27.37647247 -96.73120117 11.66369724
-28.01073837 -96.49707794 4.632842541
-27.88755989 -96.62802887 8.152442932
-28.24305153 -96.60295868 8.175537109
-28.10535812 -96.75113678 11.72192764
-28.73921967 -96.51597595 4.677083492
-28.61766815 -96.6499939 8.203985214
-28.45843506 -96.71283722 11.74601555
-9.445052147 -21.24674034 0.3219534159
-9.566947937 -21.83646393 1.12257123
-29.12946129 -96.62002563 4.702799797
-28.96967888 -96.60681152 8.225970268
-28.82563019 -96.7271347 11.77600193
-9.500149727 -21.14503098 0.3290061653
-9.625775337 -21.73988342 1.126814008
-29.46925926 -96.52939606 4.72138834
-29.33911324 -96.62789917 8.252761841
-29.17602539 -96.67465973 11.79883385
-9.541838646 -20.99696159 0.3376322985
-29.84206772 -96.5610733 4.744569302
-29.69348335 -96.58979797 8.275320053
-9.57988739 -20.83924103 0.3465390205
-9.605546951 -21.0568943 1.134430647
-30.20067215 -96.53735352 4.76574707
-30.06668854 -96.61972046 8.302987099
-29.90778542 -96.6811142 11.8571682
-9.638113976 -20.74200439 0.3534707129
-9.654904366 -20.93922615 1.138441086
-30.59362602 -96.63557434 4.791590214
-30.4330864 -96.62128448 8.328689575
-9.705109596 -20.67728233 0.3592458665
-9.729293823 -20.89731789 1.142767668
-30.95044899 -96.53501129 4.811087608
-30.80713081 -96.58204651 8.352760315
-9.778022766 -20.6479969 0.3636127114
-31.17621422 -96.58850861 8.379051208
-9.849328041 -20.62722588 0.3675061762
-31.68458748 -96.53183746 4.85555172
-31.52762222 -96.59467316 8.404145241
-9.926600456 -20.61276817 0.3713398278
-31.89744949 -96.59841156 8.430466652
-10.00410843 -20.58543015 0.375761658
-32.41997528 -96.52316284 4.900062561
-32.28125 -96.58417511 8.456863403
-10.08421803 -20.57997131 0.3792672455
-32.83390808 -96.60729218 4.927017689
-32.64267349 -96.55445862 8.480898857
-10.16238213 -20.58110237 0.3823772371
-33.15666962 -96.50891876 4.944622993
-32.99761963 -96.56298828 8.506619453
-10.24123383 -20.58385277 0.3854275644
-33.34247589 -96.53588867 8.529740334
-10.31534958 -20.57107353 0.3889872432
-33.7098732 -96.57997894 8.558401108
-34.56272125 -99.85856628 12.51371479
-10.39937687 -20.56325912 0.3927015066
-34.11817169 -96.57220459 8.587242126
-10.48652077 -20.56462669 0.3961042464
-34.6154747 -96.46537018 5.03279686
-34.48316956 -96.54329681 8.611899376
-35.35963058 -99.81341553 12.57546902
-10.57252789 -20.57445908 0.3990595043
-35.03313828 -96.54019165 5.059921265
-34.8788147 -96.54922485 8.640719414
-35.77120972 -99.8888855 12.61621857
-10.66054535 -20.57702255 0.4024110436
-35.2517128 -96.54022217 8.667158127
-36.15719986 -99.82070923 12.64236927
-10.74492168 -20.5804863 0.4055632353
-35.79151154 -96.5005188 5.105585575
-35.63367081 -96.5562973 8.695676804
-36.55280304 -99.840065 12.677104
-10.82309723 -20.57732201 0.408760637
-36.11390305 -96.39231873 5.123128891
-36.00351715 -96.53305817 8.72125721
-10.90767574 -20.58014679 0.4119213223
-36.37746429 -96.51974487 8.747736931
-11.00597668 -20.6096611 0.4143871963
-36.92101669 -96.53913116 5.175791264
-36.76203537 -96.53520203 8.776608467
-37.7326889 -99.85866547 12.77796268
-11.09951878 -20.63628578 0.416785121
-11.15547752 -20.90699768 1.214695454
-37.1379509 -96.52275848 8.803411484
-38.11614609 -99.83047485 12.80797958
-11.19762802 -20.68645477 0.4182785451
-11.23946857 -20.90277672 1.218946815
-37.66571426 -96.49077606 5.220655441
-37.52344894 -96.53523254 8.832322121
-38.49972916 -99.80084229 12.83799744
-37.8973999 -96.51237488 8.858552933
-38.89902878 -99.86979675 12.87803364
-12.40349197 -23.5288372 0.3358414769
-38.41131592 -96.43675232 5.265546322
-38.27170181 -96.48805237 8.884796143
-12.40701008 -23.27645302 0.3473513722
-38.81845856 -96.50156403 5.292041302
-38.65979767 -96.49980927 8.914058685
-12.42143536 -23.05806541 0.3577254713
-39.22657013 -96.56468964 5.318583488
-39.04972458 -96.51379395 8.943641663
-40.08683395 -99.86096954 12.97922039
-12.43445969 -22.83986473 0.3680222631
-39.56612396 -96.43875122 5.33701086
-39.44850922 -96.54867554 8.975064278
-40.46263885 -99.79769897 13.00621891
-12.44605827 -22.62186241 0.3782401979
-39.82981491 -96.53338623 9.002575874
-40.85777283 -99.78524017 13.03939819
-12.4244442 -22.30921555 0.3914495111
-40.34005356 -96.4375 5.384963036
-40.21150208 -96.51659393 9.03010273
-41.2784462 -99.83821106 13.08056068
-12.44702053 -22.11629295 0.4009175301
-40.74176025 -96.42061615 5.409554005
-40.61045074 -96.4917984 9.058559418
-12.48038292 -21.96601868 0.4088600874
-41.16979218 -96.46916962 5.437147141
-41.02696609 -96.5100174 9.090693474
-42.08618164 -99.73970795 13.14269638
-12.48628712 -21.7488842 0.4187636077
-41.40249252 -96.47000122 9.116729736
-42.50870132 -99.78760529 13.18394184
-12.45508671 -21.44291115 0.4312560856
-41.9210968 -96.38838196 5.482244492
-41.78458023 -96.49467468 9.146759033
-12.49151421 -21.32059669 0.4380191267
-42.31705856 -96.44545746 5.508083344
-42.14964294 -96.47338104 9.173129082
-12.48940659 -21.10575485 0.4474851489
-42.52087402 -96.46556091 9.200737953
-12.47684097 -20.86898613 0.4575335085
-42.89702225 -96.46741486 9.229291916
-44.07961655 -99.7990799 13.32405853
-12.51629925 -20.7185688 0.4656060636
-43.35992432 -96.43645477 9.262760162
-44.55813599 -99.81690979 13.36830235
-12.53726673 -20.55815887 0.4734430611
-43.76154709 -96.44643402 9.293818474
-12.57286263 -20.43466187 0.4801547527
-44.13135147 -96.42516327 9.320872307
-12.60481262 -20.31459427 0.4865722358
-44.65590286 -96.34334564 5.652199268
-44.53701401 -96.43938446 9.352593422
-12.67391109 -20.27184486 0.4908795357
-44.94019699 -96.44458771 9.383717537
-46.17403793 -99.78160095 13.51073456
-12.73529243 -20.20162392 0.4961085618
-45.34864426 -96.45914459 9.415804863
-12.80714989 -20.16576958 0.5001793504
-45.75398254 -96.41704559 9.444755554
-12.89027023 -20.15523338 0.5035172701
-46.16503143 -96.43192291 9.477199554
-46.55255127 -96.39039612 9.504947662
-13.05084896 -20.12044334 0.5105532408
-46.9728241 -96.42014313 9.539016724
-47.38391495 -96.42637634 9.571216583
-17.89217758 -30.30979347 1.433352113
-47.78081131 -96.39820862 9.600592613
-17.91987038 -30.08530998 1.437313795
-48.19629669 -96.40830231 9.633473396
-13.41622734 -20.14125061 0.5220208168
-48.59736252 -96.38412476 9.663517952
-13.50580215 -20.14098549 0.5250281096
-48.99700165 -96.39884186 9.695533752
-49.42105484 -96.41828918 9.72977066
-49.80633545 -96.35318756 9.756666183
-13.7787571 -20.14513969 0.5338875651
-50.24010849 -96.38716888 9.792554855
-13.87589836 -20.15771866 0.5365324616
-50.66595078 -96.40138245 9.826869965
-39.22399521 -73.05132294 10.62109375
-13.98469639 -20.20214272 0.53817904
-18.07328987 -28.52931786 1.462713718
-51.07849503 -96.38512421 9.858636856
-14.10296059 -20.25495911 0.539760232
-18.10696411 -28.34051323 1.466494679
-51.4826889 -96.34928131 9.88880825
-39.28781891 -71.91177368 10.53259087
-18.06888962 -27.90428925 0.3414503634
-18.19977188 -28.27150917 1.471735954
-51.91021729 -96.35824585 9.923194885
-18.01015854 -27.54180336 0.3549998701
-18.32730103 -28.25843239 1.477996111
-52.3392868 -96.32470703 9.955602646
-18.44889832 -28.2456646 1.483961463
-52.75006866 -96.29441833 9.986793518
-18.58115387 -28.26521492 1.490062714
-40.66031265 -72.10657501 10.67985725
-18.08695221 -26.96912766 0.3817341924
-18.72341156 -28.29041862 1.496571302
-18.15132141 -26.8563633 0.3885242641
-18.87483025 -28.31938553 1.503467083
-18.26956367 -26.84587097 0.3926695883
-19.01126862 -28.33090019 1.509838223
-54.56170654 -96.4705658 10.14087009
-18.33969116 -26.74503326 0.3990975022
-19.16360283 -28.38335991 1.516499043
-18.43112564 -26.69588089 0.4039957821
-36.86209106 -59.90721893 2.004584312
-37.00498581 -59.64107513 2.014312983
-37.2060585 -59.50627136 2.025322676
-39.39294434 -63.9655571 4.672671318
-19.06462288 -26.68455505 0.4237959683
-36.96530533 -58.10403061 2.029432535
-37.14099503 -57.93477249 2.039579868
-18.0340786 -24.03984451 0.5023804903
-43.5700264 -65.34781647 4.969319344
-43.51182175 -65.43799591 7.686910629
-38.5446434 -53.96663284 2.147950649
-38.7443161 -53.85741806 2.158359766
-38.96544266 -53.7810173 2.169404745
-18.13595963 -21.10002899 0.6238635778
-38.46614456 -51.39864349 2.171128035
-38.52099228 -51.06779861 2.177068949
-18.34690094 -20.9028759 0.6372243166
-38.39860535 -50.49853134 2.17729187
-47.21366501 -64.29663849 10.71652603
-18.40654564 -20.83555222 0.6414250731
-38.31787872 -49.99677277 2.178724527
-47.41188431 -64.09924316 10.72222614
-18.50380516 -20.81481171 0.6447755694
-47.63816833 -63.96811676 10.73605347
-18.57139587 -20.75098419 0.6490153074
-47.97188568 -63.96918106 10.77144718
-18.66741753 -20.7278862 0.6523916125
-21.04684448 -24.18278313 1.649409652
-18.77961731 -20.72724724 0.6552974582
-21.07655907 -24.03964424 1.652216911
-48.58194351 -63.88196564 10.82957935
-18.90822792 -20.74889565 0.6577450037
-48.89417267 -63.84608841 10.8601265
-19.01298904 -20.72820091 0.6612001061
-21.07548904 -23.67234039 1.655862689
-43.43563461 -55.47777939 7.201048374
-49.25009537 -63.84612274 10.89815235
-19.12808228 -20.72920227 0.6640647054
-21.04413795 -23.44858551 1.656671166
-43.4028511 -55.01597214 7.176526546
-49.59070206 -63.84607697 10.93462372
-19.25137711 -20.74856567 0.6664156318
-19.41420937 -20.81297112 0.668017149
-43.44122314 -54.25008392 7.144010067
-19.61923409 -20.9328289 0.6685371399
-19.71551323 -20.90387535 0.6720082164
-51.95880508 -65.21808624 11.2928896
-20.67143822 -22.02205849 0.6531044245
-43.42325592 -53.02539062 7.085459232
-52.3494339 -65.26394653 11.33863068
-20.64194298 -21.80912781 0.6604205966
-52.70983124 -65.24188232 11.37611485
-20.79844856 -21.85120964 0.6626239419
-53.0592041 -65.22679901 11.41301346
-20.93841934 -21.87025452 0.6652754545
-43.3932991 -51.8002739 7.026237488
-21.01767159 -21.80942154 0.6694447398
-20.6685009 -21.19718933 0.6839764118
-43.39583588 -51.04468155 6.991764069
-20.69500923 -21.06500626 0.6895154119
-38.8338623 -44.35398102 2.258182049
-20.74544525 -20.97205353 0.6941431165
-39.04005814 -44.27598953 2.268212318
-43.40115738 -50.28782272 6.957649708
-20.85141563 -20.94947433 0.6974479556
-39.07932281 -44.00274277 2.272580624
-20.96241379 -20.93268585 0.7006385326
-24.20598793 -25.04546356 1.784171939
-43.38651657 -49.53744125 6.922238827
-21.08988571 -20.92787552 0.7037503719
-39.05575562 -43.33550644 2.277839661
-43.34620285 -49.12590408 6.90002346
-21.10408211 -20.79044533 0.7091041803
-39.14065933 -43.11005783 2.283767462
-43.37202454 -48.7828331 6.886818409
-21.14793015 -20.69032097 0.7137534618
-39.30900192 -43.0039444 2.292300701
-43.37472916 -48.43178177 6.87124157
-21.29423714 -20.71522331 0.7161540985
-39.55321121 -42.98988342 2.303357124
-43.34028625 -48.03805923 6.850476742
-47.4258728 -53.19512558 9.909861565
-21.40264893 -20.69317245 0.7193878293
-39.83597565 -43.02088165 2.315705538
-47.39570236 -52.77272034 9.876030922
-21.55726433 -20.7258873 0.7216561437
-40.10786819 -43.03660965 2.327697992
-39.627388 -42.84870911 6.286422253
-47.45648956 -52.4645462 9.860673904
-21.63251495 -20.66290092 0.7255930901
-40.00888443 -42.60829544 2.327230692
-39.81283951 -42.76132584 6.299134254
-47.38896179 -52.00392532 9.820057869
-21.70755577 -20.5996418 0.7295171022
-40.15513992 -42.47444534 2.334974289
-39.83696365 -42.4808197 6.288822651
-47.40271759 -51.64492416 9.795928955
-40.12857437 -42.13757324 2.336869478
-39.90326309 -42.25242615 6.284647942
-47.376194 -51.24094772 9.764123917
-40.10919189 -41.81206131 2.338968992
-47.36537552 -50.8589859 9.735733032
-22.16159248 -20.67452049 0.7367249727
-40.09454346 -41.49475479 2.341192007
-43.52918243 -45.78442001 4.606750965
-43.30820847 -45.62434006 6.740240097
-47.35243988 -50.47774506 9.7072258
-22.52827263 -20.94418907 0.7350499034
-40.05320358 -41.14940643 2.342472076
-43.30120087 -45.28808212 6.724812031
-47.4033165 -50.17398834 9.691510201
-33.11581421 -32.84848785 0.5408127904
-40.06913376 -40.87260056 2.345663071
-43.29229355 -44.95248795 6.709280014
-47.39522171 -49.78628159 9.663246155
-33.32064056 -32.84408188 0.5453091264
-40.05648422 -40.55076218 2.34797883
-43.32881546 -44.6554985 6.699591637
-47.37615204 -49.40705109 9.63440609
-33.4332695 -32.72289658 0.5519276857
-40.02677917 -40.22704315 2.349544525
-43.32950974 -44.33594894 6.685711861
-47.36365509 -49.02087784 9.605903625
-33.56845856 -32.65050888 0.5572838783
-40.04195786 -39.95616531 2.352613211
-43.29940414 -43.98418045 6.667670727
-47.33164978 -48.6509285 9.576379776
-33.72806931 -32.5931282 0.5625984669
-40.03961563 -39.66786957 2.355050564
-43.29383469 -43.66290283 6.653224468
-47.37225723 -48.3480835 9.559919357
-47.26407242 -48.32842255 11.89648724
-33.79350281 -32.43143082 0.5695576668
-40.03036118 -39.37415314 2.357218981
-43.29453659 -43.35109329 6.639796734
-47.34503937 -47.97175598 9.530636787
-47.26966858 -47.98820877 11.86461544
-33.93146515 -32.33816528 0.5756105781
-40.0302887 -39.09280396 2.359672308
-43.28015518 -43.02507782 6.624418736
-47.340168 -47.60615158 9.504739761
-47.34213638 -47.72481918 11.84949303
-34.00914764 -32.19084167 0.5822654963
-40.05997086 -38.8320694 2.363243818
-43.30651093 -42.73096085 6.614174843
-47.35952377 -47.28713989 9.484930992
-47.29172516 -47.31058502 11.80295563
-34.03448868 -31.98767471 0.5897481441
-40.06369019 -38.55897522 2.365768671
-43.32367325 -42.44426346 6.603448868
-47.28912354 -46.96920776 11.77013206
-34.05604935 -31.78181458 0.5972182751
-40.04957962 -38.28249359 2.367528677
-43.26962662 -42.09773254 6.583673954
-43.2923584 -42.20792389 8.665376663
-47.32214737 -46.6690712 11.74630737
-34.06129074 -31.57132339 0.6044919491
-40.05315781 -38.01325226 2.369991779
-43.28631973 -41.81498337 6.573147297
-43.30740738 -41.9222374 8.647562027
-47.23799515 -46.26131439 11.69596004
-34.0696907 -31.35441399 0.6120198369
-40.0759201 -37.76625824 2.37309432
-43.25792694 -41.48620987 6.556556702
-43.27016068 -41.59764099 8.621078491
-47.24329758 -45.93635559 11.6660881
-34.07702637 -31.12671661 0.6198623776
-40.08911133 -37.51091003 2.375837803
-43.2687645 -41.20156097 6.545485973
-43.26496506 -41.27998734 8.598856926
-47.27123642 -45.63781357 11.64198589
-34.06648636 -30.89317131 0.6275214553
-40.07300568 -37.2134819 2.377643347
-43.28537369 -40.91038895 6.53470993
-43.31079483 -41.03323364 8.587462425
-47.30566406 -45.33193207 11.61821461
-34.07131195 -30.66628265 0.635227263
-40.07365417 -36.94893646 2.379892588
-43.25184631 -40.58351517 6.517840862
-47.26236343 -44.96278763 11.5776329
-34.07781219 -30.45367241 0.6424577236
-40.07107162 -36.66987991 2.382110357
-43.30665588 -40.33638763 6.512526989
-47.25775146 -44.62095642 11.54518414
-34.08740997 -30.24568558 0.6495655179
-40.06745529 -36.40486908 2.384154797
-43.27534866 -40.01644897 6.496230125
-43.3403244 -40.1761322 8.533144951
-47.28180313 -44.32719803 11.5213728
-34.07763672 -30.01953888 0.656878829
-40.0657959 -36.15670013 2.386133909
-43.30761337 -39.77823257 6.489274979
-47.2822876 -44.01125717 11.49224663
-34.08389664 -29.82182312 0.6635293365
-40.02561951 -35.85860062 2.386837721
-43.24237442 -39.42832184 6.468652248
-43.3477478 -39.61173248 8.496278763
-47.2401619 -43.6697998 11.45477676
-34.14512634 -29.65895653 0.6700389981
-40.03332901 -35.61068344 2.389201403
-43.24252319 -39.14718628 6.456999302
-43.29197693 -39.28656006 8.46805954
-34.22263718 -29.51292038 0.6762704253
-40.05457306 -35.36524582 2.392121077
-43.26781845 -38.87930298 6.448273659
-43.3520546 -39.05210114 8.459607124
-47.21812057 -43.01087189 11.39122105
-34.34840393 -29.42537689 0.6814565659
-40.0688324 -35.1145134 2.394768476
-43.25213623 -38.57249451 6.434161663
-47.23336029 -42.70362473 11.3653965
-40.07550049 -34.87057495 2.397020578
-43.24777985 -38.29287338 6.422263622
-47.22258759 -42.38791656 11.33515453
-34.84619141 -29.48819923 0.6885402203
-40.09911346 -34.65707397 2.399751902
-43.25509262 -38.04024887 6.412597656
-47.2185936 -42.08112717 11.30679321
-40.13363266 -34.44297409 2.402949572
-43.24793243 -37.76159668 6.400547981
-43.3442688 -37.92623901 8.384623528
-47.2366066 -41.8129425 11.28519249
-35.12426376 -29.34371758 0.6982160211
-40.12054825 -34.19675064 2.404334307
-43.28413391 -37.54028702 6.394931793
-47.20687866 -41.4852562 11.2514019
-40.15865707 -33.98871231 2.407617807
-43.32146835 -37.37696457 8.346133232
-47.22494125 -41.22072601 11.23030758
-35.55780029 -29.32294083 0.7066047788
-40.1904068 -33.7515564 2.410844088
-43.31794357 -37.0925827 8.32728672
-47.2236824 -40.89523315 11.20104408
-40.17535782 -33.49601364 2.412184715
-43.16337204 -36.533741 4.425994873
-43.08398438 -36.52509308 6.335056305
-43.14216614 -36.66031647 8.278303146
-47.2061348 -40.58579636 11.17093945
-35.98736954 -29.30317688 0.714776516
-40.17797089 -33.25872421 2.414133549
-43.16836929 -36.27723694 4.42219305
-43.08361435 -36.26325607 6.324503899
-43.13428497 -36.39009857 8.259971619
-47.21278763 -40.30138397 11.14668369
-40.22490311 -33.06390381 2.417650461
-43.185215 -36.03340149 4.419420242
-43.09358215 -36.01272964 6.315414906
-43.13147736 -36.11340332 8.241894722
-47.21224976 -40.01202393 11.12102985
-40.26943207 -32.85601807 2.421153307
-43.16326904 -35.74229431 4.413235188
-43.10573578 -35.75295639 6.306198597
-43.12802887 -35.85098267 8.22471714
-47.2144165 -39.71281052 11.09499741
-36.54914093 -29.17713165 0.7284147143
-40.33812332 -32.68294144 2.42541647
-43.15838242 -35.48174667 4.408724785
-43.09993362 -35.49109268 6.295238018
-43.11886215 -35.58500671 8.206679344
-47.21666718 -39.42985535 11.07050228
-36.6597023 -29.06719208 0.7337067127
-40.32155991 -32.43334198 2.426592827
-43.14185333 -35.21225739 4.403282166
-43.09571838 -35.2324295 6.284588814
-43.1112709 -35.3222084 8.18909359
-47.21746445 -39.14741516 11.045928
-36.66719437 -28.86467934 0.740091145
-40.41226196 -32.2818222 2.431615591
-43.15057373 -34.96743011 4.399981499
-43.08577347 -34.97021484 6.273290634
-43.11701584 -35.07324982 8.174055099
-47.16724396 -38.82032013 11.01001835
-36.69009399 -28.67713547 0.746244967
-40.53964233 -32.16335297 2.437950611
-43.16103363 -34.7256813 4.396861076
-43.08041 -34.7138443 6.262691975
-43.11560822 -34.81940842 8.157898903
-47.1796875 -38.55225372 10.98859596
-36.68813324 -28.46856308 0.7526004314
-40.66661453 -32.04443741 2.444260836
-43.14796066 -34.46434021 4.391820431
-43.06480408 -34.45003128 6.250861168
-43.11588287 -34.56864548 8.142199516
-47.18195724 -38.27674103 10.96510983
-36.70913315 -28.28151894 0.7586504817
-43.18241119 -34.02791214 2.537071466
-43.12156296 -34.19297791 4.385714531
-43.05532074 -34.19333649 6.239926338
-43.11042023 -34.31441116 8.125639915
-47.17108917 -37.99116135 10.93889523
-36.71720886 -28.08413506 0.7647743225
-43.19252014 -33.79176712 2.539233685
-43.12677002 -33.95120239 4.382265568
-43.07737732 -33.96611023 6.233181953
-43.11559677 -34.07111359 8.111118317
-47.18830109 -37.73229599 10.91924191
-36.73791504 -27.89883614 0.7707104087
-43.16524506 -33.52450943 2.540017843
-43.1202507 -33.70062637 4.377880573
-43.05940247 -33.70506668 6.221334934
-43.11658096 -33.82560349 8.096003532
-47.17759323 -37.45035553 10.89353943
-36.75165558 -27.70854187 0.7766560912
-43.18505478 -33.2996254 2.542489052
-43.14562988 -33.4793129 4.376167774
-43.05962372 -33.46155548 6.211940765
-43.12230682 -33.58574295 8.081875801
-47.18626404 -37.18711853 10.87241459
-36.8131485 -27.56005478 0.7820875645
-43.17794037 -33.052948 2.543960333
-43.14576721 -33.23738861 4.372400284
-43.04656219 -33.20808029 6.200924397
-43.09536362 -33.31903076 8.062145233
-47.18468094 -36.91657257 10.84922314
-36.88045883 -27.40699005 0.7877200246
-43.18025589 -32.81579971 2.545753241
-43.12192917 -32.97644424 4.366690636
-43.05186844 -32.97195435 6.192368984
-43.08198166 -33.05373764 8.044224739
-47.16080856 -36.62851334 10.82129478
-36.91313171 -27.23513794 0.7933320403
-43.16739273 -32.55535126 2.547055483
-43.12546158 -32.728508 4.363087177
-43.07251358 -32.73827362 6.185413837
-43.07643127 -32.808815 8.02857399
-47.15398026 -36.34361267 10.79628468
-36.93425751 -27.05443573 0.7989963293
-43.1780014 -32.32805634 2.549108028
-43.13256454 -32.49697113 4.359997272
-43.08918381 -32.51443481 6.178487301
-43.08477783 -32.57716751 8.015499115
-47.16627884 -36.08994293 10.77686691
-36.97454834 -26.89052582 0.8044378161
-43.18290329 -32.09725952 2.550931931
-43.12630463 -32.25552368 4.355839729
-43.07121658 -32.26276779 6.167204857
-43.13148499 -32.37900543 8.009245872
-47.15621948 -35.81887817 10.7527113
-37.02799606 -26.73811913 0.8097183108
-43.1558609 -31.84136391 2.551566839
-43.11881638 -32.01457214 4.351615429
-43.06423187 -32.02180481 6.157418728
-43.10113144 -32.11748886 7.989695549
-47.17812729 -35.57613754 10.73582935
-37.07301712 -26.57937813 0.8150264025
-43.16153717 -31.6139431 2.553378105
-43.09322739 -31.76006317 4.345939636
-43.08059692 -31.80160713 6.150700569
-43.0969696 -31.87932396 7.97484827
-47.16850281 -35.30854797 10.71220016
-37.09573364 -26.39334869 0.8207569122
-43.16299057 -31.38437653 2.555015087
-43.09105682 -31.52638054 4.342217922
-43.07745743 -31.56653214 6.141572952
-43.12179184 -31.65478325 7.964469433
-47.12407684 -35.0138855 10.68114471
-37.14239502 -26.23721313 0.8259577751
-43.1673584 -31.14700699 2.556816578
-43.13050461 -31.31641388 4.341757774
-43.05870056 -31.30861473 6.130115509
-43.11530304 -31.41740608 7.949495316
-47.14540863 -34.7622261 10.66370487
-37.2289772 -26.10398102 0.8310718536
-43.16187668 -30.9144516 2.558158636
-43.13388062 -31.08970451 4.338549137
-43.05780029 -31.07821465 6.121447086
-43.09474945 -31.15857124 7.931551456
-47.14401245 -34.50616074 10.64253616
-37.27907181 -25.96107864 0.8358902931
-43.13962173 -30.66987038 2.558863401
-43.13458252 -30.86213493 4.335153103
-43.05887604 -30.85073662 6.113111496
-43.08028793 -30.92913055 7.916165352
-47.16594315 -34.27033615 10.6266613
-37.34417725 -25.81131172 0.8410990834
-43.15219879 -30.45437431 2.560830355
-43.13263702 -30.6336937 4.331570625
-43.06973648 -30.6323204 6.10609293
-43.09899521 -30.70479393 7.905271053
-47.14361572 -34.0003624 10.60133648
-37.3740921 -25.64391327 0.8462609649
-43.15746307 -30.23423195 2.562509537
-43.12876129 -30.39378929 4.327692509
-43.05773163 -30.39691734 6.096259594
-43.07384872 -30.45815468 7.887645721
-47.14764023 -33.74040985 10.58094215
-37.43496323 -25.51076508 0.8508836627
-43.12699127 -29.98740005 2.562851191
-43.11283493 -30.16820908 4.323201656
-43.03516006 -30.15462685 6.085178852
-43.08953094 -30.24517632 7.877153873
-47.13524246 -33.49388123 10.55920029
-37.45874023 -25.33980942 0.8560028672
-43.14115143 -29.77662277 2.564821243
-43.12329102 -29.95329475 4.320717812
-43.04592896 -29.939785 6.078380108
-43.07225037 -30.01871109 7.861797333
-47.13388062 -33.24496841 10.53904057
-37.5180397 -25.18740845 0.8610858321
-43.15114975 -29.56368828 2.566620111
-43.11061096 -29.72161865 4.316382885
-43.04779816 -29.71918297 6.070536613
-43.07089615 -29.78363609 7.84799242
-47.40533829 -33.20937729 10.5779686
-37.58646393 -25.05178261 0.8658052683
-43.14583206 -29.34016609 2.567834139
-43.12426758 -29.50048828 4.314051151
-43.02969742 -29.48436928 6.060260296
-43.07087326 -29.56203842 7.835191727
-47.72048569 -33.19341278 10.62527657
-37.64986038 -24.92194748 0.8702680469
-43.1330719 -29.11220551 2.568753958
-43.10569382 -29.27780151 4.309459686
-43.02626419 -29.26213837 6.051904202
-43.08713913 -29.35401726 7.825276852
-48.01171112 -33.18167496 10.66931438
-37.70766449 -24.77879333 0.8749919534
-43.1479454 -28.90635872 2.570679903
-43.10085297 -29.05586815 4.305847645
-43.0280838 -29.04514694 6.044282436
-43.09877777 -29.15442467 7.815313816
-48.3155365 -33.16527939 10.7150116
-37.80941391 -24.65946579 0.8796479702
-43.13306046 -28.6792202 2.571484566
-43.11569595 -28.84991837 4.303855896
-43.03844833 -28.8356514 6.037798405
-43.08826828 -28.91732788 7.800465584
-48.65759277 -33.17561722 10.76881504
-37.8355751 -24.49338913 0.8845013976
-43.11735535 -28.44207764 2.572306395
-43.09951401 -28.61107635 4.29922533
-43.05934906 -28.6242981 6.032313824
-43.0872879 -28.69952583 7.787976265
-48.9904213 -33.16414642 10.81956959
-37.92020416 -24.36170578 0.889198184
-43.2113533 -28.29760933 2.577123404
-43.09626007 -28.39395332 4.295827389
-43.07893372 -28.42367172 6.027115345
-43.08561325 -28.47161674 7.77488184
-49.34632874 -33.17990112 10.87612152
-37.99026108 -24.22866631 0.8937047124
-43.50528336 -28.28847694 2.589437723
-43.27565765 -28.30131721 4.307026386
-43.3062973 -28.36605072 6.047429085
-43.24529266 -28.37447929 7.789673805
-49.66124344 -33.15033722 10.92287159
-38.05493546 -24.09194756 0.8982099891
-43.79784393 -28.28694344 2.601637602
-43.5836792 -28.31235886 4.328742504
-43.60102463 -28.36694336 6.07646513
-43.52474976 -28.36432838 7.824610233
-49.95791626 -33.11775589 10.96663761
-38.15481186 -23.98073959 0.9024809599
-44.09410858 -28.28607368 2.613976955
-43.87124252 -28.30638885 4.348790169
-43.88333511 -28.35680771 6.103923798
-43.81745148 -28.36188316 7.861714363
-50.34421158 -33.1484375 11.02934265
-38.23154831 -23.85287476 0.9068581462
-44.37622452 -28.27301407 2.625790358
-44.16410828 -28.30225372 4.369246483
-44.18224335 -28.3566494 6.13339901
-44.11546707 -28.3611927 7.899646759
-50.68654251 -33.1444931 11.08261299
-38.31759644 -23.73172379 0.9111542106
-44.68465424 -28.28748894 2.638523579
-44.46883011 -28.30451012 4.390636444
-44.49757004 -28.37699127 6.165239334
-44.42684937 -28.36800957 7.939754009
-51.02939987 -33.13857269 11.13590431
-38.40550995 -23.62093163 0.9151783586
-44.96271133 -28.26772499 2.650187016
-44.74127579 -28.29261398 4.409570694
-44.76988602 -28.35378456 6.191351414
-44.70323944 -28.34774208 7.97395277
-51.36043549 -33.13452911 11.18756676
-38.45466995 -23.47399139 0.9196135402
-45.29033279 -28.28066444 2.663705349
-45.05509186 -28.29722023 4.431652546
-45.08323669 -28.35762596 6.222488403
-45.01375198 -28.36060333 8.014386177
-51.66249466 -33.09512329 11.23209286
-38.55678177 -23.35506058 0.9239768982
-46.37761688 -28.81777382 2.70567441
-46.17808151 -28.86393547 4.518529415
-46.15411377 -28.8882885 6.34676218
-52.05527115 -33.1173439 11.29561234
-38.68561935 -23.26332664 0.9279540777
-46.66728592 -28.78494453 2.717861414
-46.48369598 -28.84314156 4.539697647
-46.48535156 -28.8850708 6.379497051
-52.39968491 -33.09035492 11.34792519
-38.79859161 -23.15134048 0.9322189689
-46.97854996 -28.77598763 2.730794668
-46.75165558 -28.80545235 4.557993889
-46.81850433 -28.891922 6.412800312
-52.78406143 -33.1013031 11.40946388
-38.85567856 -23.0103035 0.9364922643
-47.32522583 -28.77776337 2.745120287
-47.10419464 -28.81259727 4.582877159
-47.13113785 -28.87117004 6.443165302
-53.10349274 -33.05219269 11.45638466
-38.97783279 -22.90416718 0.9406648874
-47.65736771 -28.77841759 2.758839607
-47.40260696 -28.79168129 4.603573322
-47.44559097 -28.86071587 6.474093437
-53.51185608 -33.07424164 11.52272511
-39.11470032 -22.82541847 0.9443061948
