# .PCD v0.7 - Point Cloud Data file format
VERSION 0.7
FIELDS x y z
SIZE 4 4 4
TYPE F F F
COUNT 1 1 1
WIDTH 1263
HEIGHT 1
VIEWPOINT 0 0 0 1 0 0 0
POINTS 1263
DATA ascii
-8.265437126 -22.16793251 3.529717922
-6.683122158 -13.63568497 0.5580701828
-7.566459656 -17.82143211 1.070538282
-7.811842918 -19.62836647 3.26749897
-8.327254295 -22.46426201 5.261792183
-6.725578308 -13.59980392 0.5616527796
-7.653244495 -17.90479851 1.073983908
-7.8885355 -19.6544323 3.275555611
-6.777412891 -13.59442711 0.5642092824
-7.722268105 -17.90582657 1.077561617
-17.20034027 -61.67329407 5.49241972
-7.950048923 -19.59193039 3.274537563
-6.822078705 -13.5576973 0.5679116845
-7.79801321 -17.93584824 1.08111167
-7.992729187 -19.4457283 3.264610767
-8.277085304 -20.89320374 4.207477093
-5.23038435 -7.184631824 3.149590254
-6.869255543 -13.53251076 0.5711736083
-7.865436554 -17.92855263 1.084704995
-7.890710831 -18.8012886 3.915205479
-8.651864052 -22.38759995 5.278965473
-6.918147564 -13.51494694 0.5741437674
-7.929201603 -17.90543747 1.0883075
-22.50662613 -81.18716431 3.978501558
-8.011931419 -18.87586594 3.21493578
-8.022848129 -19.06542969 3.959085464
-8.747745514 -22.43403816 5.295166492
-5.238088131 -6.951734543 3.09677434
-6.96414423 -13.48556137 0.5775318742
-8.021697998 -18.00270653 1.091850758
-8.886591911 -22.66635513 5.344940186
-8.88066864 -22.83198166 6.253377914
-7.021510601 -13.49230862 0.5797141194
-8.088972092 -17.99266434 1.095459223
-18.32991982 -61.17508316 3.30410099
-8.210829735 -19.10255623 3.250382423
-5.311676502 -6.956665993 2.809149981
-5.226431847 -6.705679893 3.331057549
-7.06739378 -13.45227432 0.5835754871
-8.159510612 -17.9815712 1.099245429
-18.54945564 -61.088871 3.315435648
-18.36631012 -60.74077988 5.519844532
-8.309956551 -19.19307327 3.266072035
-5.182343006 -6.275339603 2.663772345
-5.255149841 -6.702602386 3.333684683
-7.114456177 -13.42822647 0.586730957
-8.262619972 -18.10019112 1.103050947
-18.58711624 -60.66567993 5.530807495
-8.440851212 -19.41068268 3.295589685
-8.844114304 -21.3669529 5.134696484
-5.114274025 -5.976909161 3.123696804
-7.170810223 -13.44081306 0.5885666013
-8.318944931 -18.04470825 1.106662035
-16.1276741 -49.86263657 4.766218185
-8.497325897 -19.3349781 3.29318738
-5.043141842 -5.389740944 2.010760069
-8.890505791 -21.21919632 5.115672588
-5.385039806 -6.894116402 2.80457449
-7.224771023 -13.44351292 0.5907514691
-8.386946678 -18.03554535 1.110279799
-16.58097267 -50.91246414 4.855257034
-5.179609776 -5.800418854 1.828156352
-5.405320168 -6.801077366 2.500825167
-5.354838371 -6.653494835 2.754868269
-7.27880764 -13.44600391 0.5929396749
-8.455440521 -18.02807045 1.113897204
-8.959089279 -20.40931511 2.649914026
-5.204435349 -5.800165176 1.830064893
-5.030675411 -5.155753613 1.980766177
-5.026325226 -5.22312212 2.44387722
-7.321035385 -13.40388012 0.5966929793
-8.544481277 -18.09766579 1.117586017
-16.93992615 -50.49396515 2.994667292
-9.027831078 -20.3686161 2.652427673
-5.24319458 -5.853742599 1.837865114
-5.045389652 -5.125272751 1.978286386
-5.046717644 -5.213711739 2.444211721
-5.152837276 -5.722760677 3.061015844
-7.364067078 -13.36549187 0.6002972126
-8.624168396 -18.13017845 1.121261597
-16.83121872 -49.66722488 4.804044247
-5.208296299 -5.624297142 1.81470418
-5.064393044 -5.112014771 1.978315115
-5.067058086 -5.204234123 2.444543123
-5.312838078 -6.208536148 2.934714556
-7.418521881 -13.36938095 0.60240978
-8.687680244 -18.1150341 1.124708533
-20.26141739 -61.83392334 5.710726738
-5.218274117 -5.570109367 1.810669541
-5.082318306 -5.094865799 1.977779269
-5.392505169 -6.366306305 2.703404665
-5.320129871 -6.134200096 2.9185884
-7.460378647 -13.33716393 0.6056598425
-8.758722305 -18.11417961 1.128356099
-18.70162964 -54.87976074 3.193464756
-19.00473976 -56.32881546 5.321041584
-5.245473862 -5.581227303 1.813805699
-5.483397961 -6.514575481 2.187984705
-5.146872044 -5.294610023 2.237861633
-5.326204777 -6.062119007 2.902854443
-7.507252216 -13.31375217 0.6087024808
-8.847088814 -18.17468834 1.132109046
-18.87469864 -54.74897385 3.201179743
-17.78913116 -51.12200546 4.950624466
-5.34232378 -5.851558685 1.845484495
-5.222796917 -5.57542181 2.77968812
-7.562526226 -13.31062508 0.6111459136
-8.879654884 -18.0366497 1.135516286
-19.08476448 -54.75237656 3.213969231
-17.90725517 -50.84436798 4.943685055
-5.371803284 -5.861869335 1.848744631
-5.330817699 -5.757459641 2.08133316
-5.227799416 -5.499434948 2.762976646
-7.603682995 -13.26767349 0.6148360372
-8.97327137 -18.10139084 1.139475107
-19.31345367 -54.78298569 3.228471518
-18.96614647 -53.8698616 5.183623791
-5.438887119 -6.010251522 1.867252231
-5.189191818 -5.15545845 1.994740248
-5.202994347 -5.320923805 2.719388485
-7.653031826 -13.25337791 0.617530942
-9.045630455 -18.10331154 1.143137932
-24.57353783 -72.3321991 3.916046143
-9.0616436 -18.53566551 2.55427742
-8.88851738 -18.05012894 3.209780931
-5.204913616 -5.130306244 1.993071318
-5.264627457 -5.458554268 2.758102179
-7.701185226 -13.23508072 0.6203520298
-9.131747246 -18.16347694 1.146763802
-24.83149529 -72.26734924 3.930349112
-9.11987114 -18.49579811 2.556207657
-8.970521927 -18.08623886 3.219573021
-5.393886566 -5.710391998 2.081238985
-5.466953278 -6.092473984 2.926609755
-7.759469986 -13.25946712 0.6216110587
-9.23254776 -18.25868797 1.150691986
-17.57283401 -47.04283524 4.71231699
-5.401987076 -5.656365871 2.075361967
-5.284860134 -5.287752628 2.250549555
-7.811702251 -13.25418949 0.6239804626
-9.310310364 -18.27494812 1.154436827
-17.69101334 -46.8283577 4.709000111
-5.152908325 -4.693191051 1.727752686
-5.309187889 -5.290720463 2.253486872
-7.860512257 -13.22886276 0.6271232963
-9.372416496 -18.23927498 1.158033967
-17.84352875 -46.73206329 4.714594841
-5.176796436 -4.698405743 1.730155468
-5.32741785 -5.272825718 2.25254941
-5.559018612 -6.181964874 3.234926462
-7.899590492 -13.18123436 0.6308874488
-9.459629059 -18.27303123 1.162029982
-17.96714592 -46.26367188 2.968077421
-13.68072891 -32.46487045 3.64143157
-5.195731163 -4.69050169 1.731004834
-5.388129234 -5.358474731 2.037698984
-5.036967754 -4.314707756 2.674848557
-5.598905087 -5.665091038 0.3990313709
-5.591773033 -5.680238724 0.6402674317
-7.951040745 -13.17353058 0.6333079338
-9.514413834 -18.213974 1.165540099
-13.84350967 -32.4055748 2.426944256
-13.77341175 -32.35246277 3.641941071
-5.220466614 -4.701541901 1.734003067
-5.378129005 -5.247543335 2.023249626
-5.093929768 -4.407986641 2.499043226
-6.075621605 -7.72708416 3.70988059
-5.617477417 -5.644620419 0.4016911983
-8.001278877 -13.16182899 0.6358536482
-9.587657928 -18.21385002 1.169243693
-13.90500546 -32.19556808 2.426316261
-13.87499428 -32.27026749 3.644751549
-5.228771687 -4.659313679 1.730972767
-5.399554729 -5.24078083 2.0244174
-5.137262821 -4.483756065 2.521606207
-5.631595135 -5.610862255 0.4057556391
-5.620278358 -5.61254406 0.646463573
-5.624804974 -5.659051895 0.8845059872
-9.689217567 -18.30100441 1.173285246
-13.9942379 -32.07695007 2.429297209
-5.271309376 -4.694495678 1.530738473
-5.236800194 -4.617097378 1.72792697
-5.642221928 -5.940469742 2.132195234
-5.479996204 -5.45599556 2.296930075
-5.233646393 -4.729763508 2.58929944
-5.649256706 -5.588418007 0.4086004496
-5.638586998 -5.591933727 0.6486213803
-5.623985767 -5.579465866 0.8881106377
-9.770739555 -18.33553505 1.176966906
-14.10053921 -32.01329041 2.434475183
-5.365876675 -4.925966263 1.550091505
-5.281982422 -4.692349434 1.738271475
-5.460284233 -5.283639908 2.035310507
-5.414659977 -5.175091743 2.246355772
-5.083030224 -4.177345753 2.445648909
-5.67135191 -5.583280087 0.4095682502
-5.659929752 -5.580742359 0.6501150727
-5.643538952 -5.566743851 0.8894633651
-14.22062588 -32.01197052 2.441802502
-5.412004471 -4.999032021 1.557375669
-5.304523945 -4.695441246 1.740415692
-5.726165295 -6.042226315 2.152442932
-5.256743431 -4.669211388 2.578619242
-5.693922997 -5.575808048 0.4107969403
-5.684408665 -5.578936577 0.6509501934
-5.666062355 -5.559274197 0.8906894326
-5.654512882 -5.555920124 1.128344059
-5.647036552 -5.614091396 1.367118239
-5.39028883 -4.863368034 1.548466325
-5.310101032 -4.649623394 1.736868858
-5.565834045 -5.46562624 2.067353249
-5.09630537 -4.099472523 2.429841995
-5.719696522 -5.57766819 0.4110228717
-5.706323624 -5.56948328 0.6523085237
-5.690323353 -5.553240299 0.8919135928
-5.676359653 -5.546472549 1.129558921
-5.408483982 -4.850979328 1.549115539
-5.324173927 -4.623953342 1.735801101
-5.745330811 -5.575284004 0.4117114842
-5.72933054 -5.559569359 0.6537259221
-5.712147236 -5.543717384 0.8931968212
-5.694120884 -5.521424294 1.130760074
-5.666686058 -5.518951416 1.366348267
-5.366103649 -4.685322285 1.744683743
-5.572573185 -5.33386755 2.052042246
-5.014426231 -3.677892685 1.971442699
-5.150711536 -4.144524097 2.447036505
-5.896255016 -6.462139606 3.354985714
-5.77248621 -5.580697536 0.4115411937
-5.761026382 -5.578228951 0.65312922
-5.734399796 -5.531843662 0.8945989609
-5.719749928 -5.52318573 1.132023335
-5.680009365 -5.484831333 1.366459727
-5.393547058 -4.699039459 1.748193622
-5.533091545 -5.144449711 2.025365114
-5.053497314 -3.741470098 1.985484362
-5.160035133 -4.110572815 2.440655708
-5.366906643 -4.768171787 2.839294672
-5.802828312 -5.591234207 0.4108379483
-5.791556358 -5.592979431 0.6528003216
-5.760110855 -5.533488274 0.895516932
-5.743245602 -5.515011311 1.133300781
-5.705320835 -5.482423306 1.367967486
-5.631389141 -5.297485828 1.589428186
-5.436866283 -4.76187849 1.75733459
-5.554577827 -5.134905338 2.026280642
-6.142733097 -6.900512695 2.591603279
-5.035008907 -3.656103134 2.145021439
-5.182436943 -4.119198799 2.445547342
-5.795232296 -5.561403275 0.8956025839
-5.768918991 -5.51657629 1.134565711
-5.72689724 -5.472759247 1.369096518
-5.661495686 -5.314414501 1.592542648
-5.427346706 -4.670422554 1.748563886
-5.235364914 -4.139471054 1.875396371
-5.427323341 -4.724014282 2.177801132
-5.081151485 -3.739314318 2.166292191
-5.158857822 -3.991892338 2.413957834
-8.498999596 -13.01903725 0.6617816091
-5.796657085 -5.523688793 1.135864139
-5.749093533 -5.464908123 1.370302677
-5.679179192 -5.295458317 1.59282136
-5.43953228 -4.642906189 1.747208357
-5.228195667 -4.062218666 1.865396023
-5.089047909 -3.709549904 2.161639452
-5.162708282 -3.947325468 2.404523373
-8.553617477 -13.01852608 0.6638848186
-5.77530241 -5.468268394 1.371989489
-5.704773903 -5.299005032 1.594893932
-5.451554775 -4.615371227 1.745843768
-5.154105663 -3.796548605 1.826214552
-5.146893501 -3.798232317 2.004410267
-5.117983818 -3.740681171 2.171029568
-5.187235355 -3.963219643 2.411366224
-6.266132355 -7.113426685 3.577445507
-8.5962286 -12.99241352 0.6666783094
-10.56812382 -18.45337486 1.215470076
-5.809952259 -5.498241901 1.374748468
-5.731362343 -5.308470726 1.597361326
-5.474500656 -4.621862411 1.748373985
-5.171646118 -3.796505928 1.82792592
-5.16508007 -3.800006151 2.006686211
-5.135951519 -3.742473125 2.173568726
-5.209116459 -3.973823786 2.416687727
-6.292685032 -7.103765488 3.578887224
-8.634507179 -12.94002056 0.6704826951
-10.67431736 -18.53367043 1.21977663
-5.817697525 -5.478628159 1.612852931
-5.700258732 -5.182738304 1.816399217
-5.191366673 -3.799819469 1.83026135
-5.208668232 -3.86994648 2.022260189
-5.134575844 -3.684700489 2.162548065
-5.217886925 -3.941698551 2.410734177
-6.329542637 -7.118843079 3.588266373
-8.691832542 -12.94645882 0.67234689
-10.78106689 -18.60281563 1.22424233
-5.837591171 -5.460639954 1.613363862
-5.722821712 -5.178626537 1.817990661
-5.209242821 -3.795308113 1.831484437
-5.236182213 -3.891221762 2.028585434
-5.015386105 -3.303791761 2.076327085
-6.342769623 -7.062734127 3.575808525
-8.748551369 -12.95079803 0.6742731929
-10.84969807 -18.57917023 1.227939487
-5.864614964 -5.465440273 1.615626454
-5.745381355 -5.174432755 1.819581628
-5.741579533 -5.191292286 2.0513587
-5.235962868 -3.838774204 2.020519495
-5.443887711 -4.48517561 2.777600527
-8.797504425 -12.93437004 0.6768322587
-10.95174026 -18.64311028 1.232225537
-5.897305965 -5.485064507 1.619106054
-5.767941475 -5.170153618 1.821172237
-5.915271282 -5.593136311 2.116688251
-5.209438324 -3.716278315 1.998784304
-5.436348915 -4.405926228 2.756109715
-8.833415031 -12.88420963 0.6804090142
-11.04498005 -18.6823082 1.23637104
-17.69316673 -36.34537125 2.745602608
-6.557974339 -7.198257923 2.064938545
-5.906567097 -5.501132011 2.104831696
-5.077941418 -3.315807581 1.922707558
-5.038158894 -3.230391264 2.065442324
-5.010522366 -3.175015688 2.212099791
-8.888692856 -12.88424015 0.6824465394
-11.15091991 -18.75278091 1.240762115
-17.80064392 -36.23755646 2.750066996
-17.74938202 -36.26153946 4.143401146
-6.584065914 -7.18179369 2.065802336
-5.880384445 -5.364881516 2.085955143
-5.087765217 -3.297241211 1.920984626
-5.064259052 -3.255899668 2.073503733
-6.384279251 -6.798140049 3.205174923
-8.936699867 -12.86545563 0.6850476861
-11.288908 -18.90278053 1.245772123
-17.93509483 -36.20019913 2.757660627
-17.86803818 -36.18317032 4.148123741
-6.552874088 -7.016882896 2.048879862
-5.882358074 -5.304635048 2.078977585
-5.204958916 -3.559809208 1.974376917
-5.059993267 -3.200933933 2.06271553
-5.038920879 -3.163954735 2.213638783
-5.151361465 -3.481240988 2.475548506
-8.991300583 -12.86321735 0.6871427298
-11.36526966 -18.89406776 1.24964869
-18.09649086 -36.23117447 2.768338203
-17.79152489 -35.60676956 4.111770153
-6.544379711 -6.913412571 2.039243221
-5.292788982 -3.72079134 1.830953717
-5.301318169 -3.76286602 2.016329288
-5.079898834 -3.209872007 2.066921949
-5.057244778 -3.169206381 2.217387199
-5.131805897 -3.383742332 2.447607517
-9.04296875 -12.85334587 0.6894615293
-11.48113155 -18.9834404 1.254288316
-17.91501999 -35.54688644 4.117888927
-6.760899067 -7.383412361 2.098690271
-5.306001663 -3.707006216 1.830657005
-5.312565327 -3.7435534 2.01468277
-5.087151051 -3.185945511 2.063404322
-5.072831631 -3.167150021 2.219150066
-5.141919136 -3.365232944 2.444465399
-9.081067085 -12.80994987 0.6927693486
-11.58570671 -19.04258156 1.25873065
-18.39936447 -36.39022064 4.199094296
-6.787561893 -7.366261959 2.099583149
-5.32133007 -3.69870162 1.83123374
-5.377824783 -3.861465693 2.040127993
-5.099255562 -3.174746275 2.062886477
-5.169314384 -3.391407967 2.455436468
-9.134881973 -12.80529118 0.6949151754
-11.67942429 -19.07347488 1.262972832
-6.839328766 -7.411732197 2.10807538
-5.342502594 -3.705041647 1.834151149
-5.393694878 -3.852881193 2.040664434
-5.140100956 -3.236140013 2.079565763
-5.099040508 -3.150247097 2.219190598
-5.19410181 -3.410298824 2.464157581
-9.182610512 -12.78564548 0.6974972486
-11.78032112 -19.12058449 1.267369151
-6.857082844 -7.372222424 2.106282234
-5.357383251 -3.714689732 2.015496969
-5.11021471 -3.119610071 2.054094076
-5.103117466 -3.119243622 2.212979794
-5.212674618 -3.41301775 2.467797995
-9.232584 -12.77136803 0.6999126077
-11.9579668 -19.34993362 1.273352146
-6.886659145 -7.362115383 2.108065367
-5.512160778 -4.028812885 1.889896154
-5.371983528 -3.704367161 2.015641928
-5.13008976 -3.128271818 2.058297634
-5.108442307 -3.091858625 2.20775485
-5.22914505 -3.410316229 2.469743013
-9.274738312 -12.73849487 0.7028618455
-12.02771091 -19.31845474 1.277148485
-6.766456604 -6.990169525 2.065579176
-5.532353401 -4.028932571 1.892000318
-5.402229309 -3.732204676 2.023400784
-5.14930439 -3.135034561 2.062074184
-5.123091698 -3.087805748 2.20900631
-5.253540993 -3.427108526 2.47791481
-9.323805809 -12.72203827 0.7053223848
-12.18511677 -19.49281502 1.282785058
-6.074142456 -5.256892681 1.855737805
-5.567020893 -4.063668728 1.899695754
-5.503518105 -3.930657625 2.065295696
-5.157408714 -3.114634275 2.059383392
-5.10974884 -3.015633821 2.191286802
-5.263545513 -3.408276081 2.474765301
-9.377575874 -12.71642113 0.7074617743
-12.40940475 -19.81881714 1.28988874
-6.094048023 -5.244074821 1.856446028
-5.578952312 -4.043514252 1.898568511
-5.163889408 -3.090620995 2.055822372
-5.841531277 -4.739321709 2.675092936
-5.278568745 -3.401836395 2.475577116
-9.438572884 -12.72708702 0.7091292739
-12.51102734 -19.8554821 1.294421673
-6.104544163 -5.209257603 1.854442
-5.612416744 -4.074319363 1.905692101
-5.55862236 -3.966913462 2.077297688
-5.180073738 -3.090011597 2.057869911
-5.232972622 -3.250218391 2.429883957
-9.487625122 -12.71004581 0.7115864158
-12.62667179 -19.92282295 1.299271464
-29.43518829 -59.09037781 6.235451221
-6.12897253 -5.207297802 1.856495738
-5.632871151 -4.074041367 1.907809258
-6.334134579 -5.735494614 2.435714722
-5.216142654 -3.136057615 2.071160555
-5.217094898 -3.154867887 2.237515688
-5.196027279 -3.121964216 2.39151144
-9.543134689 -12.70744133 0.7136257887
-12.69918633 -19.89085197 1.303185463
-5.628984928 -4.017409801 1.900763869
-7.014536381 -7.24937439 2.74451232
-5.233293056 -3.137040377 2.073650837
-5.201787472 -3.096369505 2.386022806
-9.588068008 -12.68089771 0.7163374424
-12.83032036 -19.99009514 1.308404326
-10.25859928 -14.50328445 3.019655704
-5.666720867 -4.056926727 1.909383059
-5.252027512 -3.141534328 2.077008724
-5.342822075 -3.368118286 2.302654266
-5.233904362 -3.13244319 2.40040946
-9.64678669 -12.67864323 0.718452692
-12.87513161 -19.89541817 1.31169796
-10.94934464 -15.90958881 3.201677799
-5.239408493 -3.072298288 2.062636852
-5.377800941 -3.405466795 2.316028595
-5.264001846 -3.16305995 2.413105249
-9.700717926 -12.6717577 0.7205957174
-13.28427124 -20.59264183 1.323403716
-30.24857903 -58.64515305 6.275008202
-10.76611328 -15.34260368 3.137048483
-5.697273254 -4.030156612 1.909511685
-6.139528751 -5.045002937 2.308836699
-5.24930954 -3.057095528 2.061214685
-5.512962818 -3.67153573 2.394081354
-5.348956108 -3.316101789 2.465667486
-9.756196022 -12.66176319 0.7229169011
-13.39085388 -20.62742043 1.328170657
-18.03224373 -31.03428268 2.658871889
-6.169901371 -5.05706358 2.314343214
-5.266180038 -3.055819511 2.063297749
-5.55880928 -3.729323387 2.413555145
-5.332609177 -3.23924017 2.443695068
-9.821307182 -12.68454933 0.7241309881
-14.28101158 -22.35088539 1.351204515
-18.15432167 -31.00673485 2.666025877
-30.64152908 -58.40811539 6.293224812
-11.04237652 -15.64875031 3.18832016
-5.53501606 -3.598234415 2.019284725
-5.301732063 -3.099611998 2.076167822
-5.574932575 -3.724005938 2.414883614
-5.293847561 -3.113542795 2.405750513
-9.185675621 -11.16559505 0.3015274704
-9.870305061 -12.66612911 0.7265793681
-14.4069128 -22.40912247 1.35662365
-18.28896332 -31.00593567 2.674517393
-30.56894684 -57.70762634 6.251224041
-11.12162304 -15.66889191 3.19736743
-5.72977972 -3.965089321 1.905439019
-5.55641222 -3.60345459 2.022694349
-5.31729126 -3.096671581 2.077788591
-5.358301163 -3.21885252 2.442970037
-9.230257034 -11.15126991 0.3034322858
-9.921818733 -12.65295219 0.7288756371
-14.17896748 -21.71626854 1.353652596
-18.42380524 -31.00455666 2.683017731
-11.04716206 -15.35708332 3.164320707
-5.747562885 -3.958927155 1.906649947
-5.56717205 -3.585366726 2.021339178
-5.517811775 -3.51350522 2.360795975
-5.402854443 -3.278386116 2.46540761
-9.266163826 -11.11878109 0.3065226376
-9.997473717 -12.69008541 0.7297947407
-18.54686546 -30.97734261 2.690262556
-11.14847469 -15.42563629 3.179516077
-5.761986732 -3.945530891 1.906666756
-6.21378088 -4.934534073 2.30155158
-5.534820557 -3.509716034 2.362630606
-5.279723167 -2.97188282 2.368077278
-9.303652763 -11.08978271 0.3093669713
-10.05173874 -12.68183708 0.7319508195
-18.68024063 -30.97129059 2.698591471
-30.61483002 -56.25251389 6.17954731
-6.392270088 -5.217765331 1.881712556
-5.778028488 -3.935672522 1.90727675
-6.238109112 -4.935974598 2.304795742
-5.379683495 -3.12108922 2.090929031
-5.515874386 -3.42865777 2.342308044
-5.308679104 -3.000514269 2.380182505
-9.345391273 -11.06963825 0.3116125166
-10.09667015 -12.66013622 0.7343680859
-18.80647469 -30.96377754 2.706445932
-5.991783619 -4.344127178 1.977800012
-6.254244328 -4.917276859 2.304051399
-5.390501499 -3.109364271 2.090337276
-5.476721764 -3.307862043 2.310327291
-5.296281338 -2.938384771 2.362639904
-9.382652283 -11.04038906 0.3144429028
-10.16854763 -12.68739223 0.7355592251
-18.93836403 -30.95307922 2.71460247
-28.36988831 -50.58869171 5.710966587
-6.420881271 -5.170816422 1.880494356
-6.005784512 -4.326323509 1.977286458
-6.275365353 -4.909182072 2.305509806
-5.457311153 -3.213593006 2.118582964
-5.536160469 -3.395148993 2.338343382
-5.321944714 -2.95785141 2.371930599
-9.421557426 -11.01460266 0.3170304
-10.22709846 -12.68088818 0.73775208
-19.06860733 -30.9382534 2.722579956
-28.59206009 -50.5886116 5.728505611
-6.443090916 -5.159926891 1.881688595
-5.617837429 -3.493255615 2.014067411
-5.429267883 -3.116470575 2.097117662
-5.493402004 -3.265217066 2.303869963
-5.384865761 -3.055038452 2.406956911
-9.456152916 -10.97516632 0.3205423057
-10.296731 -12.70214367 0.7391072512
-17.45165634 -27.11418343 1.449073911
-19.20625305 -30.92373657 2.731041908
-17.31216812 -27.18041801 3.634357929
-6.471192837 -5.163753986 1.884670019
-5.55048275 -3.313837051 1.97916019
-5.439013481 -3.100746632 2.095684767
-5.447331905 -3.132538319 2.268298864
-5.427598476 -3.106562614 2.427185535
-9.501095772 -10.96161461 0.3222960532
-10.37256145 -12.72902966 0.7404127121
-17.50253296 -26.97238922 1.453137994
-17.39934731 -27.11019135 3.637672186
-6.496021271 -5.158020496 1.886555672
-5.437308788 -3.032411098 1.765831113
-5.427434444 -3.025943041 1.921261549
-5.458800793 -3.103939533 2.09909606
-5.424785614 -3.048609018 2.246861935
-5.40641737 -3.027157784 2.403895855
-9.540575981 -10.93721962 0.3247469962
-10.43904018 -12.74249363 0.7419785857
-15.92514324 -23.60849953 1.415914178
-17.6419754 -27.24506187 2.558497667
-17.53304291 -27.12100029 3.648849964
-6.982728958 -6.080629826 2.009246111
-5.462744713 -3.060965061 1.930899858
-5.467576504 -3.086393595 2.09721899
-5.442821026 -3.050335646 2.250128984
-5.388752937 -2.95449996 2.382904291
-9.581786156 -10.91624451 0.32695961
-10.50753498 -12.75921154 0.7434608936
-15.96677971 -23.4795208 1.419376254
-17.69484711 -27.10621452 2.559119701
-15.6630888 -23.17667198 3.298458099
-6.124707222 -4.315113544 1.781464934
-5.509068489 -3.118987083 1.94532311
-5.480601311 -3.07757163 2.097527027
-5.45659399 -3.043316126 2.250868559
-5.429368973 -3.002609968 2.401963472
-9.621072769 -10.89158726 0.3293985128
-10.54958344 -12.72411919 0.7462902069
-16.00034714 -23.33632469 1.422608018
-15.88534927 -23.32605171 2.368965626
-15.72343445 -23.08752632 3.298727512
-6.106568813 -4.251422405 1.979913354
-5.547022343 -3.175073147 2.124576092
-5.498054028 -3.091617823 2.267804623
-5.44810915 -3.005895853 2.406134129
-9.657492638 -10.86148453 0.3321783841
-10.60071564 -12.70662785 0.7486518621
-16.05982971 -23.24464035 1.426488519
-15.93309593 -23.21146965 2.369752645
-15.80334282 -23.03726387 3.302558422
-6.156486988 -4.287585735 1.782250762
-6.146991253 -4.286159992 1.988418341
-5.550421715 -3.130834103 1.952381611
-5.495078087 -3.037170887 2.092432499
-5.637555599 -3.33310318 2.341490746
-5.495313168 -3.065577507 2.429238558
-9.693772316 -10.83127689 0.33495
-10.68627357 -12.75440884 0.7493298054
-16.14204407 -23.19711685 1.430948734
-16.01154709 -23.15710831 2.373694658
-15.91057205 -23.03982162 3.311280727
-6.221051693 -4.368170738 1.795096159
-6.003978729 -3.96384263 1.935631633
-5.547421932 -3.090274572 1.946090341
-5.492816448 -2.998728514 2.085265398
-5.625970364 -3.273666859 2.327076912
-5.494400978 -3.029297829 2.420222044
-9.736489296 -10.8132906 0.3369101286
-10.75068283 -12.76113987 0.7510665059
-16.2418499 -23.18289948 1.435866237
-16.09532738 -23.11310959 2.37818718
-16.02906609 -23.06311417 3.321976662
-5.999973774 -3.914567947 1.929586887
-5.56403923 -3.088185787 1.94794929
-5.524287701 -3.026252031 2.094781876
-5.641404629 -3.267714977 2.328364134
-5.488893032 -2.984551191 2.408321381
-9.7774086 -10.78703022 0.3394334614
-10.81523228 -12.76758385 0.752809763
-16.38124847 -23.24238396 1.44183445
-16.20604515 -23.12003136 2.385410547
-16.12554932 -23.04355812 3.328748226
-6.235553741 -4.306603909 1.791457891
-5.624195099 -3.156093121 1.800949693
-5.57793951 -3.080801964 1.948694348
-5.548774242 -3.039752007 2.100791931
-5.578492641 -3.110556841 2.284991264
-5.512108803 -2.996063471 2.415368319
-9.817142487 -10.7634697 0.3417274952
-10.88609123 -12.77950382 0.7545087934
-16.51649094 -23.29237175 1.447705507
-16.35082626 -23.18992043 2.396057606
-16.25294304 -23.08168411 3.340946674
-5.641098976 -3.153772116 1.802615762
-5.596389294 -3.082065821 1.951296329
-5.598547459 -3.099399567 2.11872673
-5.563589573 -3.046113253 2.269019365
-5.516842842 -2.971782684 2.410346508
-9.860617638 -10.74678612 0.3435607255
-10.96049213 -12.80291462 0.7558247447
-18.45123672 -26.98013687 3.715346098
-5.66429615 -3.161468267 1.806140065
-5.648971558 -3.147464514 1.967666626
-5.588761806 -3.047030449 2.108023405
-5.551177979 -2.989050627 2.255019903
-5.478671074 -2.866125345 2.37770319
-9.89248848 -10.7089529 0.3467526138
-11.04140377 -12.84306049 0.7566305995
-30.21323967 -47.92992783 1.822733998
-27.69095612 -43.83379364 5.312654018
-5.784641266 -3.33796525 1.668477774
-5.682419777 -3.162856817 1.80837822
-5.689973831 -3.1900208 1.979221106
-6.023302078 -3.829952955 2.310996771
-5.518654346 -2.896630764 2.230286837
-5.501668453 -2.877574444 2.38473773
-9.933871269 -10.68849468 0.3488023579
-11.0727911 -12.78701973 0.759930253
-30.39294052 -47.85389328 1.832097292
-32.80247879 -52.67153168 4.02869463
-11.40185261 -13.59082031 2.469941616
-5.810997486 -3.352959156 1.672281504
-5.99033308 -3.697387457 1.903971195
-5.707029343 -3.187378883 1.981102228
-6.028698921 -3.80027771 2.306586981
-5.594957352 -3.006971121 2.266100407
-5.483244896 -2.811203003 2.365285635
-9.966398239 -10.65221119 0.3518629372
-11.18031597 -12.86229897 0.7600625157
-30.46644402 -47.58672333 1.838542342
-11.43503189 -13.53149414 2.469658375
-5.821781635 -3.33564806 1.671938062
-5.983607292 -3.646890879 1.897525311
-5.732550621 -3.200198412 1.98634088
-5.646707058 -3.055246353 2.118172407
-5.54667902 -2.883362532 2.232246399
-5.524352551 -2.856286287 2.383841276
-10.01844501 -10.64600754 0.3529963791
-11.26450348 -12.8999939 0.7610411048
-30.62417603 -47.45265961 1.847484946
-11.4868536 -13.50032902 2.472315788
-5.839419365 -3.332634687 1.673433781
-5.993567467 -3.625487804 1.896282792
-5.691741943 -3.090213537 1.965113997
-5.653002262 -3.033852339 2.115376472
-5.609884262 -2.967668533 2.260460615
-5.54450655 -2.860368252 2.38861227
-10.05763912 -10.62163353 0.3552567661
-11.30804348 -12.85938168 0.7640353441
-30.58722305 -47.39318848 3.783360481
-5.866743088 -3.332320452 1.504910231
-5.869409084 -3.349947691 1.677799106
-6.013172626 -3.623528242 1.89834547
-5.653291702 -2.987849236 1.945304155
-5.645714283 -2.986465931 2.105980158
-5.660404682 -3.02576375 2.281097651
-5.57787323 -2.889910698 2.402004719
-10.08182144 -10.58034801 0.3585288227
-11.3581028 -12.84703445 0.7660441995
-5.838672638 -3.249724865 1.49848938
-5.870091438 -3.31988287 1.675441742
-5.992417812 -3.55122304 1.887851596
-5.663290501 -2.975395918 1.944869995
-5.667387962 -2.996585846 2.111054659
-5.815260887 -3.27583766 2.359281778
-5.576534271 -2.857630014 2.394017935
-10.13077259 -10.57304382 0.3596595526
-11.44289684 -12.88373184 0.767052412
-32.1986618 -49.4597702 3.927348375
-5.838359356 -3.215477943 1.496755958
-5.886748314 -3.314941645 1.676699996
-5.923391819 -3.392613411 1.862095594
-5.670050144 -2.9556849 1.942971349
-5.64471674 -2.924167871 2.094961643
-5.732622147 -3.093643188 2.30749321
-5.584042549 -2.84008193 2.391252756
-10.18276119 -10.56610489 0.3607867956
-11.50031662 -12.86674118 0.7694526911
-32.57307434 -49.70530701 3.956269503
-5.830899715 -3.16918087 1.493839264
-6.763940811 -4.817300797 1.884895682
-5.98332119 -3.463008881 1.876965404
-5.681548119 -2.944515705 1.942939639
-5.6807971 -2.95513463 2.105896235
-5.641149521 -2.898619175 2.25155282
-5.592395306 -2.824198246 2.389060497
-10.23478603 -10.55893707 0.3619151115
-11.58399677 -12.89437103 0.7707800865
-31.22789764 -46.95694733 3.816248655
-5.847775936 -3.163993835 1.494969249
-6.778906345 -4.794833183 1.884589553
-6.080952644 -3.595999718 1.903234482
-5.703421116 -2.949975729 1.94669044
-5.541231632 -2.677587509 2.036170721
-5.603196621 -2.811255932 2.388053894
-10.2726326 -10.53210449 0.3642645776
-11.65541363 -12.90577126 0.7724033594
-29.18378448 -43.05672836 3.608824253
-5.912229061 -3.25421381 1.674376369
-6.16770649 -3.707798958 1.925878167
-6.073998928 -3.559313059 2.083678484
-5.542033672 -2.649983168 2.031513214
-5.573706627 -2.716320515 2.202414274
-5.610133171 -2.791635752 2.384729624
-10.3062849 -10.49828529 0.3670489192
-11.73109341 -12.92371845 0.7738724947
-11.80503845 -13.24115753 2.485532522
-5.886572361 -3.177118063 1.665637851
-5.864276886 -3.163007975 1.998865485
-5.560277939 -2.652785301 2.034836769
-5.595023155 -2.723920822 2.207691431
-7.698213577 -6.385083199 3.641894579
-10.35521889 -10.49004078 0.3681747615
-11.75658417 -12.85728931 0.7773236036
-31.66378021 -46.53764343 3.836377382
-11.73247051 -13.00607014 2.467916727
-5.914905071 -3.192608595 1.669728518
-5.958940029 -3.291812181 2.030071497
-5.655330181 -2.786813259 2.072810173
-5.58818388 -2.682975531 2.198126078
-7.705344677 -6.338461399 3.632246733
-10.40522385 -10.48329449 0.3691920936
-11.85415077 -12.91061878 0.7779613137
-29.83323288 -42.75497818 1.861580968
-29.29332924 -42.20153427 3.599471331
-11.79009914 -12.99242592 2.472019911
-6.054019451 -3.393976212 1.699811578
-5.861935616 -3.082553387 1.820504069
-5.846571922 -3.068303823 1.983065963
-5.688971996 -2.814368725 2.082830191
-5.594799042 -2.66546011 2.195718288
-5.792814732 -3.014737844 2.473110676
-10.45318031 -10.47292995 0.3704290688
-11.88765907 -12.85757732 0.7810773253
-30.1566143 -42.94474792 1.874659538
-29.75707817 -42.63085938 3.637784719
-11.87442875 -13.02295971 2.480524778
-6.012820721 -3.291262865 1.687479377
-5.871752739 -3.067373991 1.820012093
-5.853361607 -3.048118114 1.981166959
-5.705898762 -2.813232422 2.085299015
-5.624961376 -2.687863827 2.205606699
-5.784081459 -2.968544245 2.460505486
-10.48333454 -10.43346977 0.3735182881
-11.97324181 -12.88965321 0.7822150588
-29.99792671 -42.34330368 1.873699784
-6.863797665 -4.648504734 1.652361035
-5.980181217 -3.204190016 1.677261829
-5.928412914 -3.130031347 1.833690405
-5.78416872 -2.901662827 1.950995564
-5.72385025 -2.813693523 2.088214159
-5.639450073 -2.683541536 2.207298756
-5.776033878 -2.924109459 2.448464155
-10.52594376 -10.41429043 0.3752928674
-11.98123074 -12.79550457 0.7862504125
-30.34078598 -42.56188965 1.887357116
-6.050848961 -3.274586439 1.517252088
-6.053351402 -3.292072535 1.691665769
-5.807591915 -2.910312414 1.955472946
-5.737802982 -2.807397366 2.089349031
-5.682841778 -2.727190971 2.223872662
-6.834102154 -4.657253742 3.064861536
-10.57061291 -10.39834499 0.3768465817
-12.14536667 -12.95252228 0.7845386863
-30.42658424 -42.3626709 1.893479705
-30.81541061 -43.33138275 3.719934225
-6.065389633 -3.265589237 1.518026114
-6.081459999 -3.305030346 1.695558667
-5.995669842 -3.176762581 1.846917272
-5.674533844 -2.662356615 1.902196407
-5.680799961 -2.684454203 2.059278965
-5.700498104 -2.727606297 2.227113008
-5.87694931 -3.030454397 2.493426561
-10.6152668 -10.38221931 0.3783988357
-12.17016506 -12.88513184 0.7879471183
-30.58242798 -42.2934761 1.901469946
-30.02584457 -41.71934509 3.637852907
-6.070767403 -3.243449211 1.5173949
-6.900535107 -4.596028328 1.881118894
-5.975635529 -3.112399817 1.837473273
-5.770694733 -2.792168856 1.933803558
-5.695332527 -2.679968834 2.060835838
-5.707093239 -2.709801912 2.224702835
-5.874037266 -2.996156454 2.484825134
-10.67274666 -10.38614368 0.3786561191
-12.22753048 -12.87498474 0.7899537086
-6.072522163 -3.214107513 1.516111851
-5.968052864 -3.070482016 1.83199203
-5.701821804 -2.652198315 1.90461719
-5.680543423 -2.629380941 2.049860954
-5.700801849 -2.672644377 2.216085196
-5.881611347 -2.977805376 2.482060432
-10.71525574 -10.36626434 0.3804220855
-12.32954597 -12.92390633 0.7908213139
-12.20071793 -12.95019913 3.081933975
-5.849713802 -2.850735188 1.793706417
-5.758942604 -2.715965033 1.921547413
-5.685211658 -2.607946396 2.046973944
-5.748938084 -2.722204208 2.234750986
-5.989807606 -3.122159004 2.537439108
-10.75426197 -10.33657455 0.3828242421
-12.34975529 -12.84449005 0.794552207
-28.53953934 -38.40752792 3.478120089
-7.681141376 -5.681324959 1.771190405
-7.039644718 -4.68887043 1.902716279
-5.85604763 -2.830276489 1.792265534
-5.752285957 -2.675935507 1.91505444
-5.699086189 -2.601383209 2.048103094
-5.731430531 -2.6645751 2.220014095
-6.003519535 -3.111103296 2.537639856
-10.79554462 -10.31471252 0.3846880794
-12.43677902 -12.87401581 0.7957596183
-28.85485077 -38.58237839 3.502012253
-5.866510391 -2.816488028 1.792059541
-5.772737026 -2.679107428 1.918402791
-5.804077625 -2.740106106 2.08856225
-5.853811741 -2.829388857 2.275300503
-5.970305443 -3.025506735 2.511059999
-10.84443283 -10.30438805 0.3858026266
-12.45846844 -12.80267334 0.7991876006
-28.981493 -38.47652817 3.50828886
-7.105695248 -4.686695576 1.674516082
-7.088101864 -4.676474094 1.906765938
-5.890128136 -2.824711561 1.795853496
-5.801086426 -2.69581461 1.924755573
-5.746526718 -2.621755838 2.059245586
-5.827400684 -2.758972168 2.256408215
-5.878441811 -2.850176334 2.451797485
-10.88562679 -10.282197 0.3876600266
-12.56556511 -12.86160088 0.7997517586
-28.67129517 -37.70106125 3.473391533
-7.726992607 -5.599360466 1.771100283
-7.041639328 -4.562164307 1.893043876
-6.592926025 -3.882978201 1.996487498
-5.734863758 -2.565495968 1.897324562
-5.806233406 -2.687500477 2.080053568
-5.853711128 -2.771762609 2.263788223
-5.888426781 -2.836764097 2.450743198
-10.91901398 -10.24821091 0.3902543187
-12.68756008 -12.94161034 0.7998728752
-29.43623161 -38.2758522 1.890542507
-7.619661331 -5.38613987 1.751740217
-7.032431602 -4.506422997 1.887757182
-5.769409657 -2.59210515 1.905944943
-5.840991974 -2.713602543 2.090129852
-5.908452034 -2.828233004 2.285104752
-5.910776615 -2.84263134 2.45668149
-10.9478054 -10.20749283 0.3932623267
-12.75130749 -12.93283272 0.8019269705
-29.35289001 -37.85568619 1.891052246
-29.11844254 -37.79353714 3.504403114
-7.610809803 -5.325063229 1.748054862
-5.943067074 -2.820578575 1.801964998
-5.869786739 -2.718712807 1.937774062
-5.836538315 -2.679116726 2.083621264
-5.855035782 -2.717568159 2.253271341
-5.952990532 -2.878870964 2.473706245
-10.99428082 -10.19319534 0.3945745528
-12.84973907 -12.97518921 0.8028814793
-29.85928726 -38.31785583 1.909614921
-29.96477699 -38.7702446 3.578182697
-7.743971348 -5.47811079 1.766717792
-5.992342472 -2.856862783 1.65134573
-5.960391045 -2.818494797 1.803899765
-5.889963627 -2.721741438 1.941106558
-5.795455933 -2.589347124 2.061841249
-5.853865623 -2.688113689 2.247224808
-5.97559166 -2.884438992 2.479657412
-11.04075718 -10.17870235 0.395886302
-12.92836571 -12.98724365 0.8044906259
-29.80293465 -37.94081879 1.910902977
-29.44107819 -37.69264984 3.523669004
-6.003222942 -2.844744444 1.651553154
-6.034710884 -2.90180707 1.822068214
-5.971074581 -2.816227198 1.965771675
-5.86791563 -2.672107458 2.087636709
-5.809905052 -2.594242573 2.220495462
-6.009840488 -2.907461882 2.492034674
-11.08721638 -10.16402245 0.3971961737
-13.02299595 -13.02202415 0.8056204915
-30.06777573 -38.03871155 1.922076821
-28.63782692 -36.31201172 5.022014618
-6.014050007 -2.832596779 1.651757479
-5.947959423 -2.753599167 1.953878164
-5.871706486 -2.65067625 2.084700823
-5.799591541 -2.552186251 2.210280657
-6.012532711 -2.88248682 2.4868958
-11.12651157 -10.13468266 0.3994413614
-13.07954693 -12.99537659 0.8081415296
-29.76139641 -37.28857803 1.915675879
-30.22292709 -38.24766159 3.585370302
-28.86583138 -36.35401535 5.043514729
-7.100327492 -4.403221607 1.886925101
-6.080657959 -2.911118507 1.828822136
-6.010773182 -2.817655802 1.971754074
-6.033809185 -2.863233805 2.147003651
-5.807919025 -2.53710556 2.208879948
-11.1729002 -10.11964703 0.4007458985
-13.12563515 -12.95867443 0.8107702136
-30.07428551 -37.45635986 1.928321362
-28.97304153 -36.2317543 5.046890736
-7.195007324 -4.50190258 1.904495358
-5.977042198 -2.730625391 1.796649456
-6.03587532 -2.826566935 1.976639628
-5.903605938 -2.64292264 2.088742256
-5.984446049 -2.772027493 2.288210392
-6.010649681 -2.8210783 2.472535372
-11.21813297 -10.10278225 0.4021528363
-13.17157745 -12.92182541 0.8133901358
-30.07432938 -37.45207596 3.560807943
-28.37735558 -35.09305573 4.941773891
-6.064660072 -2.83089757 1.818316579
-6.113249302 -2.911445141 1.999489069
-5.925849915 -2.648810625 2.093448639
-5.923254013 -2.654577255 2.253661394
-6.01502037 -2.799386263 2.468540907
-11.26679516 -10.09063339 0.4032469988
-13.29342175 -12.99269485 0.8137792349
-6.291802883 -3.120770693 1.703211665
-5.977566242 -2.677275896 1.791084528
-6.204633236 -3.015202522 2.026960135
-5.963639259 -2.677050114 2.104467392
-5.949861526 -2.666585445 2.261054754
-6.035482407 -2.80137682 2.473320723
-11.30620384 -10.06525898 0.4051660597
-13.41008759 -13.05473042 0.8143663406
-7.082334042 -4.193669796 1.430313468
-6.843985081 -3.880224705 1.81979537
-5.974205971 -2.645807028 1.787347555
-6.051667213 -2.767566442 1.971006751
-6.001656532 -2.70506525 2.115497828
-5.930416584 -2.611737967 2.246672153
-6.096612453 -2.863538504 2.500323534
-11.34668827 -10.04136848 0.4069768488
-13.42831993 -12.9828558 0.8175989985
-44.70893097 -56.86318588 2.401827812
-7.168444633 -4.27950716 1.437577486
-7.592558384 -4.89254427 1.725934625
-6.97726965 -4.033890724 1.845686793
-6.02228117 -2.689181328 1.798024774
-6.11853075 -2.835637569 1.990065694
-6.079445362 -2.790802002 2.142750025
-5.984016418 -2.663673878 2.26700449
-6.081353664 -2.813370228 2.485781908
-11.38242149 -10.01085281 0.4091928601
-13.5385952 -13.03421497 0.818413794
-44.93801498 -56.7579422 2.413336039
-7.239840508 -4.341408253 1.443430424
-7.429043293 -4.620057106 1.698996544
-6.022230148 -2.662501812 1.795224786
-6.136077404 -2.832728386 1.992286444
-6.093428612 -2.783180237 2.143881083
-6.015308857 -2.68163681 2.276487112
-6.037259102 -2.722638607 2.455981255
-11.41804314 -9.980217934 0.4114022851
-13.64237976 -13.07026482 0.8196406364
-29.59985352 -35.15003967 1.929863691
-7.237104416 -4.299087524 1.442471147
-7.464520454 -4.628878117 1.702481627
-6.089693069 -2.730734825 1.810994267
-6.144530773 -2.816947699 1.991438746
-6.114797115 -2.784574032 2.147755146
-6.06201458 -2.730695009 2.463099718
-11.4523592 -9.947857857 0.4137061536
-13.77718163 -13.15271664 0.819857955
-29.75871277 -35.09127426 1.937681437
-7.254942894 -4.283687115 1.443367481
-7.615419865 -4.79505825 1.723342896
-7.17258358 -4.196500778 1.878919363
-6.253985882 -2.931169987 1.852984786
-6.107801914 -2.736878633 1.975265384
-6.109509468 -2.749877214 2.14119935
-6.37725687 -3.134832859 2.433772087
-6.058682919 -2.697643995 2.454998493
-11.49485779 -9.926634789 0.4152911305
-13.87115288 -13.17805386 0.8212260008
-7.480489254 -4.567959785 1.701021194
-7.292937756 -4.324863434 1.901538849
-6.187135696 -2.819877386 1.998216391
-6.122230053 -2.740556955 2.14187026
-6.435265541 -3.185687542 2.454796791
-6.091267109 -2.716417074 2.466228247
-11.55110455 -9.919880867 0.4159585536
-13.96067238 -13.19647598 0.8227359653
-29.06307602 -33.62936783 1.920518637
-7.226783752 -4.196108818 1.884736657
-6.079283714 -2.635570288 1.799761534
-6.143508911 -2.732552767 1.980060577
-6.218437195 -2.846293926 2.175585508
-6.720115185 -3.549051762 2.579914808
-6.186680317 -2.821805 2.510361195
-11.60193729 -9.909469604 0.416832149
-14.05170059 -13.21100998 0.824418664
-29.23109818 -33.60401535 1.928393483
-28.59506989 -32.99065399 3.38102603
-7.465258598 -4.467742443 1.695033669
-6.285737514 -2.890585899 1.852878451
-6.107426167 -2.656668901 1.964567542
-6.151652813 -2.72603035 2.144598484
-6.43483305 -3.123508692 2.442796707
-6.498743534 -3.223401785 2.667370796
-11.6491766 -9.894054413 0.4180079401
-14.13089275 -13.21413136 0.8262315989
-29.10140991 -33.18141174 1.926655531
-7.475625038 -4.442588806 1.694773078
-7.433472633 -4.398507595 1.92226243
-6.135056496 -2.658034325 1.809316158
-6.153630733 -2.69317317 1.976387024
-6.215124607 -2.785570383 2.165208578
-6.440854073 -3.102100849 2.439888716
-8.014593124 -5.261992931 3.449546099
-11.68431664 -9.862541199 0.4201866686
-14.24161339 -13.2633543 0.82706213
-29.31775475 -33.22099304 1.936066508
-28.91954231 -32.93215561 3.401480913
-7.428514004 -4.340917587 1.685951352
-6.461864471 -3.060674191 1.716992378
-6.223567963 -2.752056837 1.830518723
-6.138035774 -2.645943642 1.967798114
-6.252859116 -2.810781717 2.175829411
-6.433430195 -3.06415844 2.431204557
-6.627349854 -3.337130785 2.720649719
-11.73204231 -9.851366997 0.4210582376
-14.35524273 -13.31011009 0.8280448318
-29.36623383 -33.03839874 1.940035582
-29.06866074 -32.88431931 3.410513639
-7.326730251 -4.168104649 1.669062138
-6.488102913 -3.068169832 1.720408916
-6.224430084 -2.726610661 1.828019023
-6.117437363 -2.592586994 1.957650781
-6.284447193 -2.825918436 2.18377161
-6.431092739 -3.031978369 2.42463088
-6.412877083 -3.017577648 2.603130579
-11.77189636 -9.825904846 0.422827214
-14.38640213 -13.24847126 0.8310985565
-17.62580299 -17.5006237 1.560044765
-17.5756321 -17.56402969 2.369513273
-7.360054016 -4.175239086 1.672315121
-6.499524117 -3.05444932 1.720639944
-6.41818285 -2.956297636 1.876903176
-6.148524761 -2.60833478 1.964465857
-6.365375042 -2.906235456 2.210793972
-6.447116852 -3.024568081 2.426395416
-6.394450665 -2.964273691 2.587362051
-11.81353092 -9.798857689 0.4246888459
-14.44913197 -13.22281551 0.8335493207
-17.65561104 -17.40689659 1.562295079
-17.58761406 -17.44651031 2.368186474
-7.41164732 -4.205917835 1.678259134
-6.504862309 -3.032812834 1.719625235
-6.434011936 -2.949093103 1.878244877
-6.155996799 -2.59266758 1.963563919
-6.419324875 -2.948254585 2.226976871
-6.466619015 -3.021714211 2.42972517
-6.411375046 -2.958451033 2.58983779
-11.86123371 -9.779512405 0.4260486066
-14.50320339 -13.18585682 0.8362032175
-17.72005272 -17.35172272 1.565731168
-17.63024139 -17.3629837 2.369517088
-6.469609261 -2.957192898 1.710182548
-6.312170506 -2.761217833 1.843070865
-6.195030212 -2.6170156 1.972738743
-6.374264717 -2.859949589 2.20498085
-6.432439327 -2.95659399 2.594116688
-11.92066002 -9.778668404 0.4262199998
-14.70184231 -13.33764553 0.8352424502
-17.79169083 -17.30576515 1.569397926
-17.69331932 -17.30616379 2.372695446
-27.43203545 -29.86809731 4.616351604
-6.332811356 -2.760120392 1.845683217
-6.229482651 -2.63490653 1.980377316
-6.260225773 -2.684586525 2.156983614
-6.34122467 -2.798797607 2.362762213
-6.469801426 -2.97587204 2.606652021
-11.95781422 -9.749388695 0.4281713963
-17.86002731 -17.26202202 1.572889566
-17.77643204 -17.28147125 2.377790928
-27.75292969 -30.05664253 4.653295517
-7.307174206 -3.972332239 1.876938939
-6.343133926 -2.746964693 1.845716119
-6.257458687 -2.645336628 1.986056328
-6.294202328 -2.702437162 2.165834904
-6.321037769 -2.745878696 2.348796606
-6.540528297 -3.039331436 2.636269808
-12.00859737 -9.737134933 0.4290344417
-15.09270477 -13.62506962 0.8337337375
-17.95620918 -17.25965309 1.577234864
-17.85459137 -17.2501545 2.382442236
-7.664699554 -4.379629612 1.708523631
-6.387543201 -2.777262926 1.854669094
-6.240158081 -2.598949432 1.977375746
-6.324741364 -2.715487957 2.173327446
-6.558264732 -3.034994364 2.639315605
-12.04310513 -9.704433441 0.4311729074
-15.09939766 -13.53521156 0.8371905088
-18.089468 -17.29642677 1.582870126
-17.91587257 -17.20384789 2.385704279
-7.686797142 -4.369645596 1.71002984
-7.413791656 -4.037119865 1.89346242
-6.451144695 -2.832591295 1.868704319
-7.601183414 -4.299149036 2.408301115
-6.540194035 -2.964574337 2.250992298
-6.529306889 -2.959995031 2.430712938
-6.650901794 -3.124821901 2.679599285
-12.09325314 -9.694836617 0.4318370521
-15.41257 -13.81963634 0.8339532018
-46.45418549 -52.31154251 2.525075912
-17.95641327 -17.12520027 2.387008667
-7.704231262 -4.355640411 1.710944414
-6.412486553 -2.757268667 1.855977774
-6.241935253 -2.552256823 1.971638918
-6.482305527 -2.863686085 2.224787474
-6.570291996 -2.983981133 2.443465233
-6.574331284 -3.000030994 2.635400057
-12.13770199 -9.674232483 0.4331845045
-15.2894392 -13.56931877 0.8402889967
-18.00473976 -17.06302071 2.389131069
-7.7012887 -4.314468384 1.708825469
-6.414710522 -2.735142708 1.854056358
-6.293179989 -2.591536999 1.984691501
-6.480194092 -2.835317135 2.219964266
-6.576046944 -2.974029779 2.630202532
-12.1819725 -9.645812035 0.4350131452
-15.31432533 -13.48183537 0.8440375328
-18.08546066 -17.01529694 2.393682003
-7.469830513 -3.999392986 1.896956444
-6.47147131 -2.775461674 1.865693808
-6.497601032 -2.826125383 2.221661806
-6.54672718 -2.896134377 2.422405958
-6.59754324 -2.968784809 2.633972645
-12.22504234 -9.623304367 0.4364501238
-15.95332527 -14.15248775 0.8340830207
-43.15323257 -47.13284302 2.42574358
-18.18201828 -17.00579071 2.399976254
-7.604046345 -4.116104126 1.691244006
-7.613601685 -4.140633106 1.923206687
-6.435657024 -2.705229998 1.85387969
-6.564519405 -2.882000685 2.242449045
-6.558745384 -2.883733273 2.422574282
-6.654206753 -3.011204243 2.655977726
-12.25269127 -9.582230568 0.4390436411
-15.9877882 -14.087533 0.8372024894
-43.2922821 -46.96027756 2.433552027
-18.29266739 -17.0127697 2.407510519
-7.719041348 -4.220009327 1.706170917
-7.626117706 -4.119972706 1.923120499
-6.489526749 -2.74520421 1.865110278
-6.473012447 -2.733200788 2.031046391
-6.556769371 -2.84543252 2.235365391
-6.565839291 -2.865310669 2.420639992
-6.634115696 -2.95836401 2.640118361
-12.3097353 -9.576249123 0.4394095242
-16.84208679 -14.99989986 0.8232954741
-43.32281876 -46.98070145 4.613875866
-7.724147797 -4.189830303 1.705281258
-7.601846695 -4.05496645 1.915732026
-6.463249207 -2.687431574 1.855833769
-6.486918926 -2.724149227 2.032098293
-6.660074234 -2.9443295 2.26944828
-6.607109547 -2.888665199 2.433405399
-6.685064793 -2.992952347 2.659179211
-12.35909367 -9.560858727 0.4403545558
-16.9774437 -15.04806042 0.8245533705
-7.54668045 -3.953621149 1.902276754
-7.18287611 -3.538329124 2.245452404
-6.725615025 -2.996050119 2.289376497
-6.616626263 -2.873091221 2.432519674
-6.900790215 -3.22832346 2.758788109
-12.41623211 -9.554364204 0.4407235682
-17.67162895 -15.75736427 0.814381659
-42.89820862 -45.81921005 4.564961433
-18.18795586 -16.55440903 3.193816185
-7.603133678 -3.98643446 1.910977721
-6.497724056 -2.679028034 1.859675884
-7.174437046 -3.496645927 2.238852978
-6.855689049 -3.125698805 2.333108902
-6.589635372 -2.81502986 2.416350603
-6.787112713 -3.06176734 2.697307825
-12.45729256 -9.532487869 0.4420511425
-17.86751366 -15.86890793 0.8146711588
-56.2293129 -60.77160645 2.883141994
-28.93676567 -29.05055237 3.333360672
-18.20880508 -16.45560646 3.191316605
-6.567465782 -2.73630929 1.874794483
-7.191018581 -3.485090971 2.240043402
-7.092527866 -3.379135609 2.415425777
-6.664535999 -2.877943039 2.44332552
-6.693137169 -2.920998096 2.645848751
-12.49359131 -9.501332283 0.4439469278
-17.96636772 -15.8657198 0.8169261813
-29.17479515 -28.91778183 1.970157504
-54.19011307 -58.36429214 5.543257236
-18.26017952 -16.39323044 3.193189144
-14.55578327 -12.08521557 3.27227807
-7.184733391 -3.446541548 2.234204054
-6.941520214 -3.170112133 2.355668068
-6.731204987 -2.930045128 2.466641426
-6.584693432 -2.764877796 2.587814808
-12.54420662 -9.486626625 0.4447903335
-25.82946587 -24.79707527 0.6695004106
-29.21570396 -28.75543213 1.973439097
-28.94818687 -28.64321899 3.327013254
-18.31909752 -16.33976364 3.196149588
-22.33268738 -21.06303787 4.789245129
-6.609442711 -2.734035492 1.880301714
-7.208790302 -3.443895817 2.237729549
-6.944344521 -3.144509315 2.352278471
-7.898948193 -4.277097225 2.953830242
-6.587589264 -2.742159843 2.583733797
-12.59088135 -9.467184067 0.4459178448
-25.95574188 -24.76133537 0.6734644175
-29.44911385 -28.81455994 1.983255267
-29.71833229 -29.32313156 3.390681744
-18.3986702 -16.3101902 3.202039957
-15.14010811 -12.579072 3.37348175
-6.636272907 -2.739472866 1.884507537
-7.189396381 -3.390566349 2.227962732
-7.101640701 -3.29920125 2.40489769
-6.585401535 -2.713660955 2.577270746
