# .PCD v0.7 - Point Cloud Data file format
VERSION 0.7
FIELDS x y z
SIZE 4 4 4
TYPE F F F
COUNT 1 1 1
WIDTH 1266
HEIGHT 1
VIEWPOINT 0 0 0 1 0 0 0
POINTS 1266
DATA ascii
-5.340902805 -11.56534958 3.257964373
-5.339599133 -11.69750023 3.740238428
-5.33568716 -11.81712914 4.235599518
-5.315123081 -11.84182358 4.720522404
-6.734113693 -18.89605522 0.3112153709
-8.074513435 -27.37607765 0.9731060266
-5.48602581 -11.68034363 1.486284494
-5.453946114 -11.60330296 1.926208138
-5.451647758 -11.7177639 2.381928921
-5.402767181 -11.54589939 2.809243202
-5.384075165 -11.55648804 3.260024071
-5.368598938 -11.60563564 3.724655151
-5.363908768 -11.71622181 4.214672565
-5.364854813 -11.87091064 4.733271122
-6.799451828 -18.86313438 0.3158780634
-8.174657822 -27.36985397 0.978495419
-5.546429634 -11.77589512 1.491874576
-5.501306534 -11.61990547 1.930179477
-5.497467995 -11.73654842 2.38683486
-5.460857868 -11.63284206 2.824568033
-5.446204185 -11.67020035 3.283396482
-5.411910534 -11.59660149 3.726652861
-5.412275314 -11.73785782 4.224222183
-5.42079401 -11.93978119 4.757420063
-6.879390717 -18.91667747 0.3171051145
-8.238846779 -27.15029335 0.9847598076
-5.583436966 -11.72521687 1.492959023
-5.567153931 -11.74859238 1.941627979
-5.520236492 -11.59764385 2.375827074
-5.499229908 -11.59232903 2.822390318
-5.495895386 -11.69990444 3.292248726
-5.451252937 -11.5622673 3.72335434
-5.448916435 -11.68251228 4.214770317
-5.467044353 -11.94181156 4.762602806
-6.963160992 -18.98959351 0.317578882
-8.340650558 -27.15727997 0.9900524616
-5.630426407 -11.73554325 1.49593997
-5.620438099 -11.79626274 1.947737455
-5.578401089 -11.67862606 2.387269497
-5.551737309 -11.63970852 2.832355261
-5.546444416 -11.73330593 3.301791191
-5.496567249 -11.56648159 3.728194952
-5.496447086 -11.69806194 4.222896099
-5.51004982 -11.9227562 4.761812687
-7.048888683 -19.07003593 0.3177739978
-8.48177433 -27.38646698 0.9945203662
-5.686332703 -11.79691505 1.500541449
-5.64046669 -11.77896786 2.400756598
-5.605580807 -11.69273472 2.843150616
-5.590174198 -11.72372246 3.303878784
-5.550161839 -11.62076664 3.743644953
-5.544429779 -11.71534634 4.231504917
-5.574894905 -12.04039001 4.800142765
-7.133425713 -19.14029121 0.3183841407
-8.535391808 -27.11895752 1.000832915
-5.748224258 -11.88955021 1.506167293
-5.721580029 -11.8535862 1.957502484
-5.699195385 -11.85549545 2.411862373
-5.661828041 -11.75725079 2.855593443
-5.6387887 -11.74313927 3.311060905
-5.600613594 -11.65358067 3.754625082
-5.591283321 -11.72478294 4.238215446
-5.669849396 -12.3362484 4.889634609
-7.220311642 -19.22002411 0.3186410666
-8.618234634 -27.02060318 1.006478786
-5.796670437 -11.90320301 1.509313464
-5.774414539 -11.89275265 1.963131905
-5.76779747 -11.98467445 2.428454161
-5.702552319 -11.72977638 2.855310202
-5.693940639 -11.79926682 3.324715614
-5.670122147 -11.79619217 3.788915396
-5.674536705 -11.94853401 4.298323154
-5.720469952 -12.3544426 4.899794579
-7.303364277 -19.27582741 0.3198417127
-8.751149178 -27.19330978 1.011230707
-5.845964909 -11.9206028 1.512592554
-5.814009666 -11.8570919 1.963725209
-5.797235489 -11.89026356 2.422020197
-5.769843102 -11.85238552 2.87593627
-5.745067596 -11.82992649 3.333965063
-5.716413021 -11.79959965 3.793807268
-5.715046406 -11.91537571 4.294588089
-7.384585381 -19.31951332 0.3215185106
-8.825064659 -27.04911804 1.016990304
-5.983034611 -12.40746593 1.531093121
-5.87806797 -11.95474243 1.973371267
-5.834283829 -11.84082317 2.42021513
-5.817483425 -11.86159897 2.88083148
-5.790496349 -11.82740879 3.337430716
-5.744903564 -11.7026186 3.777409315
-5.769189358 -11.96051121 4.310416222
-7.457319736 -19.31777573 0.3249424696
-8.967043877 -27.26011467 1.021709442
-6.050324917 -12.5086174 1.537230849
-5.932117462 -11.99523067 1.979178905
-5.877964973 -11.82844162 2.422252417
-5.865221977 -11.87063122 2.88573122
-5.843770504 -11.8673687 3.348406076
-5.807755947 -11.79820061 3.801958084
-5.815766335 -11.96145439 4.315273285
-7.53633976 -19.34713173 0.3271700144
-9.048073769 -27.15457726 1.027328968
-6.030863285 -12.15809727 1.528593302
-5.99023819 -12.05509186 1.986343384
-5.973692894 -12.08953857 2.452782393
-5.924443245 -11.93983841 2.899091721
-5.879580975 -11.81219769 3.342653036
-5.870941162 -11.89156342 3.826133728
-5.929028988 -12.32514 4.410987377
-7.617609024 -19.38597298 0.3290388584
-9.137925148 -27.09586906 1.032797933
-6.085659981 -12.19617939 1.532650828
-6.04306078 -12.08532715 1.991515398
-6.026173115 -12.11768436 2.459146976
-5.977817535 -11.97570801 2.907836437
-5.932764053 -11.84984684 3.353300333
-5.920638084 -11.90961838 3.834334373
-5.972654819 -12.30258656 4.41017437
-7.699996948 -19.42841148 0.3307755291
-9.249112129 -27.14267731 1.038012147
-8.342551231 -23.18494797 1.900855184
-6.114463806 -12.20732307 2.003036261
-6.076944828 -12.1358614 2.464501619
-6.034897804 -12.02885532 2.919057131
-6.006930351 -11.99365616 3.382798195
-5.991956234 -12.0389576 3.866376877
-6.05875206 -12.50305653 4.465386868
-7.788496017 -19.49790192 0.3314988315
-9.3145895 -26.99231911 1.043379784
-8.412840843 -23.10118866 1.903239489
-8.396689415 -23.23176765 2.768095255
-6.11295557 -12.07972622 2.462086439
-6.109839439 -12.16918564 2.942625523
-6.091332436 -12.19555092 3.422511339
-6.078527927 -12.24092484 3.914099216
-7.879384518 -19.59318542 0.3311008513
-9.396949768 -26.92597008 1.048538446
-8.491890907 -23.08268166 1.907539725
-8.454801559 -23.10958672 2.765166521
-8.4526968 -23.28738213 3.644373417
-8.436697006 -23.40112305 4.533018112
-6.158816338 -12.30622864 3.44617033
-9.442757607 -28.86245918 7.483415127
-7.970525742 -19.68614006 0.3308117986
-9.502736092 -26.94631767 1.053794742
-8.558446884 -23.00525284 1.909847021
-8.563485146 -23.21096992 2.778053045
-8.526293755 -23.23921967 3.645486593
-8.492720604 -23.26566696 4.520687103
-6.227809429 -12.40837288 3.468624353
-9.547581673 -28.87212944 7.49542284
-8.051289558 -19.71156693 0.3332252204
-9.624167442 -27.03658867 1.058958769
-8.619034767 -22.88179588 1.910824299
-8.706715584 -23.46993446 2.802020073
-8.562191963 -22.99335289 3.62603426
-8.561886787 -23.17572212 4.515139103
-9.709072113 -28.86356163 6.407024384
-9.655763626 -28.87070274 7.505660057
-8.132275581 -19.7366848 0.335649699
-9.758468628 -27.18101311 1.064089298
-8.687788963 -22.79921532 1.913162827
-8.847143173 -23.70673561 2.824584246
-8.643369675 -22.9653492 3.629575491
-8.633792877 -23.10109329 4.511760712
-9.818563461 -28.86769104 6.41754055
-9.763598442 -28.86697197 7.515486717
-8.216654778 -19.7587204 0.3383556902
-9.041938782 -23.56412315 1.073371649
-8.759081841 -22.73010254 1.915944099
-8.758968353 -22.90050316 2.773931742
-8.712386131 -22.86229897 3.625489712
-8.727981567 -23.13078308 4.523246288
-9.9323349 -28.89066696 6.431508064
-9.875051498 -28.85401917 7.523947239
-8.299901962 -19.79098129 0.3405168951
-9.117291451 -23.50178719 1.078086019
-8.867594719 -22.80800629 1.924075842
-8.848913193 -22.91284943 2.78068161
-8.785675049 -22.80078316 3.625482321
-8.790679932 -22.99668312 4.511781216
-10.04210472 -28.89397049 6.442037106
-9.982128143 -28.84566498 7.532947063
-8.380278587 -19.82569885 0.342423439
-10.04308033 -27.07705498 1.080205798
-8.929945946 -22.71982765 1.925928593
-8.935454369 -22.90929413 2.786336422
-8.875753403 -22.8147068 3.633536816
-8.856785774 -22.92042542 4.507828236
-10.14770508 -28.87763786 6.449116707
-10.08998108 -28.86488152 7.547457218
-8.476186752 -19.90785217 0.3427746892
-10.12066364 -26.97041512 1.085593224
-9.029980659 -22.77650642 1.933113575
-8.966123581 -22.66441917 2.774861813
-8.953388214 -22.79242897 3.637428045
-8.947759628 -22.93570709 4.517364979
-10.25500202 -28.8686142 6.457575321
-10.20321465 -28.8824749 7.562260628
-8.559372902 -19.91878891 0.3458916247
-10.20977783 -26.91412354 1.090926409
-9.112010002 -22.75498199 1.937567472
-9.062421799 -22.70510483 2.783657789
-9.037367821 -22.76017761 3.640933514
-9.048316956 -22.99115562 4.532731056
-10.36676311 -28.8783989 6.469495773
-10.31793785 -28.88121605 7.573627949
-8.63667202 -19.92058372 0.3491659164
-10.30810928 -26.89639664 1.096236348
-9.204646111 -22.75937462 1.943211675
-9.140506744 -22.66777992 2.786916971
-9.12351799 -22.75572014 3.647120714
-9.140771866 -22.99119377 4.540577888
-10.4723711 -28.86091232 6.476571083
-10.42266273 -28.85982704 7.580148697
-8.724971771 -19.98115921 0.3501552939
-10.41408253 -26.92999268 1.10127902
-9.295780182 -22.79262352 1.949382186
-9.223704338 -22.66999245 2.792723656
-9.205104828 -22.75003624 3.652873516
-9.22358799 -22.98715591 4.547136784
-10.58460712 -28.89415932 6.492376328
-10.52889633 -28.86791039 7.592610836
-8.811484337 -20.01721382 0.3522002399
-10.49294949 -26.83397102 1.106572747
-9.392022133 -22.84492302 1.956267118
-9.325415611 -22.72899628 2.802946806
-9.443239212 -23.383564 3.727829695
-9.326070786 -23.0636673 4.565384388
-10.68756199 -28.86440659 6.497372627
-10.63679409 -28.85909271 7.602036476
-8.8944664 -20.02295113 0.3554937243
-10.58744335 -26.78107071 1.112115502
-9.483779907 -22.84240723 1.961728334
-9.462766647 -22.9103775 2.822381496
-9.552747726 -23.44411469 3.74170351
-9.375789642 -22.88765907 4.54789257
-10.80777454 -28.88271141 6.511680126
-10.75038433 -28.85045052 7.612164021
-8.979487419 -20.05057716 0.3578395247
-10.7296381 -26.93234825 1.11750555
-9.584506035 -22.87439156 1.968464017
-9.528055191 -22.81950569 2.821871281
-9.498167038 -22.85237885 3.684675932
-9.476341248 -22.91907883 4.560472965
-10.91351795 -28.86364937 6.51875639
-10.86302567 -28.85981941 7.625752926
-9.066223145 -20.09815025 0.3593159914
-10.87828255 -27.12293625 1.122721076
-9.694820404 -22.97584152 1.977249384
-9.620998383 -22.85512733 2.830249071
-9.847665787 -23.88970184 3.804377317
-9.56059742 -22.91963005 4.567863941
-11.02752495 -28.89904404 6.53529644
-10.96447086 -28.84545135 7.633648872
-9.162715912 -20.16562653 0.360267669
-10.92635059 -26.91155243 1.12787509
-9.779956818 -22.97823143 1.982431412
-9.758777618 -23.04369926 2.850157261
-9.852291107 -23.56966209 3.776234388
-9.644418716 -22.91796875 4.574976921
-11.13140678 -28.87157249 6.540980339
-11.07447147 -28.84262466 7.64474678
-9.257635117 -20.21048355 0.3621897101
-11.05946636 -27.00000572 1.133578777
-9.929156303 -23.1866436 1.995828271
-9.836146355 -22.98171425 2.852119684
-9.887601852 -23.33992386 3.758562803
-9.766201973 -23.02679825 4.599075794
-11.24932003 -28.8766346 6.553224087
-11.19363689 -28.85313797 7.659469128
-9.338084221 -20.2154808 0.3653385937
-11.10049725 -26.76905632 1.138607621
-10.02980709 -23.20907402 2.002379894
-9.972758293 -23.15756798 2.871280432
-9.883295059 -22.96809196 3.725165367
-9.891432762 -23.14460564 4.624624729
-11.35312176 -28.84838676 6.558900356
-11.3048315 -28.85324097 7.671410084
-9.417661667 -20.23081589 0.367958039
-11.25212288 -26.95953178 1.143954158
-10.22384262 -23.60348129 2.022414446
-11.59029102 -28.77697563 3.292386055
-10.00342274 -23.09798241 3.746207237
-9.993714333 -23.20679092 4.641335964
-11.46183586 -28.85925674 6.57128191
-11.40790558 -28.84303474 7.680561543
-9.514304161 -20.30547142 0.3685286343
-11.36275101 -26.98045731 1.149343252
-11.74645138 -28.7667141 2.22318244
-11.70326233 -28.78278351 3.300603628
-10.17449379 -23.4095211 3.787439346
-11.6210022 -28.85413933 5.480378628
-11.57279301 -28.85687065 6.581852913
-11.5140686 -28.84379387 7.692223549
-9.604179382 -20.34023666 0.3706510365
-11.49229145 -27.06633377 1.154871702
-11.85957527 -28.77219963 2.230149746
-11.816926 -28.79008102 3.308971167
-11.83224869 -29.03740311 4.418575764
-11.71837234 -28.80190468 5.482665539
-11.68592453 -28.86166191 6.593828678
-11.62653255 -28.84647369 7.705010414
-9.689888 -20.35927963 0.3733137548
-12.08644676 -28.75382614 1.163888216
-11.9728241 -28.77725792 2.23712182
-11.94652748 -28.85260201 3.321499825
-11.93333817 -28.99605751 4.422998428
-11.83472729 -28.81798363 5.495087147
-11.80872345 -28.90015984 6.612125874
-11.73963833 -28.85061073 7.718221664
-9.780338287 -20.39331818 0.3754651845
-11.72474003 -27.13850594 1.165807605
-12.07956028 -28.75884628 2.2432127
-12.07335663 -28.90306664 3.333194256
-12.04518795 -28.99260139 4.431671619
-11.9518404 -28.83551598 5.507801056
-11.91368961 -28.87373352 6.618501186
-11.85182095 -28.85055161 7.730599403
-9.882820129 -20.45269394 0.3769268692
-11.86777973 -27.24431229 1.171753526
-12.19817162 -28.76153755 2.250474453
-12.1924572 -28.90550995 3.341739893
-12.16009998 -28.97955132 4.439777851
-12.07054234 -28.8377285 5.518830776
-12.02429104 -28.84729767 6.625504971
-11.9693222 -28.84851456 7.743265152
-9.961829185 -20.44576645 0.3804695904
-11.87987804 -26.92962456 1.176319718
-12.31005669 -28.75955772 2.257236242
-12.30704594 -28.91094398 3.3501513
-12.27880573 -28.99814415 4.451021194
-12.1747427 -28.80871964 5.524769783
-12.13459015 -28.83902168 6.635387421
-12.07952785 -28.84007454 7.753968716
-10.05551147 -20.4863224 0.3824094236
-11.93583679 -26.78309441 1.180997252
-12.42200375 -28.75715828 2.263999939
-12.41431046 -28.90986824 3.357707024
-12.37447643 -28.93812943 4.453491688
-12.28560257 -28.80212212 5.534104347
-12.24971676 -28.8659153 6.65132761
-12.19090843 -28.83496857 7.765515804
-10.13218212 -20.48373032 0.385630101
-12.10716248 -26.99621773 1.187013865
-12.53414249 -28.77312469 2.271165609
-12.52455044 -28.89917755 3.364969492
-12.50485229 -28.99394608 4.469034195
-12.3930521 -28.80239677 5.544009686
-12.35910988 -28.85302353 6.660513878
-12.29773045 -28.83291817 7.77720356
-10.20726204 -20.46252632 0.3896277249
-7.78507328 -12.82663631 1.145339251
-7.816187382 -13.10127926 1.655872822
-12.62728024 -28.88206863 3.371366262
-12.61717033 -29.00708771 4.479374409
-12.51034546 -28.81582832 5.556472301
-12.47242546 -28.87150574 6.675064087
-12.41484737 -28.84572792 7.792967796
-10.28822899 -20.47272682 0.3924080431
-7.849155903 -12.86310005 1.148125291
-7.854789734 -13.06200695 1.657408714
-7.797497272 -12.94988823 2.160063744
-12.72492123 -28.98586655 4.486348152
-12.61920452 -28.81907272 5.566956997
-7.849343777 -13.3509798 3.774294376
-12.52416611 -28.85035515 7.806352139
-10.4043293 -20.56587219 0.3927792907
-7.878212929 -12.78879452 1.150519848
-7.937125206 -13.15336132 1.664345264
-7.829021454 -12.88133621 2.158601046
-12.82384682 -28.95454216 4.491739273
-12.73043346 -28.8108139 5.576304913
-7.878671646 -13.26939201 3.76462245
-12.6376791 -28.83071136 7.815664291
-10.50636578 -20.61283112 0.3946880996
-7.90732336 -12.70798111 1.15299499
-7.862535 -12.74287415 1.651225448
-7.892137051 -12.90510178 2.164425373
-7.963479042 -13.20977402 2.7076931
-7.895037174 -13.06558514 3.209350824
-7.905838966 -13.17383099 3.752577782
-7.83731699 -13.02954292 4.252938271
-10.60318375 -20.65487289 0.3965996802
-7.906766891 -12.54618549 1.154978156
-7.885347366 -12.64304829 1.650542617
-7.909675121 -12.79457092 2.159699678
-8.032089233 -13.24603462 2.716563463
-7.910073757 -12.93581867 3.194999695
-7.876413822 -12.91018867 3.708467245
-7.907035828 -13.08084583 4.270804882
-10.69787979 -20.70153809 0.3982024193
-7.958636761 -12.54592228 1.157592893
-7.928930759 -12.62455368 1.652828217
-7.867784023 -12.50393295 2.140942574
-7.885772228 -12.62651539 2.650108337
-7.957713127 -12.92640209 3.19835186
-7.910124779 -12.84936428 3.702574015
-7.877928257 -12.82907391 4.219583988
-10.80696106 -20.77685547 0.3990507126
-7.994662285 -12.4980545 1.159997702
-7.955307961 -12.54632282 1.652819276
-7.923853397 -12.51684093 2.145699263
-7.884716511 -12.47183037 2.636482239
-7.996083736 -12.88026524 3.196394444
-7.914297581 -12.69861698 3.67961359
-7.893980026 -12.71453667 4.199742794
-10.9075222 -20.81254959 0.4013541937
-8.006621361 -12.38002777 1.16205883
-7.9519701 -12.38091564 1.649178386
-7.964286804 -12.48221779 2.146762848
-7.911090374 -12.38745403 2.631316185
-7.890220165 -12.3979702 3.127923012
-7.969689369 -12.706954 3.686814308
-7.91710043 -12.61598778 4.183803082
-11.00661945 -20.85476494 0.4032889009
-8.042487144 -12.33396149 1.16442728
-8.172632217 -12.87160873 1.672920704
-7.977116585 -12.36621475 2.141437054
-7.93840313 -12.31516361 2.627300501
-7.91190958 -12.30067921 3.118229151
-7.879936218 -12.27804375 3.610755205
-7.921272278 -12.47001266 4.156669617
-11.09306622 -20.87145233 0.4058780074
-8.083661079 -12.31127739 1.166770577
-8.013971329 -12.26050282 1.650491953
-7.967579365 -12.19445133 2.131483793
-7.949551582 -12.20410633 2.618553877
-7.937241077 -12.2312479 3.112272978
-7.903513908 -12.20331097 3.601730824
-7.961834908 -12.44361496 4.156529903
-8.086702347 -12.89569378 4.793373585
-11.2016573 -20.95001793 0.4065029025
-8.113128662 -12.24802971 1.169024587
-8.032000542 -12.17174339 1.649763227
-8.057448387 -12.30680275 2.144099951
-7.984547138 -12.16457558 2.618072271
-7.998639584 -12.26855373 3.12269187
-7.950460434 -12.19112206 3.604927301
-8.025439262 -12.48559761 4.172105312
-8.125541687 -12.85134602 4.78859663
-11.30191898 -20.9909668 0.4084971547
-8.154234886 -12.21866703 1.171440959
-8.061673164 -12.11050034 1.650324106
-8.058767319 -12.16259289 2.136440754
-8.016386032 -12.10913181 2.615951061
-8.027722359 -12.20376873 3.117697001
-7.98265934 -12.13596249 3.59991312
-8.022139549 -12.32306671 4.141045094
-8.123545647 -12.68762875 4.751751423
-11.38493824 -20.98258209 0.4120481014
-8.196556091 -12.1929388 1.173870444
-8.086287498 -12.03603077 1.65030241
-8.108265877 -12.15770626 2.139812469
-8.049856186 -12.05925655 2.614468098
-8.074702263 -12.19125175 3.120755434
-8.048783302 -12.17925167 3.613813162
-8.036302567 -12.21429157 4.122269154
-8.087659836 -12.42881393 4.689183712
-11.50697422 -21.08095932 0.4122485518
-8.240117073 -12.17083359 1.176314473
-8.131355286 -12.01985836 1.652750492
-8.098795891 -11.98733997 2.12997365
-8.081718445 -12.00555801 2.612529993
-8.111754417 -12.1505785 3.119479895
-8.08458519 -12.13498211 3.610925913
-8.065244675 -12.14985847 4.113677502
-8.18702507 -12.56396294 4.73269701
-11.59564877 -21.07416153 0.4159120619
-8.388898849 -12.43588543 1.180486202
-8.188622475 -12.03734779 1.656649828
-8.167388916 -12.03669071 2.137678623
-8.144156456 -12.03786182 2.620689869
-8.132603645 -12.06507778 3.111253023
-8.113535881 -12.0720892 3.604444504
-8.12019062 -12.15270996 4.120961189
-8.192782402 -12.42984581 4.70361805
-11.70182705 -21.1138382 0.4181264639
-8.519706726 -12.63916683 1.184514403
-8.195362091 -11.90929031 1.654427052
-8.163435936 -11.87880421 2.128933907
-8.15824604 -11.92891407 2.61246562
-8.151791573 -11.96946335 3.101670742
-8.139034271 -11.99350834 3.595197916
-8.135688782 -12.04496002 4.102646351
-8.174612999 -12.22381496 4.655328274
-11.81441498 -21.18067169 0.4193446934
-8.414580345 -12.21517467 1.184456229
-8.191396713 -11.81736755 2.12772131
-8.192166328 -11.87601757 2.610820293
-8.254609108 -12.10434437 3.127992868
-8.205497742 -12.03594685 3.609113455
-8.176831245 -12.01711559 4.102532864
-8.179662704 -12.09371758 4.627127647
-11.92584038 -21.25405312 0.4202109277
-8.280147552 -11.92677784 2.140157938
-8.224779129 -11.83404446 2.610020876
-8.203733444 -11.83384895 3.090575457
-8.239510536 -11.99582577 3.606770277
-8.25720787 -12.1037569 4.128787041
-8.23197937 -12.10299206 4.636395454
-8.770384789 -12.82060528 0.680922389
-8.451331139 -12.05154514 1.188269615
-8.314815521 -11.82824421 1.660161495
-8.281155586 -11.8005724 2.133500338
-8.269031525 -11.82363415 2.612971306
-8.247961998 -11.8234024 3.093733072
-8.484246254 -12.52370262 3.715083838
-8.283335686 -12.0415659 4.120429516
-8.293780327 -12.13751793 4.652606487
-8.488427162 -12.02013588 1.190488458
-8.350517273 -11.79532909 1.661702037
-8.329569817 -11.80125809 2.137149334
-8.299185753 -11.77589417 2.611486673
-8.278227806 -11.77576542 3.091073036
-8.389816284 -12.13638496 3.645205021
-8.309117317 -11.97934055 4.112052441
-8.304580688 -12.03373814 4.631145954
-8.856389999 -12.75950527 0.6868302822
-8.485541344 -11.86676598 1.192202091
-8.399108887 -11.78297234 1.664467573
-8.409031868 -11.86246014 2.14634943
-8.371852875 -11.8266201 2.622215271
-8.336595535 -11.7892189 3.098537683
-8.369303703 -11.93122482 3.611551523
-8.339702606 -11.91717529 4.104326725
-8.359641075 -12.02897453 4.637804508
-8.916657448 -12.76591206 0.6887537837
-8.516792297 -11.81580925 1.194362521
-8.441113472 -11.76012516 1.66661191
-8.392811775 -11.68893909 2.135910988
-8.386137009 -11.72498322 2.614730597
-8.382950783 -11.77743721 3.10180831
-8.414031982 -11.9136858 3.61397481
-8.382434845 -11.88781643 4.104295731
-8.402842522 -11.99951744 4.637388706
-12.46883869 -21.4998436 0.4292220771
-8.576634407 -11.83724213 1.197058558
-8.514549255 -11.81061935 1.672216177
-8.465830803 -11.74585342 2.144418955
-8.439536095 -11.73164654 2.620008945
-8.442984581 -11.79410362 3.109867573
-8.434519768 -11.83363056 3.604129076
-8.441082954 -11.90658569 4.115292549
-8.445739746 -11.9762373 4.638334751
-12.57142448 -21.54058075 0.4311355054
-8.638179779 -11.86212158 1.199794412
-8.547003746 -11.76970768 1.673402071
-8.561353683 -11.85801792 2.157559395
-8.494508743 -11.74178314 2.625739098
-8.494417191 -11.8012352 3.11594224
-8.524092674 -11.93126392 3.629279852
-8.473561287 -11.86412144 4.111576557
-8.511510849 -12.01873779 4.657053947
-12.67527008 -21.57188797 0.4334991276
-8.864941597 -12.29245281 1.20579505
-8.601584435 -11.77788067 1.676972628
-8.631026268 -11.90302563 2.165201664
-8.541517258 -11.73781681 2.629568577
-8.546720505 -11.8035841 3.121556997
-8.508032799 -11.7595377 3.601341963
-8.492303848 -11.7806921 4.098513603
-8.523327827 -11.91573715 4.63610363
-12.79555416 -21.63070679 0.4352182448
-8.965600967 -12.40685081 1.209376216
-8.690882683 -11.87098217 1.684444904
-8.609041214 -11.72035599 2.153878927
-8.585521698 -11.71344185 2.631399155
-8.573311806 -11.74145794 3.116922379
-8.547782898 -11.73055935 3.601559401
-8.680988312 -12.1192379 4.185760975
-8.600930214 -11.973979 4.660055637
-12.92784214 -21.72748184 0.4356698096
-8.929950714 -12.19003868 1.210218668
-8.70419693 -11.77045059 1.68322885
-8.646968842 -11.68750286 2.155019999
-8.631725311 -11.70086288 2.634449482
-8.627001762 -11.74072838 3.122357607
-8.619054794 -11.77988625 3.617338896
-8.641141891 -11.88847542 4.137850761
-8.660211563 -11.99139595 4.672449589
-13.04067135 -21.7865715 0.4370787144
-8.754536629 -11.77334881 1.686435699
-8.683976173 -11.6526947 2.155996561
-8.696036339 -11.73223114 2.642884493
-8.668107986 -11.72147942 3.12432766
-8.638733864 -11.70137978 3.607767582
-8.680562019 -11.86358261 4.138418198
-8.723238945 -12.02385902 4.68872118
-13.1517067 -21.82876396 0.4391554594
-9.024187088 -12.15919209 1.215210199
-8.811804771 -11.78617668 1.690280557
-8.754570007 -11.69875813 2.163799286
-8.712091446 -11.70299721 3.126705408
-8.758314133 -11.86658382 3.646784067
-8.747280121 -11.89906979 4.153757572
-8.744874001 -11.94750023 4.675189972
-13.26394844 -21.87228775 0.4412002861
-9.13958168 -12.30352592 1.21914494
-8.845104218 -11.74170494 1.691463709
-8.801555634 -11.6875124 2.166794538
-8.803332329 -11.7473526 2.65382576
-8.772026062 -11.72269249 3.135260105
-8.762019157 -11.74962616 3.629579782
-8.795638084 -11.88913059 4.158326626
-8.768994331 -11.87831593 4.663629532
-13.39804554 -21.96484947 0.4418398738
-9.256840706 -12.44904804 1.22315371
-8.906395912 -11.76331329 1.695744872
-8.871163368 -11.7293005 2.174314737
-8.836549759 -11.70287228 2.653049707
-8.842150688 -11.76581764 3.147655249
-8.803066254 -11.72346306 3.630508184
-8.80857563 -11.79433346 4.142599106
-8.812062263 -11.85560322 4.665037155
-13.52490902 -22.03842735 0.4430446327
-9.21391201 -12.22351074 1.22372818
-8.948927879 -11.74060726 1.697954059
-8.918305397 -11.71762371 2.177316904
-8.85390377 -11.62176704 2.647742748
-8.857608795 -11.67938709 3.139123917
-8.852444649 -11.71708393 3.635431528
-8.833833694 -11.73019028 4.134184837
-8.870054245 -11.86844826 4.676439285
-13.63705921 -22.0766468 0.44527179
-9.302271843 -12.30052662 1.227130413
-9.005706787 -11.75074005 1.701725364
-8.973370552 -11.72406292 2.181885242
-8.956596375 -11.73956585 2.667062521
-8.980378151 -11.8437748 3.171321869
-8.883995056 -11.72530174 4.140022278
-8.930465698 -11.88638878 4.689349651
-13.75691795 -22.13079834 0.4470525384
-9.280924797 -12.12847042 1.228119731
-9.079514503 -11.79904079 1.707341313
-9.075710297 -11.83803558 2.19572854
-9.002228737 -11.72380829 2.669893265
-8.968852997 -11.69537449 3.152724266
-9.017615318 -11.85716724 3.676260948
-8.93495369 -11.72200966 4.146292686
-8.991841316 -11.90583611 4.70277071
-13.8715477 -22.17162323 0.4492194057
-9.287055969 -12.02060986 1.229688287
-9.175598145 -11.89629269 1.715349674
-9.104779243 -11.78366089 2.195131779
-9.063824654 -11.74426174 2.677258015
-9.019896507 -11.69213963 3.157757044
-9.056562424 -11.82474709 3.676105499
-9.001534462 -11.75432587 4.161229134
-9.035711288 -11.88414288 4.704677582
-13.96757698 -22.17006111 0.4525815845
-9.328761101 -11.99304485 1.232040763
-9.207103729 -11.8471384 1.716343164
-9.201763153 -11.88218975 2.207772493
-9.119977951 -11.75172806 2.683042765
-9.078188896 -11.70498085 3.165459156
-9.100124359 -11.80300236 3.678133011
-9.072331429 -11.79526329 4.178348064
-9.100452423 -11.91019344 4.720116615
-14.13448811 -22.32261467 0.4516349435
-9.354558945 -11.93078327 1.234024167
-9.402906418 -12.16206646 1.735025048
-9.233186722 -11.8329401 2.207643032
-9.207964897 -11.82966042 2.697708368
-9.163249969 -11.77716446 3.182960033
-9.144402504 -11.78290462 3.680520535
-9.126070023 -11.79659081 4.185940266
-9.195152283 -12.00324821 4.754631996
-14.37640095 -22.63399696 0.4463149011
-9.423506737 -11.96295357 1.236993909
-9.345578194 -11.9158802 1.726458669
-9.294870377 -11.85077953 2.213362694
-9.240844727 -11.78403664 2.696908712
-9.195236206 -11.7298975 3.180885792
-9.212777138 -11.81646061 3.693878651
-9.230918884 -11.91174412 4.22132349
-9.342570305 -12.21250057 4.82231617
-14.56396675 -22.82258034 0.444470644
-9.478420258 -11.96396637 1.239644051
-9.399411201 -11.91527081 1.729845762
-9.334300995 -11.81941891 2.214803457
-9.33952713 -11.88292313 2.714354038
-9.234330177 -11.69876671 3.181473017
-9.285523415 -11.85864162 3.709083796
-9.294857979 -11.93378925 4.234158516
-9.354938507 -12.11717892 4.80368185
-14.69254971 -22.88168716 0.4462350011
-9.53850174 -11.97561741 1.242417455
-9.468464851 -11.94705582 1.734847426
-9.401226997 -11.84763718 2.221488237
-9.390724182 -11.87661266 2.718582153
-9.441702843 -12.03413582 3.242789507
-9.479727745 -12.16505718 3.778553009
-9.34850502 -11.93244362 4.241352081
-14.87141418 -23.04494476 0.4451618493
-9.635529518 -12.06473351 1.246074438
-9.550526619 -12.00565147 1.74121201
-9.461671829 -11.86109161 2.226910591
-9.434399605 -11.85389042 2.72075057
-9.484282494 -12.00754738 3.244322777
-9.507946014 -12.10613346 3.773300886
-9.426689148 -11.98408031 4.261603355
-15.00058651 -23.10085487 0.4470504224
-9.752202988 -12.19303226 1.250223279
-9.638202667 -12.07466221 1.748143315
-9.596237183 -12.03116417 2.246247292
-9.488973618 -11.85439396 2.725894213
-9.59127903 -12.11874962 3.268826246
-9.482671738 -11.93313503 3.744529724
-9.529958725 -12.08843899 4.294942856
-15.0954752 -23.08415222 0.4509146214
-9.760855675 -12.21533871 1.758725643
-9.6926651 -12.11763191 2.258282423
-9.603169441 -11.9803524 2.747112274
-9.641709328 -12.10774899 3.273060083
-9.691430092 -12.26035881 3.818971872
-9.756594658 -12.45381641 4.392829418
-15.2219305 -23.13177872 0.4530361295
-17.87498474 -28.67130661 1.451539397
-9.828214645 -12.23830891 1.763456106
-9.662618637 -11.98915195 2.753435612
-9.747425079 -12.21259499 3.296733141
-9.694301605 -12.14759731 3.802678585
-9.770604134 -12.36247253 4.378322601
-15.32503319 -23.13036728 0.456479311
-18.00450325 -28.68813324 1.457581401
-20.28095627 -33.76467133 4.207271576
-9.822407722 -12.30382061 3.84182024
-15.42051601 -23.12344551 0.4598933458
-18.16960716 -28.76281548 1.464663625
-17.92188072 -28.72925949 4.924999714
-17.87242126 -28.74322128 6.093510151
-15.58380795 -23.24101067 0.4601706862
-18.30594635 -28.77764702 1.471042871
-18.04359818 -28.72878838 4.936506271
-18.0104847 -28.7630291 6.111065388
-17.97214699 -28.78804207 7.297275066
-15.68048477 -23.22385788 0.4640280008
-18.44163895 -28.79011536 1.477411389
-15.81526279 -23.79184151 2.373716354
-15.70009041 -23.64274406 3.325224876
-18.17240143 -28.72879791 4.948759556
-18.13833046 -28.76095581 6.12502861
-18.08950233 -28.76443291 7.308741093
-15.80075645 -23.25265884 0.4666691124
-18.57219505 -28.79128265 1.483655453
-15.86083889 -23.66821861 2.374169588
-15.72393417 -23.47668457 3.318626642
-18.30845833 -28.74249458 4.962871075
-18.24874496 -28.72293663 6.132985592
-18.23307037 -28.79319382 7.331290722
-15.90038681 -23.23999405 0.4703954756
-18.69654465 -28.77943802 1.489743233
-15.85690308 -23.44836426 2.36956811
-15.7728529 -23.36235237 3.3166852
-15.86565971 -23.63766098 4.307909966
-18.38923454 -28.74458504 6.151172161
-18.35943985 -28.78614807 7.346462727
-15.96144676 -23.15236473 0.4760577977
-18.82009315 -28.76530838 1.49581182
-15.83246994 -23.1914959 2.362933159
-15.87549591 -23.35451126 3.324479103
-15.89984512 -23.49285126 4.299260616
-18.51577568 -28.7373848 6.164552689
-18.4912281 -28.78911781 7.363859177
-16.0961132 -23.20638084 0.4780354798
-16.11679459 -23.32319832 1.428319335
-15.86687851 -23.05226517 2.362382889
-16.02475357 -23.43663406 3.340598345
-15.90869236 -23.30038834 4.284283161
-18.64424896 -28.73317528 6.178542614
-18.61968231 -28.78450203 7.379785061
-16.20428467 -23.20844269 0.481356889
-16.10256004 -23.09135056 1.430259228
-15.91247368 -22.93611908 2.363008261
-15.87166405 -22.93419456 3.30279541
-15.95924854 -23.19108772 4.280188084
-18.78010941 -28.74249077 6.194953918
-18.74290276 -28.76885605 7.393491268
-16.34591103 -23.26255226 0.4835138023
-19.23053551 -28.79412842 1.515068889
-15.94625282 -22.79872894 2.36246562
-15.91031837 -22.80573463 3.299383163
-15.98120308 -23.01789284 4.268117905
-18.9071064 -28.73367882 6.208353043
-18.87884712 -28.77714729 7.412396431
-16.45271683 -23.26004601 0.4869492948
-16.17845154 -22.82242584 1.436900258
-15.99737549 -22.6856842 2.363517523
-15.95978546 -22.68920708 3.29746294
-16.03030968 -22.90859222 4.263941765
-19.03573418 -28.71456146 6.220824242
-19.0092907 -28.76118279 7.427131653
-16.55679512 -23.2518158 0.4905232489
-16.25251389 -22.76218987 1.441096902
-16.05409431 -22.59416962 2.365356445
-16.0485096 -22.65752792 3.303016901
-16.26038361 -23.14136887 4.305344582
-19.17589951 -28.72913933 6.238474369
-19.14933586 -28.77524185 7.447542191
-16.64758682 -23.21856689 0.4947183728
-16.2658844 -22.60027313 1.44354248
-16.12644577 -22.53243446 2.36878705
-16.08309937 -22.53466225 3.299610615
-16.13980865 -22.71436691 4.258765697
-19.3144989 -28.73960876 6.255531788
-19.27711296 -28.77760696 7.46471262
-17.98385048 -25.46195221 0.4418976307
-16.39862823 -22.64853096 1.44930172
-16.21923065 -22.51835823 2.374467134
-16.17421532 -22.50776672 3.30563283
-16.19564629 -22.62062836 4.25660181
-19.45569801 -28.76621246 6.274755001
-19.42324448 -28.8008728 7.487382412
-18.05818176 -25.37995911 0.4475907981
-19.89159966 -28.77942657 1.54663074
-16.25952148 -22.39829826 2.374710083
-16.29778099 -22.53999138 3.317278147
-16.433918 -22.87272453 4.300463676
-19.56849861 -28.72678566 6.283328056
-19.53796005 -28.76469803 7.497394562
-18.15748215 -25.34314919 0.4521410763
-16.53034973 -22.50026131 1.457187414
-16.32811356 -22.33070183 2.377801418
-16.30539894 -22.36038017 3.308878899
-16.33428383 -22.49428749 4.259971142
-19.7020607 -28.72510338 6.298588753
-19.67144585 -28.76257706 7.514864445
-18.26455307 -25.31990623 0.4563433528
-16.58931923 -22.41452599 1.460924268
-16.45761108 -22.37286758 2.386955023
-16.39029503 -22.32214737 3.313877106
-16.45808983 -22.52526665 4.274693489
-19.83774948 -28.72629356 6.314467907
-19.81078148 -28.7702198 7.534582138
-20.11790276 -28.37232399 0.3854551613
-16.77492523 -22.55317116 1.468160272
-16.5445137 -22.33777809 2.39186883
-16.4770298 -22.28708267 3.319200993
-16.4797039 -22.37181282 4.264432907
-19.97364426 -28.72688866 6.330357075
-19.94657516 -28.77036476 7.552817345
-20.40654373 -28.64062881 0.3829824924
-16.87343216 -22.53621864 1.472993851
-16.60871887 -22.26236153 2.394542694
-16.5930481 -22.30377197 3.329521418
-16.59874725 -22.39332771 4.27797699
-20.10779953 -28.72345161 6.345643044
-20.07682037 -28.75962448 7.568816662
-18.69231606 -25.42163658 0.4649229348
-17.02783966 -22.61593628 1.479395151
-16.67749977 -22.19546509 2.397682428
-16.6758461 -22.26102638 3.334174156
-16.68394279 -22.34459114 4.282528877
-20.23825645 -28.71254349 6.359714985
-20.23224449 -28.79285049 7.594553947
-18.801054 -25.39803123 0.4691118598
-11.99081516 -13.73567009 1.339488506
-16.83568001 -22.2749424 2.409432411
-16.78335571 -22.25196075 3.342548847
-16.76295471 -22.29442978 4.286380291
-20.37203217 -28.69466019 6.373455048
-20.35836983 -28.76082993 7.607100487
-18.90170479 -25.36019135 0.4736284614
-11.75203991 -13.21050262 1.333993196
-11.79540253 -13.40017986 1.912291408
-16.85202789 -22.18438148 3.344841242
-16.88342285 -22.31626701 4.300179958
-20.52440262 -28.72032738 6.394274235
-20.4949379 -28.75858879 7.625369072
-19.34725952 -25.90547752 0.4643014669
-11.80116749 -13.18161201 1.336614609
-11.6753006 -13.1210413 2.468876123
-16.99723434 -22.32551575 4.312333107
-20.6553421 -28.7076664 6.408365726
-20.63171005 -28.75573349 7.64364624
-19.47948074 -25.91547585 0.4677405059
-11.77562714 -13.0270462 1.337093592
-11.98011017 -13.48624611 1.925899386
-11.7665472 -13.16436005 2.478554249
-17.09319687 -22.3034153 4.320216179
-20.79638863 -28.7115078 6.425531864
-20.77261734 -28.7590847 7.663433552
-20.29971313 -27.06994629 0.4443493485
-11.79601192 -12.95663166 1.338810563
-11.74145126 -12.9704504 1.900522828
-11.79379559 -13.10407543 2.477831125
-11.69940281 -13.02522469 3.612209082
-20.9006443 -28.75133705 7.679948807
-20.37978935 -26.99376297 0.4497584701
-11.78122902 -12.82314777 1.339558721
-11.7545042 -12.88809681 1.899787903
-11.78638554 -12.98070526 2.471134663
-11.81153107 -13.06272888 3.051077843
-11.773736 -13.0451231 3.623277426
-21.02998543 -28.73318481 7.695240974
-20.51438332 -26.99634171 0.4535084665
-11.80407333 -12.75314713 1.341379881
-11.75917912 -12.78725529 1.898158193
-11.78439045 -12.86780357 2.465413332
-11.78420067 -12.91216373 3.036351442
-11.69452572 -12.80201435 3.587078333
-11.88202095 -13.15651321 4.237687111
-19.93130875 -25.82005501 0.4845956266
-11.79726791 -12.63541794 1.342324734
-11.75182819 -12.66778183 1.895394564
-11.82304668 -12.82324505 2.466441154
-11.8131361 -12.84568024 3.034022093
-11.7351284 -12.76103783 3.587464333
-11.93303299 -13.1299696 4.241050243
-21.72553635 -28.5077076 0.4267014265
-11.93267536 -12.74928379 1.347423792
-11.79934502 -12.6339283 1.897835374
-11.82718086 -12.72248077 2.461846828
-11.81450844 -12.73995209 3.025799513
-11.77380848 -12.71172905 3.586731911
-11.93816376 -13.02764606 4.227433681
-21.85243988 -28.49482346 0.4307960868
-12.00239658 -12.75540829 1.350607395
-11.80107403 -12.53655624 1.896090746
-11.82132244 -12.6065836 2.455687761
-11.95869255 -12.86785316 3.050620317
-11.81989384 -12.68548775 3.589438677
-11.88331127 -12.82824802 4.191887379
-21.99522781 -28.49513245 0.4347843826
-11.82464027 -12.47008228 1.896358728
-11.84418488 -12.53830051 2.454266548
-11.8174057 -12.57521439 3.577120066
-11.86526966 -12.69129848 4.170251369
-22.13611031 -28.49141693 0.4388591051
-12.09417534 -12.69064331 1.355564237
-11.87969494 -12.45436573 1.899645925
-12.19225597 -12.99029446 2.505468369
-11.88105869 -12.57250595 3.584568024
-11.88571072 -12.61807346 4.162938595
-12.04152584 -12.91427994 4.818908215
-20.40699577 -25.56016731 0.5083835721
-11.93623257 -12.33844852 1.351949573
-11.93260098 -12.43505478 1.902728081
-11.86222744 -12.35961151 2.447082043
-11.90859985 -12.47480011 3.014577866
-11.90596008 -12.50757313 3.580559492
-11.90158081 -12.53821564 4.154089451
-12.13813496 -12.96146202 4.84246254
-20.46905899 -25.44443893 0.5147182941
-11.96935463 -12.28872681 1.354009867
-11.98011398 -12.40711117 1.905298352
-12.00780582 -12.48652744 2.465490103
-12.07336903 -12.62633801 3.043440104
-11.92945099 -12.44096661 3.576221228
-11.96306801 -12.53151608 4.161880493
-12.14944553 -12.86627102 4.828171253
-21.67665672 -27.10450554 0.4816259146
-12.00766373 -12.24732876 1.356219649
-12.04063797 -12.3943119 1.909007788
-11.99961662 -12.37095451 2.459202051
-12.18461609 -12.69638729 3.060418844
-12.10350704 -12.60616112 3.6154356
-12.03829098 -12.54610443 4.174601555
-12.13589287 -12.7381506 4.804327488
-22.70922089 -28.48199654 0.4549820125
-12.05234241 -12.21587563 1.358616948
-12.39605999 -12.84707355 1.940778136
-12.22628021 -12.620574 2.490408182
-12.05252743 -12.3868618 3.02259326
-12.07565212 -12.46406746 3.59668541
-11.99835491 -12.3800354 4.145981312
-12.20830441 -12.75152683 4.81836319
-22.86429596 -28.49515724 0.4586617351
-12.07494926 -12.15084076 1.360340714
-12.11881256 -12.3172493 1.912664413
-12.04306602 -12.23569012 2.456343412
-12.06625271 -12.3114748 3.018155098
-12.04711819 -12.31747723 3.577389956
-12.0744257 -12.39595222 4.159068108
-12.31912804 -12.81874561 4.847764492
-23.01155472 -28.48419189 0.463062048
-12.12259674 -12.12415695 1.362818718
-12.1067028 -12.1985054 1.909638166
-12.28103828 -12.49887753 2.489181042
-12.08307457 -12.23145294 3.013696194
-12.08561993 -12.27553654 3.577654839
-12.19137859 -12.47405529 4.18660593
-12.27922344 -12.64658642 4.812327385
-12.72258854 -12.8846817 0.8030575514
-12.1679821 -12.08913803 1.365275502
-12.13694 -12.14011383 1.910522223
-12.15760326 -12.20536232 2.464601994
-12.11570263 -12.18119717 3.013211966
-12.12730503 -12.23361874 3.578341484
-12.31562519 -12.5565033 4.21582222
-12.29020309 -12.55969715 4.799580574
-12.75379562 -12.82764912 0.8061333299
-12.18307972 -12.01398945 1.366747499
-12.20009041 -12.1363554 1.914591074
-12.19661808 -12.1648941 2.465981483
-12.1557827 -12.14244556 3.01441431
-12.1708765 -12.19969463 3.580143213
-12.20783138 -12.29076576 4.163881302
-12.31139565 -12.48918915 4.791295052
-12.81056976 -12.80860138 0.8083840609
-12.23364258 -11.99187565 1.36930263
-12.22988319 -12.0825882 1.915539503
-12.76152229 -12.90864563 2.549694061
-12.20563126 -12.11842537 3.017794609
-12.22309494 -12.17877197 3.584435463
-12.26683521 -12.27936459 4.17088747
-12.41514778 -12.5437603 4.817573071
-12.27627373 -11.95800018 1.371610403
-12.24371815 -12.00562859 1.915010571
-12.32544899 -12.15954876 2.476715088
-12.28979778 -12.14525318 3.028715849
-12.28519058 -12.17239761 3.59153676
-12.31494904 -12.25139236 4.174082756
-12.38621235 -12.39845753 4.788594246
-20.14957237 -23.25062752 0.5927403569
-12.33689022 -11.95035553 1.374472737
-12.30892754 -12.00460911 1.919275761
-12.5761261 -12.42982674 2.511025667
-12.3408165 -12.12237453 3.032340765
-12.32407856 -12.13140774 3.592071295
-12.33550453 -12.18256855 4.1677351
-12.40860367 -12.33112907 4.781153679
-24.82629395 -29.80489922 0.4591904581
-12.42148972 -11.97695446 1.37808311
-12.38328457 -12.01645756 1.924385071
-12.61240768 -12.38304996 2.511911392
-12.40634632 -12.1206007 3.039134026
-12.44518471 -12.21104717 3.615765572
-12.39434147 -12.170578 4.174729824
-12.55865288 -12.45248127 4.826348305
-24.92628098 -29.72068405 0.4650484025
-12.51668072 -12.01787472 1.382030129
-12.41119289 -11.96063614 1.925184846
-12.40944862 -11.99036884 2.475872993
-12.42128181 -12.04497433 3.034937143
-12.58596992 -12.31766605 3.644821405
-12.42323589 -12.11461163 4.1714077
-12.61068249 -12.42814922 4.831062317
-25.09737587 -29.73747826 0.4687989056
-12.52944183 -11.94051838 1.383397341
-12.47884083 -11.96209145 1.9296664
-12.42929649 -11.92300034 2.474392414
-12.48335743 -12.0378828 3.040991545
-12.48581696 -12.07432365 3.606475592
-12.51544285 -12.15067387 4.18986702
-12.6692934 -12.41323948 4.838475704
-22.62777901 -26.03447151 0.5486893058
-12.55565071 -11.88280487 1.38517797
-12.52132416 -11.92729187 1.9318223
-12.51285934 -11.94698429 2.482722044
-12.49542236 -11.95895004 3.036271334
-12.55249596 -12.07321453 3.614831448
-12.52055073 -12.06056881 4.178493977
-12.70458412 -12.36446285 4.836419106
-26.05272293 -30.6240654 0.4589569271
-12.60595512 -11.85925007 1.387712717
-12.559062 -11.88583088 1.93354547
-12.58059216 -11.9477644 2.488603115
-12.56765842 -11.96608162 3.044523716
-12.59996033 -12.0443306 3.617848396
-12.54880142 -12.00434589 4.175135136
-12.76867104 -12.35712719 4.846081257
-23.69078064 -27.1158123 0.5340360403
-12.66438484 -11.84686279 1.39050293
-12.65695 -11.92879486 1.940797925
-12.58142662 -11.85409737 2.484273672
-12.62740707 -11.95506382 3.050082445
-12.62907505 -11.98947811 3.61582613
-12.60622025 -11.98976803 4.181725979
-12.78570271 -12.28259659 4.836782455
-23.81413078 -27.08098602 0.5384694338
-12.73456001 -11.85042 1.393666148
-12.69929028 -11.89339447 1.942943215
-12.6838932 -11.90304661 2.495440483
-12.7841959 -12.07938385 3.076290131
-12.63152409 -11.89761353 3.606545687
-12.71942902 -12.05330276 4.207113266
-12.94100857 -12.40355396 4.883033276
-23.95048141 -27.06338882 0.542547524
-12.76597881 -11.80033302 1.395594835
-12.8785696 -12.04708672 1.957615137
-12.78098869 -11.94334793 2.505746841
-12.85493565 -12.08198738 3.084090948
-12.74642944 -11.96304417 3.628125191
-12.7565527 -12.00932312 4.20680809
-13.03043079 -12.43005371 4.90266037
-23.35630035 -26.05342102 0.566267848
-12.84571934 -11.81624031 1.399063945
-12.96719742 -12.07385349 1.963968158
-12.84916782 -11.9428606 2.511647463
-12.79403782 -11.90276241 3.064053535
-12.77502537 -11.90785122 3.626072645
-12.8624506 -12.06070328 4.229542732
-23.43224144 -25.96006584 0.5716885328
-12.91615868 -11.81889248 1.402238011
-12.91182995 -11.90383148 1.957193732
-12.88092804 -11.89225292 2.512055397
-12.83511829 -11.86510277 3.065665245
-12.91042709 -11.99940586 3.653055906
-12.88566971 -11.99722958 4.224619389
-23.53650665 -25.90494537 0.5763345361
-12.9974947 -11.83562851 1.405764699
-12.95402908 -11.86757565 1.959327579
-12.93731594 -11.87522793 2.516180038
-12.91018295 -11.87365627 3.074430466
-12.91560459 -11.91192627 3.644678593
-12.99093819 -12.0461483 4.246995449
-25.24522781 -27.98057175 0.5396190882
-13.13670921 -11.92869282 1.411164045
-13.01878357 -11.8615942 1.963511705
-13.03888226 -11.91869545 2.527063847
-12.96413803 -11.8531456 3.078753471
-13.00253582 -11.93567944 3.658419132
-13.06169891 -12.0471077 4.257843018
-24.67387009 -27.01880646 0.5619847178
-13.20307541 -11.9236784 1.414218545
-13.10160542 -11.87926292 1.969327807
-13.05962276 -11.85321903 2.525850773
-13.08223152 -11.91824818 3.096442461
-13.08266258 -11.9494772 3.670273542
-13.15014839 -12.0713501 4.274476528
-24.64599228 -26.78126717 0.5702316761
-13.29256439 -11.94856358 1.418024778
-13.21237755 -11.93313503 1.977659702
-13.3092947 -12.0913887 2.558712482
-13.22476482 -12.01438618 3.119117737
-13.18198681 -11.9881258 3.687209368
-13.20946884 -12.05586338 4.281483173
-24.88742065 -26.88603973 0.5720915794
-13.37990284 -11.96980858 1.421765685
-13.35754395 -12.03085709 1.98907423
-13.61018181 -12.39297295 2.598997355
-13.24560165 -11.94351864 3.116143227
-13.32459068 -12.08292389 3.715584755
-13.28417301 -12.06048012 4.293506622
-24.87996864 -26.67710304 0.5797114372
-29.63376617 -32.88560104 1.953595877
-13.58364105 -12.22731781 2.007657528
-13.51701069 -12.17059708 2.58059907
-13.32286835 -11.95165348 3.125204086
-13.3960228 -12.07774925 3.724432945
-13.42662907 -12.14888191 4.326898098
-24.51194382 -26.00830078 0.5958892703
-31.07001686 -34.48667145 2.002965689
-13.48142242 -12.06476021 3.150939941
-13.48693466 -12.10217857 3.738886833
-13.5198307 -12.17588234 4.34474802
-26.50448418 -28.34942055 0.555895865
-30.6464901 -33.70592499 1.991365433
-30.17033768 -33.32313538 3.491714478
-40.43142319 -46.61492157 6.527922153
-13.83424091 -12.42623997 3.216318846
-13.56606102 -12.1105032 3.750174284
-13.67938519 -12.29273319 4.384540081
-26.23993301 -27.8169632 0.5694049597
-23.19156265 -24.02298355 1.748292327
-30.88265228 -33.99772644 3.551293612
-40.68772888 -46.60093307 6.549929142
-26.32990074 -27.72512054 0.5748814344
-23.26833534 -23.9415741 1.752516747
-22.96203995 -23.72573471 2.839058638
-40.94808578 -46.59041595 6.572491169
-26.44455719 -27.66418839 0.5797684193
-23.01216125 -23.44487953 1.745714903
-22.95323944 -23.53869247 2.835127115
-23.162117 -23.85627365 3.965235233
-26.53765106 -27.57638931 0.5851216912
-23.08434486 -23.36103821 1.749742866
-22.99710464 -23.41898537 2.835920811
-23.08407784 -23.5817337 3.945890665
-27.10414505 -28.06964684 0.580021441
-23.01237297 -23.10012817 1.748967409
-22.97890472 -23.22314835 2.831217766
-23.1280899 -23.461586 3.944384813
-27.17957878 -27.9563942 0.585854888
-23.052845 -22.97924423 1.751908898
-23.07169724 -23.16562271 2.836401463
-23.09118462 -23.24245071 3.931237459
-26.27229118 -26.65444756 0.6126796603
-23.06089592 -22.81981468 1.753753185
-23.16181183 -23.10464668 2.841351271
-23.12229347 -23.10871696 3.928010941
-26.36179161 -26.56732178 0.6178350449
-23.13195229 -22.73752975 1.757689714
-23.12846756 -22.89392853 2.835391045
-23.18058014 -23.00887299 3.9287498
-28.47432899 -28.89375877 0.580914259
-23.18985367 -22.63968849 1.761176348
-23.20619202 -22.81889725 2.839275599
-23.18501282 -22.8445282 3.921808958
-23.96746635 -23.34514427 0.6807724833
-23.36453438 -22.6809063 1.768583059
-23.1965065 -22.63946724 2.835466385
-23.26258659 -22.769104 3.925404072
-24.02462769 -23.24175262 0.6857318282
-23.44402504 -22.60834503 1.772786379
-23.30932808 -22.60698891 2.842467308
-23.3206501 -22.67056847 3.926240921
-27.80350304 -27.47560501 0.6169925928
-23.46479225 -22.46711349 1.774997234
-23.38749695 -22.52484703 2.846277237
-23.35509109 -22.54456902 3.923756599
-26.33282089 -25.5806179 0.6525514722
-15.89727211 -13.50789165 1.520070314
-15.72236156 -13.39988422 2.171531677
-23.48454285 -22.53073502 3.934804201
-24.15910912 -23.37312889 5.159785271
-26.3921814 -25.46322441 0.6579943299
-15.9146862 -13.42673588 1.521576524
-15.6705389 -13.23894882 2.165237904
-15.81503391 -13.43682194 2.842398405
-15.85381031 -13.51745129 3.520781517
-26.98225784 -25.94382286 0.6536335349
-15.92246819 -13.33509827 1.522745848
-15.62951469 -13.09213161 2.159920692
-15.81935215 -13.34075642 2.838567734
-15.89355564 -13.45663452 3.520999432
-33.9577446 -33.67407608 0.5296261907
-15.75928974 -13.04468346 1.518118739
-15.67539692 -13.04142094 2.162129879
-15.74971867 -13.15559864 2.824155331
-15.64287949 -13.06703472 3.465045452
-15.71298218 -13.17736435 4.14570713
-27.84698486 -26.54410362 0.650848031
-15.86084175 -13.06167126 1.522460461
-15.62503147 -12.88624382 2.156046391
-15.63839149 -12.9298811 2.804205418
-15.68498611 -13.01670456 3.46631217
-15.68279934 -13.04345131 4.12857008
-27.99175644 -26.51436615 0.6549261808
-15.71782494 -12.80351067 1.518429756
-15.65977287 -12.82875824 2.157395363
-15.60344696 -12.79315758 2.795077324
-15.88169956 -13.14183903 3.497545242
-15.71832943 -12.98549652 4.127869606
-28.51517677 -26.90467262 0.6522319913
-15.66666317 -12.65067196 1.517520547
-15.7009182 -12.77863503 2.15930748
-15.58094978 -12.67172337 2.787756681
-15.70123863 -12.86838531 4.114218712
-28.61997223 -26.82630348 0.657124877
-15.68196869 -12.5776062 1.518838048
-15.65646458 -12.63333416 2.153805017
-15.58729649 -12.58833027 2.784721375
-15.80964756 -12.8929224 4.131602764
-15.74098873 -12.54829025 1.521695256
-15.67042446 -12.55875111 2.153467894
-15.61424732 -12.52361488 2.784382343
-15.98014641 -12.95714378 3.49598217
-15.78933525 -12.77812862 4.117782116
-35.4743309 -33.91357422 0.552806735
-15.7553606 -12.47008991 1.523009062
-15.70651436 -12.50424099 2.154974461
-15.70919418 -12.53404045 2.793500185
-15.66224003 -12.51411724 3.428718805
-15.79592323 -12.68926334 4.110209942
-15.8881712 -12.49425888 0.8912243843
-15.9131012 -12.54768753 1.529272795
-16.53586006 -13.31489658 2.224942684
-15.72235775 -12.45435143 2.79128027
-15.69824791 -12.45947933 3.429103374
-15.73160172 -12.52320671 4.085417747
-15.79927158 -12.33145046 1.526138067
-15.6608839 -12.29420853 2.778791189
-15.80518818 -12.48213482 3.443024158
