# .PCD v0.7 - Point Cloud Data file format
VERSION 0.7
FIELDS x y z
SIZE 4 4 4
TYPE F F F
COUNT 1 1 1
WIDTH 1295
HEIGHT 1
VIEWPOINT 0 0 0 1 0 0 0
POINTS 1295
DATA ascii
5.734246731 32.19808578 1.023827195
6.429316998 34.28635025 2.232645273
5.84613657 32.17528152 1.017851591
6.56283474 34.33006287 2.229202271
5.933427811 32.09054947 1.012354851
6.731138229 34.46518707 2.228571415
6.130506516 32.34622192 1.005561352
6.620498657 33.69225311 2.197518587
6.227016449 32.2704277 0.999722302
6.738879681 33.67035294 2.191735744
6.357854366 32.30500793 0.9935321808
6.761988163 33.34688187 2.175970316
6.728267193 33.09196472 0.984626174
6.843308449 33.21212769 2.166543722
6.855714321 33.10370255 0.9783366323
6.945292473 33.16268921 2.160219193
5.638563633 28.99908829 0.9886600375
7.010565758 32.83875275 0.9672362804
20.61921501 73.66413879 3.468969107
7.283553123 33.28767395 0.9590667486
20.89042854 73.63316345 3.456894398
7.375306606 33.18732452 0.9532115459
5.793967247 28.17787933 0.9706644416
5.930681705 28.26631165 0.9648996592
6.009399891 28.20091629 0.960150063
7.68099165 32.66099167 0.9313949943
6.12564373 27.94153214 0.9511466026
6.283705235 28.20112228 1.960350752
6.249633312 27.99059296 0.9455579519
6.325024128 28.03339958 1.951198459
6.249056339 27.71003342 0.9421506524
6.443571568 28.0648613 1.948118329
6.310697556 27.58951187 0.9376062751
6.38069725 27.60459709 1.92975831
6.526772976 27.87208176 0.9303039908
6.456625462 27.51038742 1.922664404
6.59022522 27.74157143 0.9255605936
6.682938099 27.82910347 1.92851007
6.689693451 27.73602867 0.9205556512
6.811432362 27.78801155 0.9151502848
6.757409096 27.49279404 1.910665274
6.917016029 27.79658127 0.9100244641
6.844935417 27.44400024 1.905249834
7.171757221 28.17167473 0.9019591808
6.897613049 27.32045555 1.897794604
7.249502659 28.10453224 0.8973060846
7.002910137 27.31765175 1.893815279
7.384593487 28.15412521 0.891235292
7.132304192 27.36082649 1.891024232
7.460812092 28.06961632 0.8864606619
7.216928005 27.30523872 1.885484695
7.600721359 28.14233208 0.8804435134
7.809860706 28.50369835 1.917291522
22.13041115 63.20845413 0.5859800577
7.477939129 27.32556534 0.8766998053
9.937024117 32.01319885 0.8120162487
9.923312187 31.70081711 0.8089860082
10.08721161 31.7971096 0.8021253347
10.12259483 31.58683014 0.7979194522
30.33832932 75.06975555 14.69545174
10.26834774 31.6115284 0.791113019
30.56507874 74.88592529 14.66904068
10.31968975 31.45456696 0.7867720127
30.62186813 74.37085724 14.58164692
10.3289299 31.19329643 0.7832602262
30.39897537 74.38954926 5.977337837
30.70002937 73.87538147 14.49833012
10.48185444 31.26172447 0.7766394019
30.6548214 74.27191162 5.96354866
30.66028595 73.92260742 8.771904945
30.73535347 73.68925476 11.59385014
30.98343468 73.85340881 14.50171185
10.68958092 31.43219948 0.7685596347
30.5785656 73.83612823 3.113368034
30.72237778 73.39768982 8.715467453
31.0345993 73.66828156 11.59415531
10.73222065 31.24669266 0.7643343806
30.62617302 73.27966309 3.087670565
30.74908447 73.18835449 5.880421162
31.00556183 73.34416199 8.70867157
10.9568119 31.44810867 0.7558128238
30.77685165 72.94762421 3.068279505
31.0455265 73.16314697 5.873057365
31.05885887 72.89299774 3.056540012
11.16602516 31.32588577 0.7442963123
14.28146458 34.76470947 0.6341854334
14.45524216 34.82221985 0.6265511513
8.767186165 22.4324398 0.7582432032
8.842398643 22.39858437 0.7543263435
9.145648956 22.74999619 0.7438969612
9.020133018 22.43569183 1.616936088
8.762196541 21.91806412 0.7528452873
8.997042656 22.22468567 1.608940005
8.811047554 21.83376312 0.7496323586
9.062124252 22.16560555 1.604610801
8.966538429 21.92999649 0.7433811426
9.146384239 22.13897514 1.601067066
9.05206871 21.9069519 0.7391226292
9.188426971 22.04171753 1.595877647
9.05402565 21.74480438 0.7372803688
9.212347031 21.91534042 1.590039611
9.213226318 21.85179901 0.7309866548
9.317233086 21.93128014 1.587682247
9.275746346 21.7902317 0.727404952
9.386260033 21.87975883 1.583625436
9.367364883 21.77614784 0.7229788303
9.571911812 22.01673889 1.583905578
9.257499695 21.43722343 0.7244833708
9.721623421 22.09329796 1.582775712
7.897307396 19.09799576 2.264682293
9.364020348 21.44849968 0.7196435928
7.894569874 19.03079796 1.510671616
7.960643768 19.05838966 2.261312485
7.910831451 18.99368668 0.7611940503
7.954530716 18.99304771 1.507482529
8.036757469 19.0458374 2.259734869
7.958883762 18.93717766 0.758363843
13.51546574 27.57083893 1.697049499
6.208143711 16.06428528 0.8093259335
6.266829491 16.03363991 0.8062831163
6.328876019 16.01960564 0.8032628894
6.715232372 16.55474281 1.444194674
6.36245203 15.96183014 0.8011061549
6.670352936 16.37384605 1.438232064
6.39025259 15.89565277 0.7991322875
6.734153271 16.35337639 1.435699821
6.411468506 15.81440163 0.7973094583
6.752427578 16.26445198 1.431697488
6.534599781 15.88604736 0.7923731804
6.719999313 16.10091209 1.4261204
6.768455029 16.1109848 2.067333221
6.85003233 16.23536873 0.7814474106
6.685808182 15.93104553 1.420353651
6.849473953 16.11657906 2.067151785
6.515482903 15.6286459 0.7906030416
6.616354942 15.71715355 1.413804293
7.182415485 16.48919868 2.090302229
6.609707832 15.65627861 0.7865558863
6.575844765 15.55346394 1.4084692
6.683495522 15.65887547 0.7831950784
6.82808733 15.8143568 1.412061334
7.208275795 16.30182266 2.077422619
6.790507317 15.70876789 0.7787954211
6.948328972 15.88182926 1.411566377
7.2076478 16.19283867 2.070057869
6.731711864 15.52055168 0.7795796394
7.007370472 15.85520077 1.409011006
7.348365784 16.27965736 2.075107336
7.068666458 15.83161163 1.406526804
6.899385452 15.54168129 0.7721238732
7.143857956 15.82730579 1.404444098
7.101623058 15.71669292 0.7646461129
7.205147266 15.80317497 1.401962638
6.94156599 15.38597679 0.7686384916
7.210125446 15.70102882 1.397919178
6.918999672 15.25416851 0.768352747
7.494598866 15.98878193 1.40180099
6.9925704 15.24998665 0.7649624944
7.295077801 15.60705376 1.392207503
7.234638691 15.47409248 0.7561743855
7.260504246 15.45871353 1.387420416
7.170863628 15.28743553 0.757230103
7.604951382 15.81576824 1.392486572
7.144352913 15.14756584 0.7570584416
7.731251717 15.87622166 1.391682744
7.47410202 15.48258972 0.7453933358
7.975026608 16.09075546 1.393844962
7.59009409 15.53023338 0.740606606
7.650608063 15.50926304 0.7376659513
7.683181763 15.44646358 0.7355862856
7.701910973 15.37134075 0.7340163589
7.862937927 15.47406483 0.727743566
8.149430275 15.73985386 0.717384696
16.59809113 23.48163223 0.4120419025
16.6793499 23.41429329 0.4078578055
16.51135063 23.07853508 0.4123146236
17.09642029 23.64931488 1.463674664
16.56836891 22.98632622 0.4089936316
17.20656586 23.61145592 1.460096002
16.66682625 22.93971443 0.4042519629
17.25177765 23.502388 1.455408096
16.80449867 22.93532944 0.3981583118
17.1486721 23.24123383 1.448524117
16.9276638 22.92208862 0.3926318884
17.09833336 23.03158951 1.442357659
16.9046669 22.74395943 0.3921097219
17.216362 23.00350952 1.43903172
16.99986267 22.69296265 0.3874986768
17.26718712 22.90360641 1.434621096
17.10182381 22.6488266 0.3826559782
17.44874382 22.94932556 1.432576656
17.25652313 22.66718483 0.3760409951
17.51854324 22.86901855 1.428492427
17.391819 22.65657806 0.3700360656
17.68100357 22.88498878 1.425856352
17.49254417 22.60936546 0.3652403951
22.64678764 27.85072517 1.495933056
17.4132576 22.37692642 0.366759479
22.58123016 27.59642982 1.48870647
17.59298325 22.41083336 0.3592065871
22.64325142 27.47408485 1.483450413
17.60461617 22.27302551 0.3575612605
22.74234581 27.39881516 1.479072571
17.71333313 22.24117851 0.3525696397
22.97716713 27.45029449 1.476337194
18.15817833 22.53720284 0.3356567621
22.8283062 27.12684441 1.468494058
18.25525665 22.49058533 0.3310621977
22.9721508 27.08704185 1.464510083
23.19564247 27.13388252 1.461902022
28.55983543 32.18649673 1.527511239
28.39868164 31.81299591 1.518362522
28.54080009 31.73500061 1.513271928
28.65240669 31.62736511 1.507807136
28.70997238 31.46839523 1.501695037
28.81630516 31.35603142 1.496229887
13.30560493 16.63350105 1.302733183
13.31346416 16.53129768 1.299367666
12.83636284 16.04533195 2.071067333
12.94489479 16.03992081 2.071665764
13.30085468 16.31910133 2.889554262
12.77297211 15.86550045 0.5154996514
13.14809799 16.16802216 1.290830612
13.01524448 15.99888229 2.070005655
13.31025505 16.22051048 2.882118702
12.73978233 15.73591805 0.5159374475
13.13614655 16.05069733 1.287376523
12.97306919 15.85546303 2.061787128
13.30469608 16.11424446 2.873597622
12.84174347 15.72478771 0.5114809275
12.85845375 15.69904709 1.281182289
12.76281357 15.56682968 2.04418087
13.30273247 16.00660324 2.865125656
12.79123688 15.58081818 0.5125611424
12.93522263 15.66470051 1.278822899
13.75453949 16.35273552 2.095865726
13.30058098 15.90472698 2.857128382
12.75738716 15.44784451 0.5130149126
12.92538738 15.55278206 1.275542378
13.26666164 15.81624985 2.062322378
13.48402691 15.96285248 2.868126869
12.84984684 15.42816544 0.5089148879
13.02575684 15.53924179 1.273455739
13.33051491 15.7684927 2.06035471
13.56781769 15.93158531 2.868706942
12.89439392 15.36568928 0.506550014
13.11767673 15.52279186 1.27143383
13.24552536 15.59001923 2.049959421
13.44446278 15.71877193 2.847922325
13.08804417 15.43904495 0.4988237619
13.17757034 15.47271633 1.268929124
13.34030247 15.56981564 2.04981637
13.57168674 15.73091221 2.853463888
13.18085098 15.41777611 0.4947110116
13.16078091 15.36107731 1.265825868
13.3963213 15.52068806 2.047767878
13.60512829 15.65603828 2.848981142
13.57820511 15.66438866 0.4795723557
13.33075428 15.40610504 1.264431119
13.37441444 15.39939213 2.04111886
13.30106926 15.29732227 2.810577154
13.50972462 15.50178242 0.4813144207
13.15784454 15.15623188 1.259719014
13.711092 15.59009171 2.054696798
13.39060879 15.27260971 2.812029362
13.67615128 15.54085732 0.4745172858
13.45888519 15.31181145 1.259560347
13.60921097 15.39545155 2.043391705
13.59288788 15.34268951 2.824856043
13.61668301 15.38221741 0.4759144187
13.09570026 14.89894009 1.25304842
13.60456467 15.28960705 2.037809372
13.68074131 15.30986691 2.825704098
13.25529671 14.97642136 0.488383472
13.14285088 14.83976078 1.25055933
13.76599598 15.31804657 2.041074276
13.7706728 15.2834177 2.827142
13.88872242 15.41565895 0.4646087885
13.56311131 15.10096073 1.251689911
13.67331219 15.15467834 2.031569004
13.900177 15.29940128 2.833272219
14.01001549 15.41353035 0.4594548941
13.64641571 15.06946278 1.249477983
13.62572575 15.01485443 2.023812294
13.79615879 15.11240387 2.815450191
13.32572842 14.74756908 0.4838022292
13.69014072 15.01010513 1.247076273
13.70882511 14.98310089 2.023147106
13.39780617 14.7131834 0.4805170298
13.71440601 14.92991924 1.244379997
13.91287327 15.0492382 2.028938055
13.52657032 14.71959877 0.4751200974
13.71500206 14.83086491 1.241511822
13.85698223 14.90884399 2.021123648
13.56685638 14.65378094 0.4729721248
13.19750881 14.31609154 1.234500289
14.19260979 15.07838154 2.033801556
13.5585022 14.54912853 0.472618252
13.80302238 14.7086134 1.236690879
19.69145012 19.35288429 2.317364693
13.53317738 14.4364872 0.4729305506
13.59944344 14.45374393 1.232454062
14.20700932 14.89373684 2.024692774
13.80701828 14.56073761 0.4622277319
13.55465317 14.32656193 1.22951138
14.21864891 14.80805779 2.020560741
13.93554878 14.56861305 0.4568727016
13.96848488 14.55403805 1.229884028
14.27488041 14.7525425 2.018527269
13.83794975 14.39467335 0.4598332047
14.11866283 14.57280159 1.228236556
20.16603279 19.21832085 2.316750765
19.7729435 18.83117676 1.265777707
20.13622284 19.05757904 2.308438778
13.6832943 14.07798004 0.46426934
19.7240963 18.66493034 1.261862278
20.24224663 19.00804901 2.307441235
19.70463562 18.52222252 1.258199692
20.32590866 18.9411087 2.305320978
19.86025429 18.51879501 1.255922198
20.35674477 18.84072495 2.300877571
19.85107613 18.384552 1.252383828
20.51038551 18.82584763 2.30231452
20.57004738 18.79886246 1.253706217
20.56791878 18.66738319 1.250182271
20.63614655 18.58815002 1.247124791
20.71220016 18.51453972 1.244131088
17.14639091 15.46437263 2.093733072
17.09583664 15.35775185 1.208775282
17.18315887 15.37746716 2.090298653
17.13363457 15.31842613 0.3279955089
17.17563629 15.30648518 1.206422567
17.15091896 15.22348881 0.3267291188
36.18163681 27.74589729 1.283766747
36.25037384 27.60102654 1.279278398
36.14350128 27.32923317 1.273802519
36.40883255 27.30571365 1.269992352
26.49829865 20.69980431 2.482386589
26.39305115 20.52933693 1.223644614
36.38414383 26.89155579 1.26010561
36.33341599 26.66118813 1.255096197
36.49927521 26.58105278 1.251205087
36.68635559 26.50386047 1.247165561
20.05573463 15.79861736 1.183647275
19.78310776 15.51849651 1.180120468
19.82289696 15.43605423 1.177720547
19.99928856 15.43253899 1.175646544
13.11135769 11.1442194 1.834620118
20.45550156 15.59951305 1.174431086
20.18848038 15.40083885 2.143110752
20.17517662 15.31417656 1.170936465
20.3020668 15.35678387 2.143414259
12.84335804 10.79993343 0.4803833961
20.2372551 15.23882961 1.168520689
20.47554016 15.3482151 2.146336317
20.29184532 15.19759464 3.108926773
12.92231464 10.76956654 0.4770119786
20.41574097 15.2331419 1.166443467
13.27993011 10.93257523 1.829064369
20.35692406 15.12417412 3.107798815
13.03875065 10.73334122 3.167637348
13.44079208 11.00083351 0.456959188
12.99962997 10.71054173 1.144070983
13.25118542 10.83644295 1.824612021
20.3496685 15.00781631 3.100635052
12.72405624 10.49687195 0.4838027656
13.09056759 10.68651676 1.142554641
13.15996075 10.7041502 1.817513824
13.48936462 10.87026215 2.520537615
13.41233158 10.7974062 3.202292442
13.13326931 10.66461182 0.467912972
13.20399857 10.67903233 1.14118135
20.78256035 15.08210945 2.141485691
13.5463953 10.82827377 2.520947695
13.47765446 10.76072121 3.204753399
13.28466892 10.67486286 0.4617958069
13.16706944 10.57958126 1.139361024
12.96769619 10.41479397 2.468321323
13.51877975 10.70587635 3.203941107
13.32902908 10.62217999 0.4597499073
13.09159374 10.46243286 1.137565255
12.89075756 10.32061958 1.796961308
13.04573822 10.38340092 2.470443249
13.04185104 10.35865784 3.139577866
12.92413139 10.31575966 0.4748259485
13.22378731 10.46113873 1.13616693
12.92868996 10.26654339 1.795594096
13.08049488 10.33079243 2.469211817
13.10928249 10.32096863 3.142238617
13.11149979 10.34628296 0.4673501551
13.05878162 10.2942009 1.134230614
12.98221874 10.22501945 1.795049548
12.95166397 10.1820507 2.454323292
13.37777901 10.39993954 3.169850111
13.13800526 10.23888779 3.815136194
12.44808674 9.899162292 0.4923074543
12.64886475 9.99110508 1.131859422
13.20295525 10.27717686 1.801538706
12.88132763 10.07125568 2.444554567
13.16430283 10.20765781 3.138388634
13.15322971 10.17557907 3.811111689
12.55454731 9.889165878 0.4879446924
13.14843464 10.19608974 1.131209493
13.17977428 10.19179916 1.797778249
13.25164032 10.20613384 2.470921516
13.24706078 10.17786312 3.142981052
13.46802616 10.27797699 3.855793238
12.81121445 9.958226204 0.4778373837
13.26646328 10.18549538 1.129802108
12.94247246 9.981066704 1.784847021
13.2280407 10.11715221 2.464799643
13.37338161 10.17155647 3.152877331
13.83907509 10.40097618 3.90871501
12.86702442 9.910880089 0.4753747284
13.37409973 10.16841221 1.128373146
12.95297718 9.912316322 1.782453656
13.24238014 10.04563427 2.461613417
13.43175888 10.12736225 3.154503822
14.04602051 10.43558884 3.935239315
12.94414425 9.882396698 0.4721328616
13.36781597 10.09239864 1.126840711
13.02134991 9.878913879 1.782617569
13.3584919 10.03697968 2.467129707
13.6966095 10.1983881 3.181411982
14.12974644 10.4061594 3.942155361
13.15305805 9.924929619 0.4638585448
13.38919544 10.02785492 1.125288606
13.14070129 9.872666359 1.784885049
13.38687611 9.980419159 2.465538263
13.70960236 10.1284647 3.177532434
13.15977001 9.853464127 0.4632937312
13.62185764 10.07664871 1.124047637
13.24568462 9.850479126 1.786275387
13.35855103 9.889861107 2.459198713
13.97517204 10.19302654 3.20411396
13.57172203 9.994366646 0.4472235739
13.28993034 9.823563576 1.122040629
13.26440525 9.785647392 1.784279823
13.54123306 9.907627106 2.469676495
13.79280472 10.01929569 3.176792383
14.10537338 10.15845203 3.917798281
13.48864555 9.877900124 0.450111568
13.60224628 9.913262367 1.120899558
13.25988102 9.708698273 1.78136313
13.62924767 9.881983757 2.472926855
13.52515125 9.821293831 0.4484156966
13.72061729 9.90292263 1.119576931
13.37755585 9.69948864 1.783561945
13.72238255 9.854704857 2.476386309
13.53332233 9.753691673 0.4478232265
13.57965469 9.753573418 1.117902279
13.28205109 9.57557869 1.777016878
13.4380827 9.636029243 2.449963331
14.03408718 9.897550583 3.887324572
13.4699192 9.645615578 0.4499623775
13.32251072 9.549736023 1.116231799
13.40138054 9.566601753 1.779296875
13.19309235 9.436415672 2.426636696
14.07588482 9.842318535 3.887515783
13.49523067 9.587440491 0.4487231672
13.09627914 9.364056587 1.114646912
13.7827177 9.690128326 1.792060018
14.02487564 9.784988403 0.428153187
13.2134428 9.354204178 1.113389611
13.81707096 9.635686874 1.790894151
13.73266792 9.541546822 1.112345457
13.80807495 9.555746078 1.787890196
13.64089489 9.420901299 1.110844851
13.72561073 9.443457603 1.782139778
13.65940189 9.351933479 1.109366655
13.56480694 9.28618145 1.773094535
13.71538067 9.301364899 1.107921362
13.46957779 9.162563324 1.766707301
13.82046413 9.310447693 2.453905106
13.72620392 9.22873497 1.10646832
13.52129459 9.110966682 1.76613152
13.8852663 9.263718605 2.455121756
13.71654129 9.161227226 1.105298519
13.64071178 9.102517128 1.768579125
14.01042747 9.25664711 2.461591244
13.72754669 9.096446037 1.104012012
13.71802044 9.018443108 1.102669001
27.44641304 15.35988998 1.102417111
27.06039619 15.05643368 1.100180984
27.33675575 15.05412674 1.097867846
28.20494843 15.4131813 2.314984798
27.43442345 14.97514248 1.095682025
28.150877 15.26210499 2.308858871
27.63946724 14.94417572 1.093486309
27.94668198 15.04430866 2.297077417
27.28411102 14.66142941 1.091443658
28.11929321 14.99648952 2.299688339
27.32639885 14.5516243 1.089228511
27.97988319 14.80325985 2.290297747
27.32616997 14.42321205 1.087053418
28.19784737 14.7745142 2.29466176
27.51619148 14.37786293 1.084812999
28.23132133 14.65783501 2.291885376
27.9230423 14.42466354 1.082453489
27.90743065 14.28839302 1.080331206
27.99395943 14.20222569 1.078273058
28.25970268 14.1842165 1.075989723
28.04483986 13.97179413 1.074196339
27.63688087 13.67577267 1.072524905
38.89334106 18.12202263 1.059898853
38.91970825 17.96071625 1.057215691
20.7265873 10.55059052 1.074142098
31.71885681 14.89125919 2.385336161
20.83561325 10.54142094 2.903754711
20.56678391 10.39471912 1.0729177
20.489254 10.3384428 1.972939968
20.84880638 10.45383739 2.900943995
20.31679535 10.20507908 1.071836829
20.54271126 10.2678318 1.972346902
20.91375732 10.3865099 2.901994467
20.19078827 10.06554699 1.070648909
20.55493355 10.1811409 1.970281839
20.96362495 10.3131361 2.901959419
20.56599808 10.10959435 1.068704367
20.38516617 10.01554966 1.961422682
20.72562218 10.12028503 2.880411386
20.80930328 10.10569286 1.06698513
20.51962662 9.97125721 1.963704109
20.60288811 9.982660294 2.867821217
20.86454391 10.05614185 3.801544428
20.37864876 9.847570419 1.066212177
20.66747284 9.935941696 1.966597915
20.83628654 9.974233627 2.881192684
20.71726799 9.905137062 3.780316114
20.27466583 9.714235306 1.065026999
20.49225998 9.77066803 1.957692027
20.96695328 9.926316261 2.887037516
21.09946251 9.950333595 3.817703247
20.07428741 9.546606064 1.064019918
20.14005852 9.547088623 1.942674041
20.73174286 9.739295006 2.866041899
21.08595085 9.848750114 3.811362028
20.10090637 9.467814445 1.062759161
20.47114944 9.578478813 1.952168345
20.69141197 9.634271622 2.859700441
20.99562454 9.724645615 3.796869516
20.32113075 9.45859623 1.0611974
20.31721115 9.433819771 1.944432855
20.82351875 9.591386795 2.865932465
21.06214905 9.657351494 3.799705029
20.53550148 9.44114399 1.059577823
20.24128723 9.313533783 1.939398289
21.01768303 9.569667816 2.876667261
21.21255493 9.614562035 3.811542749
20.61229324 9.37389946 1.058193684
20.3331356 9.257525444 1.94044137
21.04395866 9.483194351 2.875074387
20.83815575 9.358075142 1.056554675
20.30733871 9.155580521 1.937245488
21.10198402 9.407727242 2.875813007
20.43102264 9.12788105 1.056133866
20.39835167 9.094120979 1.938183665
21.08803558 9.307431221 2.871397018
20.63233185 9.107840538 1.054624915
20.31365395 8.977222443 1.93310082
20.91913605 9.159807205 2.85605526
20.82761383 9.079761505 1.053066969
21.32759857 9.22974205 1.966400623
20.7457428 9.012125969 2.840476274
20.78195572 8.970320702 1.051985621
21.29575348 9.123195648 1.963037848
21.48995209 9.16475296 2.890570879
20.81943703 8.888754845 1.050759077
21.29575729 9.027558327 1.960819602
50.76600266 18.51666069 0.9875956774
42.7694664 15.40538883 0.9981077909
42.38797379 15.11031437 0.9969466925
27.93851471 10.52172089 1.028116584
27.90676498 10.39240456 1.026866078
42.66307449 14.81348991 2.675757408
27.92461205 10.28434467 1.025588512
42.56518936 14.6180706 2.668946743
28.1739006 10.23867226 1.023710608
27.77110291 10.09412193 2.162630558
27.02718353 9.785037041 1.025254011
27.29612732 9.838195801 2.144126177
26.97531319 9.654823303 1.024186969
27.58842659 9.805883408 2.151688337
27.02529716 9.559863091 1.022947669
27.38691139 9.637799263 2.142691135
26.98018265 9.432388306 1.021911502
27.55771255 9.569533348 2.146187067
27.08684921 9.347388268 1.020506501
27.64597321 9.483312607 2.147033453
27.11031532 9.239142418 1.019335508
27.45771027 9.315666199 2.138517141
27.39656448 9.207317352 1.017537475
27.79383087 9.290223122 2.147619247
27.34077835 9.082902908 1.016664863
27.92770958 9.214877129 2.150063515
27.03244209 8.88728714 1.016454816
27.38641357 8.962538719 2.130009174
27.25375748 8.830750465 1.014820933
28.1615696 9.047326088 2.153772593
27.35544014 8.748092651 1.013579488
27.6639061 8.710996628 1.011716604
27.80938148 8.63157177 1.010323405
27.82836723 8.520489693 1.009309649
34.16807938 9.92364502 0.9898304343
34.1681633 9.784942627 0.9887295365
34.82612228 9.913722992 2.361397743
34.29477692 9.682787895 0.9873312116
34.78563309 9.770767212 2.357971668
33.96102905 9.474579811 0.9873344898
34.68225479 9.61395359 2.352527618
33.94629288 9.340802193 0.9864108562
34.93126678 9.537247658 2.358676672
34.12778473 9.24400425 0.9848623872
34.84400177 9.377604485 2.353741169
34.64515686 9.219334602 0.9822936058
34.8288765 9.241481781 2.351315022
34.7091217 9.093864441 0.9811356068
34.89092636 9.115200043 2.351348162
34.6239357 8.936705589 0.9804685712
35.15013504 9.030148506 2.357835293
34.63997269 8.801319122 0.979511261
34.33080292 8.606714249 0.9796581268
35.06148148 8.615655899 0.9764683247
35.31185913 8.525150299 0.9748219252
41.58310699 9.594120979 0.9536455274
42.22172928 9.698338509 2.577263832
41.58020782 9.438819885 0.9527805448
42.18137741 9.52586937 2.573953152
41.57429504 9.27504921 0.9519092441
42.19148636 9.36325264 2.572324038
41.58353806 9.114301682 0.9510183334
42.15630341 9.200752258 2.569382429
41.63946152 8.962021828 0.9500020742
42.21445465 9.047128677 2.569398642
47.24508667 9.867033005 8.169999123
41.67378616 8.813874245 0.9491257668
42.37841797 8.91177845 2.572858334
41.70565796 8.665247917 0.9482837319
42.41058731 8.761116028 2.572217464
42.47206116 8.632014275 0.9449537396
42.60528946 8.489256859 0.943775475
42.92764664 8.376185417 0.9419797659
49.83647919 9.460633278 2.804558516
49.1436615 9.198382378 0.9200973511
49.80526733 9.274995804 2.801841021
49.02599335 8.992284775 0.9197715521
49.61139679 9.064754486 2.793990374
49.12111282 8.81926918 0.9187505245
49.184021 8.641021729 0.9178727269
49.41261292 8.486276627 0.9164532423
49.59323883 8.32336998 0.9152300358
56.99913025 9.125943184 3.020659924
56.28403091 8.844937325 0.890748024
62.02294922 8.459553719 0.8680571914
62.5445137 8.298185349 0.8658271432
65.82508087 -3.242849588 3.31285882
65.89138031 -3.743705273 3.319810629
32.18876648 -3.707760811 2.269929171
-5.077712536 -22.22396088 4.138205051
-5.017732143 -21.9495697 4.917898178
-5.143839836 -22.07168007 4.123193264
-5.150261402 -22.69907188 5.048765182
-5.084738731 -22.37047577 5.83429718
-5.033250332 -22.79586792 7.671607494
-5.223038673 -22.05336189 4.12607336
-5.136330128 -21.38215637 4.833774567
-5.141395569 -22.02177429 5.769111156
-5.015840054 -20.77721024 6.31003952
-5.105421066 -22.63526344 7.633487701
-5.291413307 -21.89836693 4.110931873
-5.262604237 -22.00692368 4.944028378
-5.235575199 -22.20458031 5.812209129
-5.095590591 -20.82703018 6.327767849
-5.086743355 -21.22297859 7.247543812
-5.364906311 -21.81827927 4.105666161
-5.356570244 -22.17488098 4.97786665
-5.307559013 -22.08806229 5.794335365
-5.255226135 -21.91001892 6.594456196
-5.159148216 -21.15270042 7.234182358
-7.025130749 -39.5192337 5.024281979
-5.448855877 -21.86636925 4.117389202
-5.441815853 -22.22451782 4.991920471
-5.376668453 -21.94594193 5.771224976
-5.319045067 -21.70692062 6.551656723
-5.23017931 -21.07066345 7.217585087
-7.122335911 -39.02417755 4.985210896
-6.303685665 -30.56030273 5.277116776
-5.527272224 -22.27186584 5.005662918
-5.457177162 -21.9481144 5.777639389
-5.396431923 -21.68194008 6.551815987
-5.31346941 -21.1439724 7.244315624
-7.23178339 -38.62142563 4.955415249
-6.413549423 -30.55150223 5.283456802
-5.613610744 -22.32479095 5.020418644
-5.658224583 -23.2533989 6.051560879
-5.477944374 -21.66017914 6.553121567
-5.412283897 -21.39166451 7.319823265
-7.348416328 -38.39148712 4.941932678
-6.532117367 -30.5752964 5.294569492
-5.673073292 -22.08875084 4.986399651
-5.52283144 -20.88004112 5.570816517
-5.552405357 -21.60561562 6.546234608
-5.454397678 -20.98446465 7.212631226
-7.474526405 -38.27014923 4.939037323
-6.644230366 -30.6432209 5.310877323
-5.758426666 -22.1332798 4.999811649
-5.593112469 -20.85289574 5.570804596
-5.612521172 -21.44477654 6.513319016
-5.540712357 -21.08376312 7.246898651
-7.603013515 -38.2441864 4.945053101
-5.97632885 -23.09403992 4.308946133
-5.82040453 -21.94400406 4.973649502
-5.668593407 -20.84069824 5.574202538
-5.72841692 -21.82319832 6.611495018
-5.612976551 -21.02929688 7.2382617
-7.729596615 -38.13786697 4.94364357
-5.898831367 -21.92325401 4.97606039
-5.73193121 -20.71130562 5.553498745
-5.781146049 -21.55311775 6.552474976
-5.688708782 -21.01293564 7.240346909
-5.283915043 -14.57942295 1.536892295
-5.233920574 -14.59848022 2.629575968
-6.042101383 -22.5001812 5.080169201
-5.82706356 -20.88759995 5.595858097
-5.851541519 -21.4685688 6.538476944
-5.116116047 -12.27496624 1.013373137
-5.287722588 -14.59006691 2.632369518
-6.045877934 -21.79668617 4.966504097
-5.900474548 -20.85511398 5.59523344
-5.944258213 -21.59445572 6.575722694
-5.175067425 -12.97521973 1.985683203
-5.33442831 -14.52217293 2.62928009
-6.173517704 -22.20610809 5.042402744
-5.980562687 -20.88272476 5.60708189
-6.139313698 -22.62397575 6.833349228
-5.210225105 -12.28126526 1.018338323
-8.167121887 -37.20285416 4.88733387
-6.241017818 -22.08623886 5.028120995
-6.189477921 -22.0053978 5.845895767
-6.227405548 -22.66565132 6.850608349
-5.438939095 -14.48472023 2.632862329
-6.319241524 -22.06012535 5.029870987
-6.117867947 -20.7425766 5.590462208
-6.307064533 -22.63365364 6.849963665
-7.026565552 -26.3161869 3.818200827
-6.399802208 -22.05330849 5.034966469
-6.191656113 -20.71883965 5.591806412
-6.35124588 -22.31396294 6.778994083
-5.327372551 -12.11614799 1.026773095
-5.275253773 -12.25951099 1.951690316
-7.129848003 -26.3663311 3.829763412
-6.524273396 -22.38445473 5.098139286
-6.250872612 -20.58216667 5.569694996
-6.416615963 -22.17938232 6.753240585
-7.216814518 -26.29382515 3.829076767
-6.599460125 -22.32804871 5.094892979
-6.502391815 -21.91343117 5.853422642
-6.492603302 -22.13328934 6.74917841
-7.308285236 -26.25652695 3.831931591
-6.765014648 -22.9335537 5.205692291
-6.569878101 -21.81262207 5.839185715
-6.607914448 -22.38357925 6.817946434
-6.783266068 -24.01734352 8.154437065
-5.454394817 -12.03704643 1.034581304
-5.392077446 -12.09753132 1.949985147
-5.684729099 -14.29345036 2.63216424
-6.84922123 -22.92903709 5.211627483
-6.659843922 -21.87845993 5.859772205
-6.689921856 -22.37726784 6.823850155
-12.1108532 -62.7309494 19.1364212
-5.01271677 -8.782826424 0.7108855247
-5.742045879 -14.31497669 2.638072729
-6.82938385 -22.20227814 5.092786789
-6.729907036 -21.80045891 5.850361347
-5.046136379 -8.775598526 0.7128255963
-5.151368618 -9.538066864 1.051177621
-5.025743008 -8.988441467 1.401560664
-5.491390228 -12.14090919 1.958750963
-5.057077408 -9.416913033 2.145478249
-6.812457085 -21.81139565 5.859601498
-5.069207668 -8.705140114 0.7172779441
-5.541767597 -12.16527176 1.963342667
-5.016777992 -8.91758728 2.097316742
-6.772435188 -21.00084114 5.696500301
-11.09071255 -51.08278275 15.88888645
-5.103652954 -8.705599785 0.7188882232
-5.078883648 -8.648252487 1.058961391
-5.646214962 -12.52643108 1.990290165
-7.733551502 -25.88264275 3.82739377
-5.120656013 -8.603494644 0.7245466709
-5.599710941 -11.82383537 1.496028543
-5.595174313 -11.93410492 1.953823686
-7.788159847 -25.62753487 3.808074236
-6.946344852 -21.11112404 5.73342514
-5.163750172 -8.665090561 0.7236458063
-5.723368645 -12.01390266 1.049149632
-5.65810585 -11.91333294 1.501376152
-5.644554138 -11.96827984 1.95892489
-7.873418331 -25.59698296 3.811308861
-11.15385151 -45.92974091 7.568864822
-5.203705788 -8.696694374 0.724016726
-5.771827221 -12.02578259 1.051554799
-5.712707996 -11.97696972 1.505949259
-5.689404964 -11.96055889 1.961396217
-5.237061024 -9.411363602 2.157597303
-11.31385231 -45.93226242 7.581468582
-7.094085693 -21.073843 5.73922348
-10.86659241 -44.65725327 12.40709877
-5.222766399 -8.601980209 0.729401648
-5.821230412 -12.02920341 1.054117203
-5.236704826 -8.989762306 1.413971901
-5.727910519 -11.90313244 1.960684299
-5.300132275 -9.551791191 2.174800158
-11.07360649 -43.91788101 8.937178612
-10.88059711 -43.70397949 12.1866951
-5.249323845 -8.560616493 0.7325980067
-5.875022411 -12.05604076 1.056603193
-5.434876442 -9.98297596 1.834278584
-5.298717022 -9.319555283 2.153671265
-11.39140224 -44.35052109 7.3890028
-11.08669281 -43.01433182 8.793112755
-10.88188839 -42.71684265 11.95732784
-5.29338932 -8.613452911 0.7321341038
-5.225651264 -8.530613899 1.403495908
-5.418309212 -9.675603867 1.816026449
-8.233057976 -25.45213318 3.823794842
-11.06935883 -42.01959229 8.631925583
-10.84395027 -41.17935181 10.02576637
-11.01746082 -42.59304428 11.94184685
-5.269217491 -8.308888435 0.7454440594
-5.948421955 -11.95077896 1.061832786
-5.954434872 -12.25418949 1.526127815
-5.474765778 -9.774675369 1.825254083
-11.06191921 -41.11867905 8.486726761
-10.87464142 -40.50034332 9.895447731
-10.83456135 -41.07675934 13.16577816
-5.361567974 -8.61067009 0.7354041338
-5.366944313 -8.716415405 1.07326448
-5.976743221 -12.12175465 1.524616003
-5.988334179 -12.29329586 1.999500513
-11.37793827 -41.63564682 7.047805786
-11.07535553 -40.36571503 8.367125511
-5.406417847 -8.662996292 0.7349818349
-8.460412979 -25.14748383 3.812688828
-11.34828568 -40.6644783 6.923928738
-11.08289814 -39.60935974 8.246556282
-10.85900211 -39.16697693 11.13099194
-5.429793835 -8.607397079 0.7386748195
-5.42603159 -8.663965225 1.07704246
-5.498291969 -9.221201897 1.434368253
-5.464342594 -9.130288124 1.788635492
-8.55120945 -25.12951088 3.817682028
-11.36589241 -39.97424316 6.839019775
-11.04832649 -38.65994644 8.091491699
-10.88948822 -38.2039566 9.447110176
-10.80214214 -38.0893364 10.87546921
-10.88737965 -38.90981293 12.58935642
-5.024416447 -6.42160511 0.5612465143
-5.478681087 -8.677019119 0.7376068234
-6.117469311 -11.87865448 1.07163167
-5.535526752 -9.223910332 1.436632872
-5.53264904 -9.299730301 1.80259335
-6.142149925 -12.46570969 2.499027729
-11.35970974 -39.18723297 6.740171432
-11.02081013 -37.81716537 7.95418787
-11.34492302 -39.83311462 9.808826447
-10.95460224 -38.18521881 10.91322136
-10.87922859 -38.14194489 12.38245296
-5.047404766 -6.410762787 0.56300807
-5.493116379 -8.58833313 0.7424442768
-5.565834045 -9.201386452 1.43795073
-5.395139217 -8.447976112 1.746060729
-6.187582016 -12.4624815 2.502074003
-11.35060883 -38.44885254 6.647222519
-11.02064323 -37.1413002 7.846058369
-11.02339649 -37.8459053 10.84174061
-5.071593285 -6.405698776 0.5643371344
-5.512414932 -8.525062561 0.746296823
-5.533373833 -8.694892883 1.082255125
-5.389266014 -8.184592247 1.405796289
-5.434978008 -8.476364136 1.750290513
-6.219869614 -12.3947773 2.498355389
-11.33826637 -37.71879578 6.555103779
-11.01406288 -36.42203522 7.730496407
-10.86423683 -36.01509857 9.016860008
-10.83300972 -36.17185593 10.43477821
-11.3638401 -39.20418549 12.72087669
-5.099171162 -6.410024166 0.5650218129
-5.550758362 -8.543452263 0.7471513748
-5.587871552 -8.785505295 1.083928943
-5.43747139 -8.256118774 1.410185218
-5.449607849 -8.383514404 1.746105433
-6.299865246 -12.54660034 2.517947435
-11.35904503 -37.13919449 6.484505653
-11.02550983 -35.81528091 7.634586334
-10.85659981 -35.31639862 8.879731178
-10.85648918 -35.61893845 10.30940437
-10.78864574 -35.59392166 11.68963146
-5.12636137 -6.41230011 0.5658509135
-5.592274189 -8.5753479 0.747505784
-5.472742081 -8.264882088 1.41247046
-5.491551399 -8.421417236 1.751016855
-11.48024654 -37.0562439 6.484088898
-11.02314758 -35.16266251 7.530192375
-10.82438374 -34.52242279 8.721721649
-10.83250523 -34.85336304 10.13002396
-10.95888233 -35.77734756 11.75796795
-5.150507927 -6.400854588 0.5676745772
-5.620463371 -8.546616554 0.7501122355
-5.51664257 -8.31256485 1.416099668
-5.506237984 -8.332401276 1.747060776
-11.60675144 -37.00003433 6.487497807
-11.00324154 -34.44888687 7.414535999
-10.83345413 -33.95133209 8.611287117
-10.83025265 -34.21770096 9.983041763
-10.85600185 -34.63402557 11.44051552
-5.175867081 -6.389040947 0.5695645213
-5.651011467 -8.521327019 0.7526550889
-5.791533947 -9.207485199 1.089094639
-5.557736397 -8.338225365 1.419095516
-5.564579964 -8.435913086 1.756726742
-6.406047344 -12.34812737 2.508029222
-11.7269392 -36.8838501 6.482979298
-11.01863384 -33.89228058 7.327203751
-10.95532513 -33.89593887 8.612506866
-10.86521053 -33.7482872 9.878486633
-10.86233139 -34.01758957 11.27653122
-5.201704979 -6.385202408 0.5708161592
-5.700538158 -8.58588028 0.7518112659
-5.798456669 -9.076656342 1.091135502
-5.594779015 -8.352380753 1.421607137
-5.613741875 -8.502508163 1.763733864
-6.489456654 -12.5046196 2.528355122
-11.85864162 -36.85390091 6.490205765
-11.0156126 -33.29896927 7.232421875
-10.76416779 -32.43434525 8.309052467
-11.28471088 -35.10196304 10.23561478
-10.85586452 -33.39175415 11.10868168
-5.228461266 -6.385153294 0.571785748
-5.734499931 -8.582112312 0.7534816265
-5.801419258 -8.940461159 1.093037724
-5.652560711 -8.455994606 1.427259326
-5.584923267 -8.232731819 1.746842265
-6.540132523 -12.51130295 2.532783031
-11.97457981 -36.75391769 6.48747015
-11.0001297 -32.69597244 7.135025024
-11.31939793 -34.6595459 10.13746643
-10.99734306 -33.49313736 11.15225792
-5.255233765 -6.385006428 0.5727559328
-5.770524502 -8.594165802 0.7544947863
-5.833387375 -8.922653198 1.094922543
-5.684896946 -8.454594612 1.429163456
-5.633429527 -8.297199249 1.753698945
-6.567677975 -12.41699409 2.526418686
-12.09222698 -36.69376373 6.489880085
-10.99693775 -32.13824844 7.046023369
-10.9924593 -32.38910294 8.323135376
-10.83378124 -31.9304924 9.456362724
-10.81850243 -32.11683273 10.76426411
-5.280286789 -6.383128166 0.5737974048
-5.80359745 -8.586260796 0.7563079
-5.903250217 -9.062223434 1.096750021
-5.660443306 -8.26821804 1.753932357
-6.626723289 -12.47041607 2.535699844
-12.2080307 -36.5969429 6.48763895
-11.00324631 -31.63857269 6.967196941
-10.99421978 -31.86166763 8.220883369
-10.76477528 -31.09490395 9.256601334
-10.83053303 -31.63152695 10.63640213
-5.302286625 -6.363427162 0.5761650205
-5.83328867 -8.564657211 0.7586086392
-5.925112247 -9.001336098 1.098659396
-5.704933643 -8.312894821 1.759433627
-6.691708088 -12.5365696 2.546587944
-12.33147144 -36.5344696 6.490361691
-11.07264805 -31.42313576 6.939458847
-10.98577118 -31.30609131 8.112212181
-11.29656982 -32.88897324 9.727736473
-10.82895947 -31.10161781 10.49515152
-5.33128643 -6.366562366 0.5769241452
-5.865283489 -8.552656174 0.7605541348
-5.971189976 -9.039405823 1.100551963
-5.849562645 -8.704801559 1.444332719
-5.834565639 -8.70634079 1.790019035
-6.70775032 -12.39746475 2.535377979
-12.46566391 -36.51781845 6.499735832
-11.17985916 -31.37241936 6.9414711
-10.98478127 -30.79861832 8.013712883
-10.81640053 -30.30907249 9.081807137
-10.73314095 -30.18266106 10.23917103
-5.355108738 -6.354439259 0.5787268877
-5.887057781 -8.493638992 0.7642481327
-5.858945847 -8.599495888 1.442667484
-5.842236519 -8.593410492 1.784313083
-6.731312752 -12.28295612 2.52696085
-12.57642174 -36.40446854 6.49519062
-11.32013988 -31.45918655 6.968467236
-10.99627399 -30.33397293 7.924880505
-10.82180214 -29.82361984 8.971029282
-10.8274107 -30.09560966 10.22747803
-5.005785942 -4.86408329 0.4770593941
-5.383378029 -6.359618664 0.5792791843
-5.918776989 -8.481456757 0.7661774755
-5.877076626 -8.524835587 1.442178249
-5.891524315 -8.64269352 1.790415883
-6.809919357 -12.40258503 2.543721676
-12.70060825 -36.31991196 6.495422363
-11.31740856 -30.93567085 6.885275364
-10.99078274 -29.83687401 7.828084946
-10.83583736 -29.41161346 8.878162384
-10.82413578 -29.58070946 10.09034252
-5.020763874 -4.839692593 0.4802345037
-5.410185337 -6.358900547 0.5802489519
-5.948927402 -8.463363647 0.7683088779
-6.039462566 -8.869337082 1.106237769
-5.958977222 -8.708123207 1.450978875
-5.900183678 -8.537489891 1.785216808
-6.825605869 -12.26919746 2.533039808
-10.96705341 -28.86040306 5.42363739
-11.32074928 -30.47521019 6.812714577
-10.98705769 -29.36113167 7.735681534
-10.83597946 -28.95470047 8.773518562
-10.83840752 -29.17598343 9.984716415
-5.038170338 -4.824872494 0.4823646843
-5.433405876 -6.344588757 0.5821834803
-5.978981018 -8.445177078 0.7704345584
-5.976615429 -8.492982864 1.107795358
-5.994958401 -8.709100723 1.453166246
-5.931079388 -8.521207809 1.786454082
-6.859657288 -12.21100521 2.530506849
-10.97844124 -28.47063446 5.376502037
-10.98961639 -28.7053833 6.501033306
-10.98395157 -28.90100288 7.646435738
-11.78116608 -32.29936218 9.647326469
-10.96042061 -29.21753311 10.01088524
-5.056531906 -4.813839912 0.4840758443
-5.458637238 -6.337906837 0.5835639834
-6.000620842 -8.396011353 0.7736381292
-5.930293083 -8.188677788 1.109283805
-6.02029562 -8.669352531 1.453854918
-5.954308033 -8.475873947 1.785568953
-6.032614231 -8.841917038 2.165752649
-11.06199074 -28.37070274 5.371470451
-11.00273705 -28.32706451 6.442523003
-10.97580051 -28.43372154 7.55534935
-10.9810791 -28.85406876 9.91719532
-5.079606056 -4.820004463 0.4839250445
-5.487742901 -6.340417862 0.5843263268
-6.049306393 -8.44708252 0.7733199596
-5.938923836 -8.095217705 1.110912323
-6.029397488 -8.569684029 1.452302456
-9.745267868 -22.78300858 3.697829723
-11.16804314 -28.35865784 5.379293442
-11.10263824 -28.29207611 6.446699619
-10.97524643 -28.00856781 7.473272324
-10.80335426 -27.53014755 8.443997383
-10.80686665 -27.7365799 9.599496841
-5.104348183 -4.831826687 0.4831585884
-5.513494968 -6.335467815 0.5855685472
-6.119199276 -8.56683445 0.7706991434
-5.991465569 -8.163799286 1.112734199
-9.811359406 -22.68261719 3.6941154
-11.27970409 -28.36728477 5.390201092
-11.21295261 -28.29673004 6.458204746
-10.97529793 -27.57676888 7.390054703
-10.82569408 -27.18821907 8.368560791
-10.81618118 -27.35948753 9.500968933
-5.004734039 -4.370847702 0.3390112221
-5.128564358 -4.837524891 0.4830695689
-5.537607193 -6.324665546 0.587218523
-6.158111572 -8.578882217 0.7717686296
-6.220351219 -9.065144539 1.836435795
-9.896679878 -22.6714859 3.699878931
-11.39454746 -28.36642075 5.400269985
-11.31474686 -28.26862717 6.463769436
-10.96993256 -27.15620804 7.308492661
-10.80803394 -26.72411346 8.260640144
-10.83078384 -27.0124588 9.411157608
-5.026566982 -4.381202221 0.3377664983
-5.133806229 -4.784414768 0.4892427325
-5.562765598 -6.317620277 0.5885934234
-6.209138393 -8.63931179 0.7710959911
-6.054579735 -8.146207809 1.116183758
-5.977680683 -8.001456261 1.437211752
-6.210911274 -8.895879745 1.826498389
-6.159900665 -8.767924309 2.169230938
-11.50241852 -28.3794384 5.411472797
-11.42726898 -28.28007507 6.476678848
-10.96453857 -26.76575661 7.232788563
-11.28236103 -28.12624168 8.636353493
-10.81238842 -26.55057335 9.286879539
-5.036046028 -4.34557724 0.3431602418
-5.146923542 -4.755884171 0.4927848876
-5.58775568 -6.314678669 0.5896269083
-6.241808414 -8.627955437 0.7729770541
-6.067936897 -8.073792458 1.117779732
-6.168537617 -8.613483429 1.808063507
-10.0386467 -22.56134987 3.701406956
-11.60975647 -28.36961555 5.419864655
-11.54416656 -28.30627441 6.492402077
-10.95986366 -26.36865616 7.155950069
-11.39326096 -28.13303947 8.651134491
-10.80589008 -26.14487457 9.17905426
-5.052053452 -4.332742214 0.3452534676
-5.173369408 -4.773126125 0.4914039671
-5.614562988 -6.313202858 0.5905933976
-6.267718792 -8.593459129 0.7756418586
-6.132610798 -8.180038452 1.119737387
-6.069891453 -8.089529037 1.444650888
-6.176599503 -8.515721321 1.803281665
-10.14148808 -22.61254883 3.714170933
-13.78681755 -35.72904587 6.518428802
-11.89959621 -29.18541527 6.666023731
-10.96138859 -26.00400352 7.086091518
-10.79916954 -25.58123779 7.999413967
-10.8047905 -25.76924706 9.079950333
-5.075971603 -4.346422195 0.3435123265
-5.196538448 -4.778816223 0.4912564456
-5.644227982 -6.321190357 0.5908862352
-6.24869585 -8.407446861 0.7834456563
-6.142825127 -8.097883224 1.121291995
-6.207755089 -8.500447273 1.80464232
-10.25899696 -22.71302223 3.732499599
-13.89824104 -35.6347847 6.516931057
-11.99698067 -29.1283493 6.666833878
-10.96365166 -25.65099335 7.018616199
-10.79234886 -25.19935226 7.911818504
-10.80936527 -25.42363548 8.989584923
-5.110379219 -4.394119263 0.3368587196
-5.221498013 -4.790125847 0.4905000031
-5.665928841 -6.302307129 0.5930659771
-6.296582222 -8.449581146 0.7834647298
-6.143370628 -7.985098839 1.122737885
-6.325519085 -8.729052544 1.473590493
-6.256156445 -8.544434547 1.810463905
-10.37840748 -22.81676865 3.751296759
-14.0157032 -35.56302643 6.518793106
-12.08756065 -29.04825974 6.663407803
-10.96567917 -25.30585098 6.952689171
-10.72271347 -24.60513115 7.76845789
-10.76792336 -24.92298698 8.852452278
-5.101982117 -4.301520824 0.3504166901
-5.233152866 -4.757576942 0.4944320023
-5.695074558 -6.308176994 0.5934954882
-6.346532822 -8.497229576 0.7833076119
-6.172593117 -7.970083237 1.124411106
-6.287937164 -8.530806541 1.811971188
-10.50086689 -22.92759323 3.770992517
-14.1405859 -35.5174942 6.524596691
-12.18205547 -28.98303986 6.662769318
-10.95673084 -24.93098831 6.879909992
-10.7148056 -24.24108505 7.684932232
-10.73151398 -24.45256805 8.724021912
-5.120681286 -4.297942638 0.3511321545
-5.273478985 -4.818131924 0.4883925021
-5.720765591 -6.30248785 0.5947312117
-6.339987278 -8.359271049 0.7893883586
-6.179423332 -8.000886917 1.449450135
-7.000261307 -10.86118317 2.422015667
-14.25176239 -35.42598724 6.523584366
-12.28068066 -28.93263054 6.66492939
-10.95623779 -24.59407043 6.815405846
-10.78190708 -24.14373779 7.67114687
-11.71185207 -27.51161957 9.658405304
-5.135197639 -4.28107214 0.3537520468
-5.289813995 -4.800645351 0.4906958342
-5.744656563 -6.290992737 0.5963659286
-6.397137165 -8.429556847 0.7884699702
-6.28512001 -8.1155653 1.128295541
-6.163814545 -7.838487148 1.445101738
-6.337993145 -8.459327698 1.811635494
-10.51249313 -22.36503983 3.722321987
-14.36587906 -35.34551239 6.524247169
-12.37792301 -28.87812424 6.666368961
-10.95291138 -24.2556324 6.750354767
-10.94869041 -24.38666725 7.746812344
-11.80447388 -27.45903778 9.657134056
-5.166499615 -4.31701088 0.3487560153
-5.299413681 -4.762255192 0.495220989
-5.773306847 -6.294640064 0.5969330072
-6.416435242 -8.377511024 0.7916356325
-6.432339668 -8.476107597 1.131241679
-6.11998558 -7.588466644 1.43720305
-6.407492161 -8.56937027 1.822580695
-7.208153248 -11.24867535 2.473128557
-14.48417282 -35.27984619 6.527157784
-12.47604942 -28.82707214 6.668499947
-10.95521164 -23.94376755 6.691079617
-10.96202278 -24.10839272 7.685559273
-11.89844418 -27.41168594 9.657515526
-5.207510471 -4.385138988 0.3391096592
-5.319362164 -4.760166645 0.4958375692
-5.798362255 -6.286770344 0.5982987285
-6.440471649 -8.346904755 0.7940023541
-7.087778091 -10.43990898 1.139872193
-6.411027431 -8.470029831 1.817434669
-10.50737858 -21.78769875 3.671083927
-14.59235668 -35.204422 6.527998447
-12.56989193 -28.78110313 6.671038628
-10.94774437 -23.62234879 6.628926277
-10.95572853 -23.78717995 7.612216473
-10.79020786 -23.37889099 8.450615883
-5.210193157 -4.328160286 0.3474815488
-5.353842735 -4.799321175 0.4920674562
-5.821540356 -6.27311945 0.600059092
-6.46754837 -8.315214157 0.7965342999
-6.263609886 -7.73025465 1.132018328
-6.420391083 -8.338287354 1.471201777
-6.490945339 -8.610007286 1.830764174
-14.70994186 -35.13803482 6.530866623
-12.64660263 -28.66172028 6.66040659
-10.95471096 -23.32474136 6.573029518
-10.95930767 -23.47471046 7.542164326
-10.79777336 -23.09830284 8.378316879
-5.2072258 -4.25835228 0.3576776683
-5.387124062 -4.830422878 0.4891732037
-5.849005222 -6.272667885 0.600892067
-6.508311749 -8.331483841 0.7974102497
-6.410307884 -8.190421104 1.467502475
-6.529978275 -8.6121521 1.833685994
-14.83112907 -35.06167221 6.532917976
-12.75479889 -28.62691689 6.666300297
-10.95079041 -23.0138588 6.513412476
-10.96280861 -23.18432045 7.477157116
-10.78893757 -22.75607872 8.287734985
-5.240911007 -4.29949379 0.3518963456
-5.407706261 -4.825818062 0.4900587201
-5.875863552 -6.270218372 0.6018573642
-6.362682343 -7.78182888 0.8167519569
-6.330188274 -7.725477695 1.135435224
-6.381612778 -7.993833065 1.461651206
-6.545371532 -8.546339035 1.831229448
-10.33795738 -20.43049431 3.537922859
-10.46759987 -20.94636536 4.408342361
-12.84938812 -28.56713104 6.666943073
-10.9518404 -22.72569847 6.458754063
-10.96205807 -22.88683128 7.41008091
-10.78679848 -22.45778465 8.209635735
-5.24311924 -4.246615887 0.359632194
-5.40730238 -4.758911133 0.4975678027
-5.903370857 -6.269560337 0.6026917696
-6.399243355 -7.790817738 0.8177822232
-6.595192432 -8.592957497 1.837350845
-10.5036068 -20.7969799 4.393614769
-10.48328686 -20.85857582 5.219056129
-10.95454311 -22.44901848 6.40652895
-10.95640469 -22.58042717 7.340440273
-10.78268337 -22.17398834 8.135116577
-5.287743568 -4.321572304 0.348962754
-5.42794466 -4.758327961 0.4979853034
-5.929620266 -6.265016079 0.6037888527
-6.431829929 -7.792589188 0.8189796805
-6.408473492 -7.764806747 1.138886213
-6.632552147 -8.548681259 1.488575935
-7.338787556 -10.73558235 2.007032871
-7.439774036 -11.10075378 2.479327917
-10.49068356 -20.51338959 4.358016968
-10.49651527 -20.64048958 5.186605453
-10.49308014 -20.75475502 6.030825138
-10.96364021 -22.33480263 7.286192894
-10.77899551 -21.88368416 8.059038162
-5.297489643 -4.291111469 0.3534528911
-5.466448307 -4.806251049 0.4932558537
-5.951978683 -6.249050617 0.6056684256
-6.440804005 -7.719934464 0.8226358891
-6.48302269 -7.885282516 1.141140103
-6.682630539 -8.588788033 1.492483377
-6.563424587 -8.277620316 1.818007112
-7.468227386 -11.05342579 2.477575779
-10.49391556 -20.27212524 4.329113007
-10.49846745 -20.39267921 5.148386955
-10.49996567 -20.51935577 5.987033367
-10.50104237 -20.63528824 6.844551086
-10.47680187 -20.67649651 7.702195168
-5.309911251 -4.265947342 0.3571744561
-5.495482445 -4.825789452 0.4915408194
-5.977528095 -6.242442131 0.6068924069
-6.485371113 -7.746965885 0.8231402636
-7.34320116 -10.29031277 1.154587746
-6.693853378 -8.513216972 1.491604686
-6.60178566 -8.285643578 1.821230531
-7.517028809 -11.05361938 2.481697321
-10.50246239 -20.05175781 4.303278446
-10.50623322 -20.16754723 5.114347935
-10.50040627 -20.25694084 5.937417507
-10.49928188 -20.36345291 6.783383846
-10.50607586 -20.51024246 7.663212299
-5.303404331 -4.190633297 0.3680899739
-5.5025177 -4.779160023 0.4968647361
-6.00635767 -6.245161533 0.6074656844
-6.514828682 -7.734674454 0.8248379827
-6.747610569 -8.449929237 1.147437692
-6.720816135 -8.529438019 1.843049049
-10.50272369 -19.69962692 3.487843037
-10.4954071 -19.77785873 4.269513607
