# .PCD v0.7 - Point Cloud Data file format
VERSION 0.7
FIELDS x y z
SIZE 4 4 4
TYPE F F F
COUNT 1 1 1
WIDTH 1300
HEIGHT 1
VIEWPOINT 0 0 0 1 0 0 0
POINTS 1300
DATA ascii
-18.64951706 19.18565941 8.301486969
-13.66849232 12.88703537 0.7933094501
-12.80585194 11.91310883 1.321290493
-12.67765617 11.75395489 1.815630078
-13.733881 13.05070877 2.456139326
-12.36623955 11.50694466 3.258374691
-10.20942593 8.959024429 3.113804817
-11.35574532 10.37102413 3.911020279
-9.992749214 8.760151863 3.806018591
-18.69887924 19.37722015 8.35165596
-13.58542538 12.87340069 0.7920843363
-12.58069992 11.71564293 1.808770061
-13.57004261 12.94134235 2.437492132
-12.4640274 11.65754414 2.786506176
-12.32924938 11.53820133 3.256179094
-9.997226715 8.822122574 3.817724466
-18.36933708 19.10681725 8.220851898
-13.62445164 13.00504971 0.787106812
-12.71819115 11.95755959 1.820221424
-13.52421474 12.97202492 2.434490919
-12.38220119 11.63550091 2.775920391
-12.55355167 11.88654041 3.318018198
-9.898933411 8.696640015 3.033646107
-18.42382431 19.15172958 6.478006363
-9.953746796 8.82575798 3.809424162
-18.25887489 19.1019268 8.194486618
-13.30036354 12.7050209 0.79323107
-12.61627674 11.92055893 1.312704325
-12.70126247 12.01591873 1.819626212
-12.75822544 12.12917137 2.335400343
-12.34162045 11.66674042 2.773349524
-12.71671677 12.16470623 3.365264654
-18.12477684 18.9211483 6.390039444
-9.941753387 8.870927811 3.814873934
-18.21945763 19.18445587 8.202309608
-12.91574764 12.32244873 0.8016688824
-13.25988007 12.78694916 1.326159954
-12.72900867 12.133008 1.82257247
-12.69815826 12.14009476 2.330429077
-12.37559414 11.78554058 2.784699678
-12.24690437 11.67108345 3.257128716
-9.832003593 8.729183197 3.026953459
-17.9726429 18.86219025 6.353892326
-11.31740475 10.68453693 4.887095451
-12.7973547 12.25920105 0.8018245697
-13.14131641 12.72638702 1.321927547
-12.65894604 12.17232323 2.328104973
-12.31638336 11.79049587 2.778405905
-10.03683376 9.071499825 3.48164463
-18.51537514 19.74928284 7.475605965
-11.3047266 10.73945808 4.895489693
-13.65812683 13.39943218 0.7702465653
-12.19539928 11.64235592 1.298800349
-12.53735065 12.05764008 1.809042931
-12.56956768 12.14236832 2.319047689
-12.28710651 11.8323164 2.777818441
-17.99076271 19.07627869 5.540754795
-10.03988361 9.134401321 3.491489172
-18.20859528 19.49790382 7.368961811
-11.27162361 10.76884079 4.894037247
-13.61073017 13.43002796 0.7677871585
-11.83719921 11.27359104 1.289298892
-13.21573925 12.98116779 1.863075972
-12.34844589 11.94704723 2.292216301
-12.28737545 11.91132069 2.782914639
-12.55569363 12.29390907 3.355490685
-25.09292603 28.18045616 7.740692616
-9.977369308 9.114728928 3.477379799
-17.98615074 19.34951973 7.2976861
-14.09584999 14.12521458 0.7476103306
-11.78977203 11.28855228 1.286903381
-12.23626614 11.84121513 1.786884427
-12.19470501 11.87371826 2.77021718
-10.59253979 9.888306618 2.872465372
-25.01359558 28.27692223 7.739933968
-9.924688339 9.107001305 3.466827154
-17.82080078 19.2714653 7.250481129
-17.68921661 19.18143082 8.081475258
-11.92489719 11.53372765 1.28859508
-12.12182236 11.8196516 2.267414093
-12.12082291 11.85901356 2.761091709
-11.28279495 10.83440685 3.051553488
-9.930788994 9.174463272 3.477969408
-17.67460251 19.29583549 8.101955414
-14.49665451 14.82313633 0.7253363729
-11.97804642 11.67780304 1.288406491
-12.15980911 11.90211105 1.782361388
-12.08372974 11.84986019 2.265161037
-12.07037544 11.87366199 2.756468296
-12.73953629 12.77933216 3.42475009
-10.86894798 10.41384411 3.390827656
-9.913861275 9.212731361 3.480686188
-10.65763855 10.25709057 4.649860859
-14.37526035 14.76846981 0.724974215
-11.92443275 11.68683243 1.285830259
-12.05007935 11.8410635 1.774464011
-12.11163425 11.9648695 2.27189827
-12.04183769 11.91634464 2.756093264
-12.56522465 12.63982105 3.388750792
-9.913351059 9.272660255 3.489579916
-9.634020805 8.942451477 3.765402794
-10.39108372 9.974591255 4.531437874
-13.46085358 13.69390774 0.7523396611
-11.81449032 11.62292194 1.282023311
-11.67882538 11.44162369 1.74590373
-12.53976917 12.59908009 2.333293438
-12.3777647 12.43266773 2.8266294
-24.34407043 28.20450211 7.627656937
-9.998695374 9.446036339 3.530692816
-9.634012222 9.00130558 3.775970459
-10.25801277 9.864644051 4.47884655
-13.00531673 13.19692326 0.7642168999
-11.7575531 11.62651539 1.279389262
-11.84806538 11.73764896 1.760019302
-12.30256844 12.41810989 2.817429781
-10.29488945 9.828211784 2.827539206
-10.8641119 10.61698437 3.41477561
-9.967731476 9.467550278 3.528492212
-9.625535011 9.049438477 3.782956123
-10.53546047 10.30128479 4.631968021
-12.87718391 13.11887455 0.7647295594
-11.5416069 11.42169476 1.273331523
-11.66826916 11.58114338 1.746547937
-12.4689045 12.67655659 2.32995677
-10.25779915 9.844290733 2.824180841
-10.81487656 10.62262821 3.407929659
-9.240615845 8.560119629 3.263902903
-9.631834984 9.11776638 3.796539545
-10.89218616 10.85072327 4.826371193
-12.81301594 13.12758827 0.762788415
-11.3755455 11.27922535 1.268398881
-11.6382513 11.61921883 1.744922519
-12.60693455 12.94487381 2.352158546
-10.22305202 9.863379478 2.821428776
-10.82096004 10.70204163 3.418591022
-9.204429626 8.570561409 3.259163618
-9.609819412 9.151583672 3.798323393
-10.90298748 10.93881416 4.847342968
-11.27375412 11.22334099 1.264803648
-11.61340618 11.66820717 1.743749976
-12.48027325 12.86836815 2.33817482
-10.21501827 9.921574593 2.825863123
-10.74763203 10.67871952 3.404567719
-9.151041985 8.554715157 3.247458935
-9.590228081 9.185821533 3.800691366
-10.86173153 10.96041965 4.842875957
-12.74700928 13.22246456 0.7568193674
-11.27365303 11.29845619 1.263434529
-11.5375452 11.64535236 1.73849225
-11.800313 12.04304504 2.247482538
-13.74888706 14.71687603 3.126322746
-10.58887386 10.49379349 2.928557396
-10.18713951 9.988904953 3.234530687
-9.069988251 8.50338459 3.225567341
-9.637420654 9.314885139 3.833426476
-10.80303574 10.95419598 4.828738213
-14.00978088 14.99704838 0.7057114244
-11.40727234 11.55056953 1.264908195
-11.65203667 11.87408829 1.748330235
-11.75509167 12.05946064 2.244155407
-13.71848679 14.76690102 3.126336575
-10.3875103 10.28643608 2.882787943
-10.15703869 10.01139069 3.232756138
-8.974959373 8.423380852 3.196900129
-9.562224388 9.267209053 3.810052156
-10.70924187 10.89510822 4.795753002
-13.85233402 14.88726139 0.7069223523
-11.41638088 11.64087963 1.263675094
-11.72164631 12.04887295 1.754665256
-11.67015266 12.02572823 2.235466719
-11.40084362 11.7006588 2.671981812
-10.35710812 10.31392574 2.881463766
-10.09758377 9.996769905 3.221977949
-9.606487274 9.39090538 3.841294289
-10.75694466 11.03616524 4.836190701
-13.81535625 14.93929386 0.7035918236
-11.31159019 11.5764389 1.260087967
-11.68629074 12.08242226 1.752655983
-11.64543343 12.07368469 2.2351439
-10.83678532 11.00353909 2.564677
-10.34745026 10.37015533 2.885571718
-10.00386143 9.933992386 3.200087547
-9.448884964 9.196353912 3.397084236
-9.653336525 9.51974678 3.874011517
-10.66280651 10.97935104 4.803696156
-12.73418522 13.55998039 0.7408514619
-11.24612904 11.56479549 1.257321477
-11.67781353 12.15303135 1.752795935
-10.80038834 11.02772141 2.562369347
-10.41357327 10.532444 2.90957737
-9.947227478 9.921833992 3.190083265
-9.429018974 9.230200768 3.398891211
-9.661329269 9.595355034 3.889461517
-10.61664391 10.98931694 4.795892715
-12.71462631 13.62602615 0.7372814417
-11.20306778 11.58364773 1.255013585
-11.49712658 11.98554516 1.739180923
-11.38945198 11.88293266 2.205613613
-10.82517529 11.137393 2.572372198
-10.22396183 10.33783436 2.866607666
-9.810020447 9.795567513 3.153810501
-9.395480156 9.244885445 3.395428419
-9.644384384 9.636310577 3.893751383
-10.58918285 11.02576542 4.797836304
-12.62236786 13.59142685 0.736574471
-11.22049522 11.68689346 1.253910899
-11.44216728 11.99073315 1.735601783
-11.34188461 11.8975935 2.202058077
-10.80902863 11.19067955 2.574215412
-10.23557663 10.42451382 2.876413584
-9.775614738 9.813083649 3.150876522
-9.528849602 9.497502327 3.457236528
-9.62944603 9.680427551 3.899041176
-10.71792126 11.28716564 4.881695271
-12.58388138 13.63121033 0.733735323
-13.03146648 14.3157196 1.288197875
-11.49607563 12.14873886 1.74074614
-11.29661274 11.915308 2.198827744
-10.3625412 10.67646503 2.916866779
-9.674733162 9.735409737 3.126142025
-9.40077877 9.377967834 3.416953087
-9.599947929 9.703870773 3.897746801
-11.9960041 13.21859932 5.57123661
-13.56896019 15.12152863 0.6888644099
-12.92817783 14.26881123 1.284341455
-11.42573166 12.13258743 1.735943079
-11.22152042 11.89043236 2.191385269
-10.15211773 10.44758701 2.867996216
-9.611440659 9.710432053 3.113626003
-9.373076439 9.4047966 3.416441202
-9.579791069 9.744247437 3.901409149
-11.80045414 13.02602959 5.488026142
-13.58716011 15.25296974 0.6831445098
-12.84708881 14.25738239 1.280841589
-11.32614517 12.07817745 1.728828907
-11.20406532 11.95154476 2.192251682
-10.38430691 10.81501484 2.503545523
-10.10591698 10.45596218 2.862941027
-9.534611702 9.66837883 3.096979141
-9.323571205 9.396686554 3.406831741
-9.551152229 9.769125938 3.900607347
-11.73778629 13.03026772 5.475696564
-13.54485416 15.30446148 0.679623723
-12.84155464 14.34904289 1.278890252
-11.59384632 12.54683685 1.751213789
-11.01125336 11.75559139 2.168051481
-9.774326324 10.00769615 2.384012699
-10.08714199 10.5004673 2.864880085
-9.53176403 9.730325699 3.104394674
-9.340762138 9.489425659 3.424220324
-9.506763458 9.774152756 3.893151999
-10.38119602 11.10968018 4.771876335
-14.33894253 16.55915451 0.6409082413
-12.7854681 14.37329388 1.275867462
-11.30053806 12.21300793 1.728512764
-9.767615318 10.02961445 1.993997931
-10.45704079 11.11988449 2.971794128
-9.508261681 9.765767097 3.105441093
-9.297721863 9.490767479 3.417225599
-9.483393669 9.806822777 3.894864798
-10.32466602 11.10686302 4.759400368
-14.30693722 16.62970352 0.6367294788
-11.27511787 12.26636696 1.2456882
-11.24640179 12.21881294 1.725011945
-9.740262985 10.05816746 1.992770791
-11.35962963 12.48142338 2.720183134
-10.28745079 10.94616318 2.933516264
-9.481742859 9.793568611 3.105097771
-10.12045574 10.7844286 3.757773399
-9.527509689 9.940894127 3.928308249
-9.724228859 10.28002071 4.453012466
-14.30498791 16.74481964 0.6312112212
-11.24893951 12.31327915 1.243610859
-11.18109512 12.20785141 1.720608115
-9.685982704 10.04700565 1.987690687
-10.27334785 11.00132084 2.937136173
-9.450739861 9.814752579 3.103278399
-10.22215366 11.01278305 3.810652971
-9.535522461 10.02212524 3.94508791
-9.684167862 10.29110241 4.447100639
-12.50701523 14.20754433 0.7044907808
-13.55157948 15.81643391 1.284202218
-11.07686806 12.13858795 1.713052392
-9.640746117 10.04881859 1.983899951
-10.06529236 10.72128487 2.463433743
-10.94371319 12.08549118 3.127230167
-9.435949326 9.860411644 3.106961966
-10.17185783 11.01386356 3.802489758
-9.706656456 10.35270786 4.039322376
-9.730098724 10.43360424 4.487951279
-13.17711353 15.36932087 1.275309443
-11.07877254 12.22648621 1.714084029
-9.614361763 10.0786314 1.982826352
-10.02445412 10.7344389 2.460051537
-9.6328125 10.18592548 2.777120352
-10.18127918 11.06264114 3.368837595
-9.525766373 10.14779377 3.966997623
-9.669762611 10.41409779 4.471185684
-13.14272118 15.36279106 0.666261673
-13.13768768 15.4196558 1.272548199
-11.09342098 12.33450603 1.716162324
-9.628527641 10.16990662 1.987637877
-9.99889946 10.77065849 2.459869862
-9.628623009 10.25057602 2.782962799
-9.339025497 9.849657059 3.091568947
-10.60112953 11.83058929 4.002673149
-9.55240345 10.2603302 3.993247509
-9.600302696 10.37977123 4.449305534
-13.06687546 15.35787582 0.6644595265
-11.0723877 12.39058971 1.234025717
-9.626256943 10.23364544 1.989969969
-9.45044136 10.04838562 2.740906715
-9.280529022 9.8247509 3.079947233
-9.991811752 10.96978664 3.765868664
-9.607604027 10.41879845 4.03351593
-9.601955414 10.45223904 4.465684891
-13.48441029 16.0979023 0.6402174234
-11.02901268 12.41191483 1.231620073
-11.40172195 12.97626781 1.743025184
-9.513178825 10.13149261 1.976327658
-10.00024509 10.92461205 2.470648289
-9.508117676 10.20458603 2.7634902
-9.241974831 9.833649635 3.075564146
-8.84189415 9.247003555 3.303362608
-9.51837635 10.39474964 4.435856342
-13.48488235 16.21458626 0.6346181631
-12.83656311 15.28489494 1.2611624
-11.37265301 13.02396679 1.74162221
-9.47015667 10.13581944 1.972859502
-9.784199715 10.66230106 2.430007458
-9.594122887 10.41064358 2.794525385
-9.233036995 9.888805389 3.0814147
-8.80338192 9.25116539 3.29775548
-9.909023285 11.04056549 4.207252502
-9.489380836 10.42280865 4.436193943
-14.99436188 18.66471863 0.5577601194
-12.78204155 15.31065083 1.258150816
-9.454092026 10.18191242 1.97334218
-9.571519852 10.40475178 2.390058041
-9.656477928 10.58237171 2.819257736
-9.294242859 10.05533695 3.111709356
-8.849222183 9.388960838 3.32725668
-9.888088226 11.08641052 4.212200165
-9.58310318 10.64762115 4.505290031
-14.66467571 18.29432297 0.5665922165
-13.76469612 16.95895004 1.27257514
-13.82081032 17.03964043 1.943724632
-9.504158974 10.33228588 1.983579636
-9.575610161 10.48484707 2.39606142
-9.649106979 10.64592552 2.824682951
-9.269648552 10.08752441 3.112395048
-8.811944962 9.398999214 3.322840452
-10.12470055 11.54652023 4.343342781
-9.568324089 10.70040226 4.51409483
-13.03963375 15.88279533 0.638410151
-17.82890129 23.49919891 1.337461829
-13.4684391 16.6151638 1.916253328
-11.78912067 14.02789211 2.324090242
-9.565897942 10.5476532 2.399446249
-10.27555752 11.72674084 3.009166002
-9.269289017 10.1624012 3.122088909
-8.829194069 9.496837616 3.341357708
-9.802015305 11.11160946 4.201432228
-9.576627731 10.79514694 4.536973
-14.55093384 18.39732552 0.5584485531
-14.54765415 18.46594238 1.280394197
-12.12652779 14.61044121 1.807545066
-11.73151875 14.04317951 2.319867134
-9.530571938 10.57005215 2.397380352
-10.19001961 11.67790508 2.993854284
-9.193007469 10.11526871 3.105180502
-8.936823845 9.742970467 3.398316383
-9.683777809 11.00310421 4.159237385
-9.291028976 10.40852261 4.393037319
-13.39673615 16.69750786 0.6088044643
-14.21867085 18.08208275 1.272377133
-13.50763035 16.93551254 1.922203422
-11.93589306 14.479949 2.354607105
-10.67538071 12.50036621 2.650307178
-9.728485107 11.01710987 2.871501207
-9.195238113 10.19514179 3.115937948
-8.990875244 9.904994965 3.433143139
-9.651834488 11.03456783 4.159575462
-9.428782463 10.71598625 4.489649296
-13.03779984 16.29649734 1.251343369
-13.4850111 17.01797295 1.921609163
-11.88803768 14.49807549 2.351335526
-9.616944313 10.86299896 2.426813364
-9.70426178 11.05319595 2.872194767
-9.230480194 10.31916618 3.137127399
-9.169971466 10.26504326 3.519987106
-9.65826416 11.12180042 4.177593231
-9.337833405 10.63478661 4.453287125
-13.39235592 16.91901207 0.5978823304
-12.98198795 16.32626534 1.248173118
-13.36566353 16.94386482 1.913054824
-11.10887051 13.33189964 2.239025354
-9.562559128 10.85226917 2.420505524
-8.972014427 9.922139168 2.669810295
-9.215940475 10.36978531 3.141744137
-9.128908157 10.26747227 3.513862133
-9.509135246 10.94988346 4.117718697
-9.374529839 10.77441692 4.492079258
-13.32183743 16.9294281 0.5953698754
-12.99064827 16.46169472 1.245991707
-13.29304695 16.95101738 1.90841198
-11.45569038 14.001091 2.295105934
-9.565580368 10.93205261 2.426450253
-8.921179771 9.909254074 2.662388325
-9.430498123 10.80346394 3.22867775
-9.09826088 10.29085732 3.51281786
-9.473126411 10.96968555 4.11517477
-9.335251808 10.78722954 4.487240314
-13.05855751 16.62858009 0.6025857329
-12.80175877 16.27226257 1.240785599
-10.68866348 12.83170128 2.183696747
-10.40164566 12.41003895 2.616026163
-8.892813683 9.933493614 2.661435604
-9.350769043 10.74839211 3.210356712
-9.070851326 10.32354355 3.513826609
-9.571802139 11.22248268 4.181807518
-9.318253517 10.83796501 4.495411396
-13.01193523 16.67540169 0.5989482999
-12.82739353 16.43664742 1.238836169
-11.55723381 14.32094574 1.767434239
-10.63272858 12.83293247 2.179101229
-8.540716171 9.373531342 2.212007523
-8.625921249 9.558524132 2.59147191
-8.06107235 8.63906765 2.753305435
-9.046901703 10.35853386 3.515783072
-9.586594582 11.33117771 4.205609798
-9.144892693 10.61995029 4.411990166
-12.93397808 16.66382599 0.5972659588
-12.73839474 16.41066742 1.235165477
-11.48616886 14.3030405 1.762633324
-11.39562607 14.21460152 2.298826218
-8.505108833 9.380993843 2.208940983
-8.578204155 9.543313026 2.584233522
-7.982470512 8.566937447 2.732925177
-9.049972534 10.43637943 3.529005766
-9.894709587 11.9435873 4.379308701
-9.062188148 10.55542564 4.381203175
-12.90581226 16.74799919 0.5923008919
-12.66902065 16.41696739 1.231790781
-11.42518234 14.30683899 1.758723617
-10.86285019 13.41557693 2.222006083
-8.495096207 9.428591728 2.211325169
-8.627771378 9.69799614 2.605882168
-8.075157166 8.788725853 2.775086641
-10.80852413 13.5650053 4.316198349
-10.81429482 13.63447475 4.871012688
-9.022837639 10.5653944 4.375854015
-12.87106991 16.82183456 0.5876409411
-12.58487892 16.40385437 1.22809267
-11.36293983 14.31347561 1.754766703
-10.8330946 13.47022438 2.221793413
-8.445902824 9.416106224 2.20548892
-8.508442879 9.566260338 2.578290224
-8.024709702 8.768241882 2.765462399
-10.76993656 13.60588551 4.316930771
-10.78112221 13.68549347 4.875255585
-8.94492054 10.5110836 4.348401546
-14.23890018 19.29207611 0.5056220293
-12.50296307 16.3937912 1.224436045
-11.30276489 14.32328892 1.750981927
-11.16050148 14.14277172 2.27646184
-8.413730621 9.43265152 2.203449011
-8.493440628 9.614017487 2.581402779
-10.75650978 13.6861372 4.328075886
-10.57050896 13.42265892 4.78709507
-9.617343903 11.79139709 4.770967484
-14.20378494 19.37944031 0.5002557039
-12.44791412 16.42336655 1.221274137
-11.13416767 14.20421028 2.27683115
-8.369190216 9.424052238 2.198379993
-8.444484711 9.598972321 2.574094534
-8.486546516 9.717168808 2.954915524
-10.67265987 13.64218044 4.307908535
-10.56000614 13.50710583 4.801926136
-9.599009514 11.84856892 4.780591488
-16.8083725 24.17529678 1.276752472
-11.7080822 15.25009346 1.787310481
-8.346325874 9.453288078 2.198203325
-8.428734779 9.642292976 2.576695681
-9.116074562 10.91192055 3.200017452
-9.970188141 12.48903465 4.009413719
-9.27335453 11.29484558 4.144116879
-9.679655075 12.08548355 4.850462914
-12.59174824 16.85151672 0.5778999329
-16.63640594 24.06152344 1.270845652
-12.28321838 16.3806591 1.83684504
-8.19614315 9.218084335 1.829473972
-8.346691132 9.524057388 2.203339338
-8.416604996 9.692518234 2.580446482
-9.117524147 10.99717236 3.211648703
-9.212827682 11.27137089 4.129120827
-10.41806984 13.5265255 5.32269907
-12.49968719 16.81861496 0.5767775178
-16.73015022 24.4174633 1.268365026
-8.101290703 9.076225281 1.486744404
-8.177852631 9.253681183 1.829457045
-8.275006294 9.466452599 2.192071915
-8.379235268 9.697775841 2.576629639
-9.098488808 11.04638481 3.215707302
-9.128517151 11.1495409 3.658827782
-9.189696312 11.3156147 4.133952618
-8.979474068 10.98467922 4.463961124
-13.27824688 18.42414665 1.221663713
-8.095173836 9.132419586 1.486971617
-8.139037132 9.252642632 1.826246262
-8.184034348 9.376226425 2.176547289
-8.375268936 9.763563156 2.582967997
-9.620379448 12.08459759 3.425373793
-9.059248924 11.11224556 3.642121792
-9.136822701 11.30972099 4.123816013
-10.29723263 13.51525402 5.297337055
-12.24193859 16.623703 0.5787214041
-13.21420956 18.45289421 1.218073487
-12.06691551 16.38091087 1.822916508
-8.073345184 9.202522278 1.818805337
-8.05130291 9.204446793 2.151002407
-8.301138878 9.705202103 2.568333149
-8.690769196 10.4651413 3.082885981
-9.001382828 11.09078789 3.629808426
-9.013459206 11.16769791 4.074717045
-12.14154053 16.56494141 0.5786048174
-11.82422829 16.06074333 1.803753138
-7.94208765 9.031283379 1.800978065
-7.996716499 9.173306465 2.14337182
-8.220191002 9.62558651 2.550721169
-8.643444061 10.45756817 3.07557559
-8.971336365 11.11630535 3.62955308
-8.944851875 11.12145042 4.053957462
-10.16431999 13.47914791 5.264145851
-12.11183357 16.64045906 0.5739045143
-16.84566307 25.41654396 1.254372478
-11.50949574 15.6089201 1.778497577
-7.938432217 9.092441559 1.803243518
-8.044792175 9.32831955 2.159373045
-8.153287888 9.57425499 2.537680864
-8.596235275 10.44978142 3.068272591
-8.839501381 10.95459366 3.5827384
-8.808764458 10.95072079 3.99705863
-12.06179142 16.68581963 0.5700822473
-16.08083916 24.20460701 1.24175024
-11.42115879 15.56829929 1.77237308
-7.903255939 9.095700264 1.80053246
-10.57779694 14.14183521 2.758273363
-8.11003685 9.566238403 2.531882286
-8.790876389 10.95209217 3.575065613
-8.699181557 10.8315897 3.954941511
-11.12746429 15.54456615 5.923622131
-12.00008678 16.70313644 0.5672991276
-18.62535667 29.16502571 1.265583038
-9.350679398 11.88616943 2.034864664
-8.06446743 9.557082176 2.525715113
-8.55169487 10.53204346 3.073588848
-8.839027405 11.13034153 3.612170935
-8.647612572 10.81751823 3.943560123
-11.01049137 15.45053196 5.880157948
-11.94495106 16.73256111 0.5640980601
-16.47369003 25.34864044 1.238017678
-10.71464443 14.49156761 1.714999557
-10.17383957 13.53801155 2.170869827
-9.206308365 11.75773907 2.450248718
-8.375391006 10.2256794 2.631083965
-8.940787315 11.41493893 3.675138235
-8.62015152 10.84973907 3.945497036
-10.07904053 13.7564106 5.31317997
-11.73548985 16.47021484 0.5708020926
-17.74066734 27.96363831 1.247029543
-10.54794502 14.36002922 2.235696316
-9.966812134 13.30988693 2.637914896
-8.380226135 10.31495667 2.640988827
-8.95164299 11.47387028 3.254289865
-8.951423645 11.5265007 3.69552207
-8.576674461 10.850811 3.938559532
-8.222176552 10.20817852 4.142903328
-11.88543892 16.88819885 0.5543580651
-17.11153412 26.98825836 1.236201644
-10.08010101 13.57401848 2.164857388
-9.879739761 13.24786663 2.624933958
-8.598008156 10.81983662 2.718652725
-8.93807888 11.53878784 3.261408091
-8.935658455 11.58775043 3.703558922
-8.717857361 11.21669102 4.035480022
-8.202691078 10.25090313 4.149413109
-11.61383152 16.50220299 0.5653445125
-12.57464314 18.44153976 1.187872529
-10.64197445 14.70150566 1.712720513
-10.03316593 13.59176254 2.161848545
-8.360152245 10.38786697 2.267687798
-8.545455933 10.80258751 2.71090889
-8.844060898 11.44573975 3.23649478
-8.600114822 11.0154953 3.557653666
-8.694945335 11.26137733 4.040772915
-8.182966232 10.29360676 4.155909538
-11.54290771 16.49829865 0.5632888675
-10.57832909 14.69620323 1.708595514
-8.979805946 11.63737679 1.994550943
-8.299164772 10.35002232 2.259029627
-8.522538185 10.84339333 2.712632179
-8.604095459 11.06020737 3.152641535
-8.639863014 11.24179935 4.02786684
-8.242975235 10.49812508 4.214913845
-12.6140213 18.83044624 1.182079077
-10.69355869 15.04813957 1.71995151
-8.929686546 11.63618183 1.990500093
-8.416151047 10.72219944 2.687915564
-8.418684006 10.78145409 3.090501308
-8.188607216 10.36775398 3.387949228
-8.621725082 11.30114269 4.036969662
-8.278801918 10.66094208 4.259781837
-12.55687809 18.87283325 1.178501964
-10.84121513 15.46407127 1.73410809
-8.377511978 10.73071575 2.684502363
-8.354632378 10.73890877 3.076449871
-8.09876442 10.26866722 3.358122826
-8.616101265 11.38222599 4.052537918
-8.326967239 10.84748554 4.312497139
-11.42328072 16.6754818 0.5504173636
-11.66117382 17.23680878 1.167936206
-10.56262398 15.0338192 1.711443782
-9.746020317 13.46741772 2.133655071
-8.194083214 10.39227772 2.252113819
-8.287333488 10.63427925 2.664248705
-8.256345749 10.62530231 3.048250437
-8.100326538 10.35539055 3.37313509
-8.564380646 11.36914921 4.041594505
-8.26151371 10.80082893 4.289855957
-11.36468029 16.69573593 0.5474805832
-12.46688461 19.00724792 1.171516895
-10.50889587 15.04951286 1.708204031
-9.681921959 13.44815826 2.127746344
-8.180242538 10.44808102 2.254948378
-8.223909378 10.59070778 2.652590275
-8.24133873 10.6811676 3.054072618
-8.081812859 10.40174389 3.378405333
-9.68219471 13.79494858 4.714318275
-8.472467422 11.33295631 4.453382492
-11.29807186 16.69963837 0.5451089144
-12.40071487 19.02428246 1.167996526
-11.20914555 16.60062218 1.770547509
-9.656116486 13.50100613 2.127971411
-8.193572044 10.61454487 2.651773691
-8.239653587 10.7610445 3.064924955
-7.967776299 10.24876213 3.335987329
-8.474723816 11.37030983 4.027572632
-9.866719246 14.3736515 5.421095848
-11.70004749 17.65352631 0.5093528032
-13.98839569 22.44672012 1.176356554
-10.38459206 15.03954887 1.70018816
-9.80081749 13.91215897 2.157076359
-8.528556824 11.34263039 2.354620457
-8.163114548 10.6338892 2.650480509
-8.25692749 10.88629818 3.08447957
-7.930131912 10.24978161 3.330824137
-8.430977821 11.36796761 4.02018404
-9.857255936 14.4766264 5.443985462
-11.61367798 17.62433624 0.5080083609
-11.71361351 17.92407227 1.156797767
-10.34136105 15.07617378 1.697866201
-9.477540016 13.35518551 2.107605934
-7.933659077 10.18592834 2.212078333
-8.146164894 10.6861515 2.654197931
-8.150691032 10.7518816 3.052476645
-7.883422852 10.23551273 3.321778774
-8.095932007 10.74600887 3.840065002
-9.741235733 14.3514204 5.393964767
-11.38009167 17.29525948 0.5172096491
-13.2641983 21.31945992 1.163899541
-10.94213581 16.45947075 1.751968503
-9.440963745 13.39055061 2.106254578
-8.436125755 11.33657169 2.345470667
-8.109523773 10.69721317 2.651373863
-7.906139851 10.31903458 2.961671591
-8.174119949 10.95046043 3.485604763
-8.040378571 10.72107315 3.826253891
-8.592567444 11.97728062 4.627957344
-11.38908672 17.46146774 0.5089433193
-13.26903725 21.52316284 1.160065174
-10.91510868 16.54994774 1.751304269
-9.75316143 14.1721077 2.164544582
-8.061956406 10.68920898 2.645334482
-7.82614994 10.23722649 2.940314293
-8.243024826 11.19268322 3.536978006
-7.977891445 10.6756525 3.807184696
-8.552049637 11.99656296 4.625614643
-11.21354771 17.23929405 0.5145421624
-11.49309635 17.92716789 1.146083117
-10.12914944 15.01819229 1.683745742
-9.047798157 12.78238392 2.049113512
-7.929400921 10.43698692 2.230517149
-7.983010769 10.60828304 2.628083706
-7.774713993 10.21145248 2.930343866
-8.226650238 11.25231457 3.544987202
-7.902954578 10.60165024 3.78033042
-8.507863998 12.00252914 4.619493961
-11.19720459 17.35287285 0.5081219673
-11.59229469 18.29584694 1.143504143
-9.023952484 12.83985043 2.049743176
-7.904686451 10.52692318 2.610869884
-7.72921896 10.19797325 2.922846794
-8.180906296 11.24782085 3.537865877
-7.635304928 10.09735394 3.635023594
-8.502114296 12.0942812 4.640563965
-11.15962791 17.42977715 0.5028716326
-11.7635355 18.82707405 1.141154408
-8.971514702 12.83564091 2.045470715
-7.79025507 10.31322002 2.20825386
-8.113107681 11.07630062 2.692462921
-7.728363514 10.28302097 2.934663773
-8.165427208 11.31534958 3.547420979
-7.536966324 9.967634201 3.593127728
-8.453785896 12.09124947 4.631657124
-11.62727547 18.7025547 1.137041092
-10.38634396 15.98087311 1.711235881
-9.481151581 14.07460403 2.139075518
-7.759893417 10.33376884 2.206996679
-8.303721428 11.60103416 2.769503593
-7.666745186 10.23766994 2.920759916
-8.108510017 11.28554726 3.534430981
-7.493632793 9.955509186 3.584000111
-8.445249557 12.18394756 4.652567387
-13.46623421 22.80626488 0.3023633659
-11.57012749 18.74171066 1.133477211
-10.46391869 16.29261398 1.719784141
-7.743246078 10.38507938 2.209344149
-8.30021286 11.69402409 2.779171228
-7.634997845 10.25429058 2.919231415
-8.073896408 11.30559921 3.533179283
-7.473732471 9.99652195 3.589476824
-8.409770012 12.21061993 4.653067112
-10.96253777 17.45575905 0.4948010743
-11.49153996 18.73323441 1.129824877
-10.40451717 16.304142 1.716175318
-9.390826225 14.12002182 2.134052753
-8.82940197 12.92548752 2.501833439
-8.291327477 11.77625084 2.78711915
-7.590550423 10.24194145 2.912101746
-8.039197922 11.32553673 3.531923294
-7.466692448 10.06777668 3.603204489
-9.335942268 14.47424889 5.354753971
-11.75814819 19.39249039 0.4213388562
-11.68902588 19.3459301 1.127095819
-10.81476307 17.37310219 1.754595757
-9.336675644 14.12242413 2.129971504
-8.690746307 12.72391701 2.473812819
-8.205898285 11.68431568 2.768088102
-8.300795555 11.96917152 3.241579056
-8.413349152 12.2936306 3.751328707
-7.455385685 10.13018131 3.61447835
-9.287905693 14.49356461 5.351472855
-10.77173328 17.33713531 0.4943963587
-10.98943043 17.92988014 1.121556759
-10.72512531 17.32544136 1.748393178
-9.531147003 14.69307327 2.169992924
-8.688386917 12.83157158 2.481784821
-8.140025139 11.63553715 2.755826712
-8.574156761 12.78067112 3.858023643
-7.443693161 10.19262123 3.625730753
-9.520601273 15.17864609 5.5560112
-10.72241592 17.38056946 0.4904130697
-10.98035431 18.07139969 1.118254781
-10.70297337 17.4312706 1.748251557
-9.544103622 14.85517883 2.178109407
-8.516981125 12.54845524 2.444595814
-8.056625366 11.54455376 2.737149239
-8.480306625 12.60665321 3.35327816
-8.497708321 12.71595287 3.836445332
-8.191628456 12.06350994 4.127375603
-10.69914818 17.48436356 0.484171629
-10.83092785 17.88986206 1.114624262
-10.70789051 17.60137558 1.750575304
-9.337362289 14.50784492 2.146951437
-8.79475975 13.31252861 2.5281322
-8.065126419 11.66826248 2.751508713
-8.454036713 12.65885925 3.357546568
-8.501876831 12.84208393 3.859082699
-8.157954216 12.09292221 4.128526688
-8.936321259 14.04951954 5.185948849
-10.57497787 17.35498428 0.4865881801
-10.76852608 17.90795135 1.111204863
-10.60251427 17.5162468 1.74295187
-8.343598366 12.36563778 2.414907455
-7.976997375 11.56391239 2.730914354
-8.419124603 12.69103527 3.357969999
-8.418298721 12.75879192 3.833361864
-8.102696419 12.07020664 4.115623951
-8.899985313 14.09230995 5.190481186
-10.6029377 17.57987595 0.4757798314
-10.66555119 17.83004189 1.107740641
-10.58196926 17.62937546 1.743009329
-10.52519035 17.59757042 2.374135494
-8.275226593 12.31481361 2.404844046
-7.942109585 11.58525372 2.729609728
-7.232028961 9.934348106 2.825690746
-8.385894775 12.7981081 3.835974693
-8.065979004 12.09215641 4.114834309
-9.306761742 15.22901821 5.533494949
-10.56028652 17.64124107 0.4710452557
-10.61655426 17.8788929 1.104346395
-10.49349308 17.58218956 1.736904502
-9.421158791 15.11203003 2.180025101
-7.920295238 11.57087898 2.315868855
-7.925972462 11.6522665 2.735263586
-7.205763817 9.960396767 2.826309204
-8.32307148 12.7630415 3.821530581
-8.066960335 12.20755768 4.139189243
-8.185224533 12.57880402 4.705870152
-10.55580139 17.89989662 1.100937009
-10.43225384 17.5992012 1.733274937
-9.425627708 15.26373863 2.187082529
-7.834033966 11.46683788 2.300141096
-7.937081814 11.78716087 2.751186609
-8.315626144 12.79243088 3.360228539
-8.943551064 14.42460251 4.195494652
-8.152931213 12.53754997 4.221011639
-8.146673203 12.60112476 4.705180168
-11.82444763 21.02929306 0.3378799856
-10.51627827 17.97248077 1.097517729
-10.3269062 17.50876236 1.725605488
-9.458536148 15.48768425 2.199513435
-7.756784916 11.38259411 2.28675437
-7.88134861 11.75879765 2.74233532
-8.330615997 12.9503603 3.384532213
-8.889183998 14.42592049 4.188632488
-8.218806267 12.8231945 4.290632725
-8.055974007 12.49089241 4.663768768
-10.21214962 17.29204369 0.4769765139
-10.48459816 18.05674553 1.094242692
-9.782689095 16.32994652 1.677474618
-9.428926468 15.55377388 2.200204611
-7.693864346 11.3267231 2.27684164
-7.810114384 11.68526554 2.726948977
-8.316889763 13.03261948 3.394702435
-8.788218498 14.30871391 4.154820919
-8.196345329 12.88271141 4.299944401
-8.045519829 12.57824993 4.683557034
-10.41055775 18.05436325 1.090643883
-9.729926109 16.36222076 1.674568892
-9.371571541 15.56633568 2.196426153
-7.58361721 11.16111946 2.254271746
-7.790305614 11.75103188 2.732159138
-8.273934364 13.05430031 3.392840624
-8.045062065 12.54954243 3.747662067
-8.63944149 14.15643883 4.632064819
-7.898477077 12.32454967 4.598125935
-10.95585155 19.48560715 0.3880091608
-10.52546406 18.52541924 1.086694956
-10.11595345 17.4953537 1.712277532
-7.439815998 10.84654903 1.840399146
-7.524193287 11.12070274 2.245886326
-7.769351482 11.8149538 2.737068892
-8.264416695 13.16213226 3.407212257
-7.998832703 12.55122375 3.742016792
-7.781410694 12.14358807 4.535319805
-10.68520355 18.9930687 0.4042130411
-10.31644821 18.17584801 1.083518267
-7.492175102 11.14415646 2.244873762
-7.737745285 11.84671021 2.737368584
-7.947061539 12.5381012 3.73306632
-7.886994362 12.46098709 4.166833878
-7.734789848 12.13931084 4.527032375
-9.937669754 17.27676582 0.4677987397
-9.767998695 16.94944763 1.081496954
-9.896863937 17.2769165 1.695998073
-7.487962246 11.23989391 2.25191927
-7.727937222 11.9357214 2.746212959
-8.180294991 13.19962311 3.402985811
-7.903742313 12.54671955 3.729083061
-7.837166786 12.45135975 4.157783985
-7.677501678 12.10600948 4.50997591
-10.71036243 19.43173981 0.3818693459
-9.709140778 16.96372986 1.078291416
-10.01922417 17.76346207 1.709495544
-7.306305885 10.81125927 1.828795791
-8.209528923 13.23888111 2.470282316
-7.656468391 11.86365318 2.731051683
-8.081894875 13.0688076 3.37297225
-7.882361412 12.61382771 3.738310575
-7.669153214 12.12304783 4.06461525
-7.658436775 12.17530346 4.524174213
-9.696933746 16.99272156 0.4740011692
-9.662406921 17.009552 1.075036168
-9.93542099 17.72085571 1.703772306
-7.310737133 10.92719173 1.834323525
-8.439238548 13.97757244 2.547749996
-7.608516216 11.85242367 2.725004196
-7.970707893 12.90052128 3.336134434
-7.842905998 12.633214 3.736791134
-7.618000984 12.10528374 4.053723335
-7.615866661 12.18135929 4.519180775
-9.591691971 16.88523102 0.4758101702
-9.478775978 16.69424248 1.072398782
-10.03034878 18.14896202 1.714864492
-7.268051624 10.92000961 1.83081758
-8.328188896 13.81981754 2.525800943
-7.492450714 11.65712357 2.691757441
-7.891414165 12.81478596 3.314832449
-7.818174839 12.69289684 3.744333744
-7.53186655 11.99058819 4.017402649
-7.579837799 12.20534706 4.51966095
-9.57683754 17.01470947 0.4683581293
-9.40749836 16.66337967 1.069493055
-9.695320129 17.43796158 1.685436249
-9.099861145 15.94230366 2.192893267
-9.482907295 17.08178329 2.880199671
-7.398966789 11.51878834 2.66710043
-7.866825104 12.87039185 3.32012105
-7.703102112 12.50413036 3.696274996
-7.420230865 11.79614067 3.960616112
-7.550840855 12.24297619 4.524624825
-9.749919891 17.64128685 0.4414288998
-9.368492126 16.71847343 1.066420555
-9.935923576 18.25502205 1.710302949
-9.098338127 16.09202576 2.199519396
-8.274499893 13.9462862 2.531003237
-7.346215248 11.48351765 2.6579566
-7.851286888 12.95191288 3.330192804
-7.65874958 12.5018816 3.690368652
-7.387426853 11.81873512 3.960943222
-7.437671661 12.0429163 4.457968235
-10.25978565 19.19153023 0.3778516352
-9.435297966 17.07114792 1.06248486
-9.905988693 18.35140991 1.709626555
-9.007782936 16.00854874 2.189048052
-7.296422482 11.45546722 2.649923563
-7.798024654 12.93589211 3.321959734
-7.599411011 12.45703506 3.675013065
-7.350036621 11.83460426 3.959240198
-7.405841827 12.07720566 4.461750984
-9.568579674 17.50772858 0.441719979
-9.472411156 17.34927368 1.058602333
-9.847866058 18.38126373 1.706396699
-8.90163517 15.87956905 2.175380945
-7.916547775 13.23431396 2.444519043
-7.262289524 11.47640324 2.648907185
-7.683244705 12.74498749 3.281569242
-7.566194534 12.49834442 3.678336859
-7.327907085 11.90055656 3.970345736
-12.89080048 28.07834435 9.258595467
-10.12279129 19.22215271 0.371019572
-9.360824585 17.22794914 1.055538297
-8.803915977 15.77915859 2.163637161
-7.762637138 12.93669033 2.408018351
-7.213068485 11.46051025 2.642320156
-7.662631989 12.82577991 3.291047573
-7.784169197 13.25829124 3.841354609
-7.259891033 11.82808208 3.945673943
-12.76653481 28.04135513 9.231075287
-8.95276165 16.15957069 0.4904637933
-9.331315041 17.32554054 1.052048922
-8.696973801 15.64155674 2.149542332
-7.693601608 12.88111591 2.397763252
-7.164551258 11.44000053 2.635303497
-7.632647038 12.87417221 3.294811487
-7.726902008 13.23925972 3.830975294
-7.199289322 11.78167057 3.927615404
-10.19146919 20.72567368 7.028104782
-8.868236542 16.08979988 0.4909648597
-9.253948212 17.29769325 1.048755646
-8.996055603 16.56110382 1.631475806
-8.634473801 15.63619137 2.144712925
-7.616697311 12.79437828 2.384405851
-7.208386898 11.6935091 2.667936087
-7.572930336 12.84303379 3.283774376
-7.678887844 13.23961449 3.825235844
-7.148390293 11.75638676 3.915417194
-10.14148426 20.81878471 7.044106483
-8.859434128 16.23470497 0.4828425944
-9.110220909 17.06822777 1.046308279
-8.720592499 15.94384098 1.606902838
-7.550112724 12.73548412 2.374126911
-7.254891396 11.95432663 2.701663494
-7.513054848 12.80342197 3.271510363
-7.770754814 13.6574831 3.911554575
-7.150369644 11.88939381 3.94426012
-10.0690937 20.83382797 7.037410259
-8.798114777 16.23050117 0.4806952775
-9.149247169 17.36575699 1.042101502
-8.701224327 16.05847168 1.607124448
-8.96662426 16.94899559 2.228624821
-7.501205921 12.72715759 2.369336605
-7.19302702 11.89815617 2.689413071
-7.482790947 12.85141468 3.275260448
-7.85607338 14.0650177 3.995257854
-9.32465744 18.64220238 5.682964802
-10.00264549 20.86690712 7.036154747
-9.079381943 17.2283802 0.4379116893
-9.140922546 17.5285759 1.652325988
-8.730444908 16.43294144 2.187933683
-7.45619297 12.72995663 2.365764618
-7.163435936 11.93759823 2.691013575
-7.663728237 13.54142761 3.395593405
-7.819941044 14.11045647 3.999165773
-9.259256363 18.65220451 5.676568985
-12.52792072 28.95389938 9.424942017
-8.923929214 16.95601273 0.4465195239
-9.141542435 17.71470833 1.034476519
-8.613884926 16.14951706 1.602881432
-7.406838417 12.71935844 2.360784531
-7.533850193 13.19707298 2.868023396
-7.627374649 13.57243347 3.396254301
-7.694445133 13.88006973 3.942672968
-7.281476021 12.69629288 4.1352005
-12.37966347 28.81093025 9.368012428
-8.858062744 16.93585205 0.4450238347
-8.970846176 17.39635468 1.032503963
-8.599872589 16.27650833 1.603594899
-8.699044228 16.6941185 2.197562218
-7.381088734 12.78043365 2.363455772
-7.958421707 14.64514351 3.071434259
-7.570534706 13.54778767 3.386604071
-7.630629539 13.82913113 3.925946236
-9.167944908 18.78525925 5.693444729
-12.2351284 28.69273758 9.317926407
-8.76578331 16.84423637 0.446336776
-8.971874237 17.59395409 1.028447509
-9.71821785 20.01450539 2.42296195
-7.347864628 12.81238842 2.363213062
-7.369183064 12.97199821 2.827061892
-7.748066425 14.25923157 3.509790659
-7.576742172 13.81598949 3.91726017
-8.037679672 15.39446449 4.81543684
-12.10237122 28.60878944 9.278204918
-8.725365639 16.91836357 0.4407297671
-9.426425934 19.19591713 1.018025756
-8.45870018 16.20728111 1.594081521
-8.624893188 16.84249878 2.198986769
-7.322407246 12.88352108 2.366731644
-7.690289974 14.23869228 3.500697613
-7.489878654 13.70427132 3.886888504
-7.939919949 15.2669487 4.775366306
-12.00304222 28.63098907 9.269974709
-8.912919044 17.6914711 0.4063415825
-9.395383835 19.32985306 1.013669252
-8.334438324 16.01217461 1.584046721
-8.580421448 16.90512085 2.198653221
-8.016161919 15.34549999 3.155945539
-7.633312225 14.22807026 3.493174553
-7.423955441 13.64939022 3.869296312
-7.934113026 15.42799568 4.809514999
-12.18935871 29.6144104 9.543775558
-8.85081768 17.7091217 0.4029057324
-9.343168259 19.38841248 1.009809971
-8.282349586 16.03093147 1.581095338
-8.255895615 16.06599808 2.136875868
-7.933072567 15.25550938 3.138013601
-7.631900787 14.38987827 3.516860008
-7.350563049 13.57616138 3.847542048
-8.520356178 17.5676384 5.347420692
-12.10864544 29.7107296 9.557011604
-9.191796303 18.97614288 0.3478608727
-8.337850571 16.38571358 1.021608233
-8.429556847 16.6783638 1.598172665
-9.208964348 19.31876945 2.354465723
-7.639706135 14.35516262 2.509742022
-7.910998344 15.35389042 3.147110462
-7.594099522 14.4265728 3.518356323
-7.306874752 13.5755291 3.842430353
-8.469769478 17.58963585 5.34585619
-12.99558353 33.06825638 10.52670479
-9.154072762 19.08829498 0.3402532339
-8.282668114 16.39864159 1.018543601
-8.229527473 16.22563362 1.580302715
-8.536579132 17.35216904 2.216034412
-7.594509602 14.38383865 2.508321047
-7.91209507 15.5403614 3.168361425
-7.665513515 14.83788967 3.586425304
-7.261061668 13.59181309 3.840187073
-11.93926716 29.86235809 9.57232666
-8.854834557 18.33977318 0.3688281178
-8.410643578 17.02250481 1.011992335
-8.130896568 16.10333252 1.572757125
-8.483283043 17.39364624 2.214143515
-7.864748955 15.45628071 2.615808964
-7.864170551 15.57583046 3.167979002
-7.60782671 14.83085632 3.579474449
-7.387316227 14.18810558 3.963223934
-7.318392277 14.06724072 4.437030315
-11.77909946 29.70600319 9.51115799
-9.037574768 19.1613903 0.331556797
-8.183332443 16.47068596 1.011997461
-8.043914795 16.00652122 1.566244483
-8.453173637 17.50293159 2.217037201
-7.584114075 14.81161785 3.055457115
-7.536142826 14.76606464 3.562583208
-7.350801945 14.23600101 3.96786499
-7.266644478 14.06056595 4.429213047
-7.155094624 13.78695393 4.856387615
-8.968726158 19.16320038 0.3286493719
-7.937173367 15.84029865 1.557660937
-8.258264542 17.05507278 2.182557583
-7.524826527 14.67124653 2.525574207
-7.526254654 14.79378414 3.04815197
-7.455162525 14.66682911 3.539676666
-7.300046921 14.23483086 3.961978912
-7.193861961 13.97887707 4.402511597
-7.109175205 13.79663658 4.852746964
-8.921461105 19.23757172 0.3226592243
-8.261496544 17.14008522 1.001950383
-7.868772507 15.80012703 1.552997112
-8.190802574 17.03343773 2.176785469
-7.49172163 14.73709965 2.528164148
-7.381359577 14.47079277 2.998206854
-7.261544704 14.27683544 3.965386868
-7.140479565 13.96422958 4.39283371
-7.073484898 13.8432827 4.859891415
-8.660987854 18.58288193 0.3476584554
-8.218271255 17.19224167 0.9986548424
-7.812931538 15.80190849 1.549627662
-8.104322433 16.93397522 2.166084528
-7.482186317 14.88711262 2.539398909
-7.33675766 14.49414539 2.99684
-7.587477684 15.50127888 3.676745415
-7.254740238 14.43387508 3.993397713
-7.091881752 13.96623421 4.387408733
-7.007367134 13.77025795 4.832657814
-8.117487907 17.05472946 0.9964015484
-8.541567802 18.53800964 1.628344536
-8.058766365 16.98661995 2.165312767
-7.299202919 14.5338583 2.9979949
-7.538701534 15.52353954 3.675182581
-7.2151227 14.46566105 3.994875193
-7.07867384 14.08934021 4.412741661
-6.970542908 13.81289196 4.838718891
-8.043239594 17.00718498 0.9936096072
-8.083880424 17.15097809 1.583084345
-8.00806427 17.02183533 2.163383245
-7.355157852 14.79932308 2.522200584
-7.234875679 14.48622036 2.986791611
-7.59607029 15.93565464 3.742151022
-7.168884754 14.48287201 3.992986441
-7.06187582 14.21128464 4.437428474
-7.9897542 17.03253365 0.9903429747
-8.056166649 17.27095413 1.582922697
-8.080849648 17.50522041 2.190896749
-7.331400871 14.90318203 2.5286448
-7.18908596 14.50526237 2.984888077
-7.540611267 15.93892574 3.73716116
-7.124085903 14.50560474 3.992301464
-7.019972324 14.24118423 4.439019203
-7.949387074 17.10591888 0.986733377
-7.98374033 17.23092079 1.578033447
-7.915001392 17.12454414 2.161637068
-7.838522911 16.97676849 2.73542285
-7.120164871 14.4379673 2.971069574
-7.50184536 16.00489807 3.743181467
-7.07232666 14.51178551 3.987857342
-6.969096661 14.23708725 4.432141304
-7.001741886 14.49613476 5.016982079
-7.887437344 17.11241722 0.9834227562
-7.914032459 17.21064949 1.57356286
-7.710841656 16.6009903 2.123079062
-7.743365288 16.85629463 2.718219995
-7.875771523 17.50725746 3.389521599
-7.434630394 15.9741869 3.732037544
-7.0176301 14.50638866 3.981004477
-6.92031765 14.25037289 4.429362774
-6.950601578 14.50405502 5.012538433
-7.970835209 17.66361618 0.9760857821
-7.856383801 17.23451805 1.570384622
-7.637561798 16.55667686 2.11592412
-8.134999275 18.58959579 2.888551474
-7.054411411 14.59343147 2.983103991
-7.404034138 16.08452225 3.745535374
-6.956198215 14.46406555 3.966668367
-8.020525932 18.81788445 5.560312748
-6.901787281 14.5211277 5.010778904
-7.613683224 16.68902969 2.1204319
-7.876214027 17.84278297 2.808098078
-6.980647564 14.50430489 2.966421127
-7.353064537 16.10619736 3.743852615
-6.899879932 14.44047737 3.956361294
-7.95623827 18.82685089 5.554884911
-7.761178493 18.21944618 6.064605236
-7.520677567 16.40927505 1.539649129
-7.62748003 16.95987892 2.134010792
-6.901247501 14.3898344 2.946356535
-7.292214394 16.07726479 3.733683109
-6.855061054 14.46231079 3.955678701
-7.794829845 18.43898964 5.451069355
-7.708875179 18.25497627 6.067240238
-7.729372501 17.43929482 0.968405664
-7.470798492 16.42839622 1.536889553
-7.613651276 17.1407814 2.141496897
-7.499891281 16.84443092 2.698218822
-6.845589638 14.35711002 2.937771797
-7.261489868 16.18091393 3.746261835
-6.782785416 14.36154938 3.929515362
-7.729496479 18.42367363 5.440276623
-7.656492233 18.30424309 6.073441505
-7.649709225 17.366642 0.9658361673
-7.411286354 16.42090034 1.533214211
-7.567671776 17.1978302 2.140997648
-7.390697479 16.62985611 2.672421217
-6.813315868 14.42874432 2.943237782
-6.716669559 14.29343033 3.910057068
-7.661714554 18.41077614 5.429787636
-10.79901314 31.94236183 9.95671463
-7.591813087 17.37903595 0.9625872374
-7.382228851 16.53541946 1.532930374
-7.521823883 17.25669479 2.140603065
-7.395723343 16.88925743 2.693787336
-6.773609161 14.47140789 2.94474864
-7.108693123 16.01401901 3.706782103
-6.652423382 14.2307291 3.89182663
-7.596734524 18.40897369 5.422112942
-10.67699909 31.90925598 9.933451653
-7.523898602 17.35043144 0.9596850276
-7.32296896 16.52952003 1.529297471
-7.678132534 18.15163422 2.193175554
-7.316771507 16.80625916 2.680998564
-6.735480785 14.52167606 2.947292089
-7.352595806 17.28855705 3.920935869
-6.61042738 14.26126671 3.893176794
-7.523965359 18.37281799 5.406034946
-10.52620697 31.74788475 9.873866081
-7.488084793 17.45376396 0.9556449056
-7.763877392 18.77796364 2.228362083
-7.360666752 17.24019051 2.719516039
-6.682597637 14.51005936 2.941459179
-7.274147987 17.210186 3.901843548
-8.488872528 22.67436409 5.643782139
-10.08287048 30.27495575 9.442083359
-9.059405327 24.31619453 0.8915594816
-7.420223713 17.42551041 1.546600461
-7.551687241 18.14117622 2.18406415
-7.305972099 17.26355743 2.717237949
-7.525594711 18.39007568 3.46099472
-7.205698967 17.15964127 3.887893438
-7.622921467 19.18788147 4.909444332
-6.359777451 13.72666073 4.250663757
-10.30210495 31.73237228 9.84327507
-8.398302078 21.85630989 0.9094615579
-7.376868725 17.4871521 1.544796109
-7.658056259 18.87502861 2.225717545
-7.216957569 17.13731194 2.700227737
-7.461559772 18.37666893 3.454058647
-7.130919456 17.09215546 3.870840788
-7.569194794 19.23274994 4.912372589
-6.315666676 13.7290411 4.246389389
-10.18778515 31.72556686 9.828107834
-7.552566051 18.50073814 0.9367851019
-7.397485733 17.84162903 1.550580144
-7.604298592 18.91420555 2.223915339
-7.256453037 17.56350136 2.737833977
-7.394185066 18.36179543 3.446698189
-7.37288475 18.44342422 4.096472263
-7.491116524 19.18245316 4.895229816
-6.246773243 13.62721252 4.216383934
-9.695020676 29.91864395 9.304755211
-7.689631939 19.39048386 0.9250129461
-8.067682266 21.06018448 1.631984711
-7.551550865 18.97342491 2.223134041
-7.331139565 18.17546272 2.793211937
-7.807528973 20.52115059 3.731212854
-7.32306385 18.50945282 4.101875305
-7.435966492 19.22118187 4.896957397
-6.216379166 13.69199371 4.227483749
-9.479946136 29.39828873 9.145615578
-7.607414722 19.35561562 0.9214783907
-8.089393616 21.52262688 1.63923049
-7.4723773 18.9442215 2.216425419
-7.237820625 18.0515976 2.776125908
-7.735660076 20.55359077 3.729018211
-7.267496586 18.58057976 4.107563019
-7.369398594 19.25421143 4.896543026
-9.375437737 29.44538498 9.145806313
-7.533657074 19.32680321 0.9182507992
-8.039728165 21.64016342 1.637783647
-7.402723789 18.92695427 2.210932255
-7.171370983 18.03369713 2.769698143
-6.217419624 13.72600937 2.811851025
-7.364436626 19.35115623 4.232583523
-7.290349483 19.19537926 4.87785244
-9.541005135 30.41157722 8.291256905
-9.335637093 29.76205444 9.223135948
-7.298124313 18.544981 0.9226059318
-7.953120232 21.58950615 1.631972551
-7.348616123 18.98166847 2.209884167
-7.106322765 18.0213871 2.763848782
-6.173938274 13.74155903 2.810091019
-7.34191227 19.56803513 4.263320446
-9.355768204 30.02378845 8.185660362
-9.37030983 30.46461868 9.408770561
-7.254821301 18.64416504 0.9182350039
-7.217533112 18.46942329 1.547938585
-7.298264503 19.05576515 2.210012913
-7.064637661 18.13619614 2.770119429
-6.154236317 13.87354374 2.823817968
-7.188508987 19.1448555 4.18571043
-9.466939926 30.77589798 7.247583389
-9.250763893 30.05410576 8.181474686
-9.241529465 30.35403633 9.365753174
-7.330633163 19.33524323 0.9074764848
-7.139799118 18.41840172 1.542659402
-7.277603626 19.29271126 2.219818354
-7.026769638 18.25811005 2.777271748
