# .PCD v0.7 - Point Cloud Data file format
VERSION 0.7
FIELDS x y z
SIZE 4 4 4
TYPE F F F
COUNT 1 1 1
WIDTH 1299
HEIGHT 1
VIEWPOINT 0 0 0 1 0 0 0
POINTS 1299
DATA ascii
16.6325016 -8.613296509 3.096783161
8.044013023 -4.623220921 2.219689846
8.982057571 -5.047866344 2.742466688
9.182538986 -5.128768444 3.154316664
26.4890461 -13.06646347 8.694375992
15.51984024 -8.275313377 0.545416832
8.847206116 -5.06298542 1.332027078
8.507784843 -4.893004417 1.640587568
16.58410835 -8.664819717 3.096274853
7.983649731 -4.63088131 2.212473869
7.830201626 -4.551073551 2.495773077
9.134935379 -5.147503853 3.147342682
26.50293541 -13.19068718 8.715754509
8.993881226 -5.168437481 1.343025446
8.535832405 -4.940739155 1.645790935
16.55086708 -8.716268539 3.097299814
7.835358143 -4.593320847 2.189168692
7.804329872 -4.568903923 2.493573427
9.54723835 -5.377691269 3.258902311
12.69474792 -6.839446068 4.592674732
20.15452003 -10.56927013 1.256104469
9.148192406 -5.280809879 1.354680061
8.922420502 -5.161827087 1.687308788
16.52145958 -8.773021698 3.099181175
22.63415146 -11.66187191 4.846026421
7.77711916 -4.589318752 2.491471052
10.88486576 -6.051184654 3.611261845
23.51262856 -11.99929619 7.850010872
9.331382751 -5.406573772 1.368107557
8.937911987 -5.207586288 1.69154489
16.48291206 -8.825367928 3.099806786
22.46086311 -11.67096043 4.824164391
8.342737198 -4.89322567 2.619551897
8.59622097 -5.005313873 3.022434235
8.575485229 -4.984228134 3.368572474
20.08639145 -10.70523262 1.261134505
30.19609261 -15.60880375 2.673207283
16.44203949 -8.872930527 3.099820137
22.29119873 -11.68548203 4.803371906
8.323973656 -4.918221951 2.619408131
8.613917351 -5.048902035 3.031714439
8.55395031 -5.010674477 3.36757946
16.51307297 -9.096045494 0.5382822752
20.0197258 -10.75933647 1.262967587
8.821087837 -5.236402035 1.340524554
8.276900291 -4.958789825 1.629574418
16.3853569 -8.916207314 3.097925186
15.30193329 -8.370412827 3.550964594
8.896881104 -5.223453522 3.110564232
26.45666313 -13.7236805 8.784393311
16.47582626 -9.152905464 0.5406389236
16.49528313 -9.099179268 1.182239771
16.50998497 -9.089709282 1.82661128
16.52020645 -9.074323654 2.473435163
16.35206604 -8.974318504 3.099649191
8.665092468 -5.170570374 2.356448412
9.432969093 -5.538868904 2.873553276
8.950649261 -5.290202618 3.130072832
26.44152451 -13.83629417 8.797963142
16.49547958 -9.174773216 1.185219884
16.49013329 -9.151688576 1.829317451
9.437091827 -5.613527775 1.753679276
16.30435753 -9.025225639 3.099357128
8.635832787 -5.193681717 2.355004549
22.20124626 -11.88766861 6.611577988
26.450737 -13.95546532 8.818198204
8.785459518 -5.326570034 1.689699411
7.697981834 -4.769237995 1.881857753
14.81125641 -8.327226639 3.482509613
21.20521927 -11.50549603 5.498243809
22.21810532 -11.98792076 6.628510475
26.42142868 -14.05594254 8.826883316
9.09504509 -5.531712055 1.366559148
8.802618027 -5.371858597 1.6940763
7.684323311 -4.796025276 1.882858276
14.67927456 -8.325285912 3.465154409
20.77351379 -11.38044453 5.413250923
21.75086975 -11.84981441 6.518680096
9.14786911 -5.496219635 3.577178001
8.995285988 -5.520528316 1.362408996
8.267493248 -5.136485577 1.641574144
15.8870182 -9.02256012 3.058132887
14.54924297 -8.323430061 3.448093414
21.75704956 -11.94831371 6.533426285
8.89221859 -5.406784534 3.505244017
15.78428555 -9.039652824 3.049589396
14.40887737 -8.315340996 3.429073572
8.634076118 -5.323618412 3.073029041
8.936285019 -5.468403816 3.52482152
8.661943436 -5.40604496 2.032308578
7.603928089 -4.847839832 2.185109138
8.688463211 -5.391760349 3.093024969
26.41183472 -14.51489544 8.895876884
15.21405983 -8.994970322 0.5707339644
7.591008663 -4.876526833 2.186474323
20.44747543 -11.58133984 5.385093689
8.608621597 -5.388667107 3.077172518
21.48409843 -12.07500744 7.398794651
13.71775723 -8.260540009 0.5935006738
15.19930553 -8.995150566 1.172619581
15.2499752 -9.00627327 1.777446747
15.24635124 -8.984992981 2.382257223
8.876479149 -5.598598003 2.070358992
13.97920799 -8.283579826 3.370308638
20.25340271 -11.57016659 5.352565289
8.797704697 -5.526355267 3.132958651
21.2990303 -12.07346153 7.356809616
13.59879971 -8.257929802 0.596611321
13.71056366 -8.263961792 1.137359023
13.73789406 -8.2643013 1.682773113
15.18626881 -9.021173477 2.380939007
7.867493153 -5.099954605 1.927708626
13.85203838 -8.278396606 3.35342288
20.05793953 -11.55684471 5.319602966
8.79673481 -5.565133572 3.138246059
21.102314 -12.06443214 7.311094284
13.47475433 -8.251710892 0.5997701287
13.60563374 -8.26889801 1.137127161
13.64878845 -8.277977943 1.680440307
13.67514515 -8.277840614 2.227123499
13.70680046 -8.277296066 2.7794559
13.71117115 -8.264942169 3.333926201
19.88340759 -11.55780315 5.291819572
8.909769058 -5.666989326 3.174401283
20.92294502 -12.06327438 7.270611286
13.36891747 -8.2576437 0.6027232409
13.50832558 -8.280330658 1.137189388
13.54794407 -8.287745476 1.677487969
13.52671146 -8.258840561 2.215989351
13.56927299 -8.252966881 3.314487696
19.70758629 -11.55232811 5.263083935
8.940794945 -5.72382021 3.18845129
20.72658539 -12.05637455 7.225477219
13.273242 -8.265442848 0.6054461598
13.38263512 -8.272414207 1.136366606
13.42576027 -8.282032967 1.67292583
13.40127754 -8.251351357 2.207226276
8.803442001 -5.720477581 2.074302673
13.4462719 -8.247173309 3.298161745
19.55098915 -11.55609322 5.238623142
19.5964756 -11.55900764 6.062484264
20.53423691 -12.04555702 7.180692196
13.19512844 -8.282428741 0.6079118848
13.28687763 -8.280218124 1.13629663
13.32299614 -8.286200523 1.669608831
13.28652191 -8.248855591 2.199547291
8.84896183 -5.785614491 2.084626913
13.33212376 -8.24537468 3.283427477
19.3739872 -11.54756546 5.209422112
19.4323082 -11.55785751 6.030988693
20.35069656 -12.03815842 7.138504982
13.18499851 -8.337262154 0.6094445586
13.19821072 -8.291353226 1.136391521
13.20467758 -8.280982018 1.665228128
13.21369076 -8.268929482 2.196294308
8.812660217 -5.805796623 2.0829916
13.22160625 -8.244786263 3.269316912
19.20416069 -11.54173088 5.181752682
19.22582817 -11.53213596 5.987940311
20.17252541 -12.03242588 7.097863674
13.17116642 -8.390144348 0.6110271811
13.17927837 -8.341267586 1.138321996
13.17701912 -8.325986862 1.666857481
13.19469929 -8.318826675 2.198782921
13.21379471 -8.315335274 2.735493898
13.19218922 -8.288845062 3.270414829
19.02091026 -11.52720261 5.150905132
19.0418644 -11.51744556 5.950838566
20.00477409 -12.03121185 7.060355186
13.20398045 -8.469859123 0.6119884253
13.19491005 -8.410923958 1.141184926
13.18740177 -8.392582893 1.671044111
13.18591118 -8.37457943 2.202388048
13.21353722 -8.375957489 2.741070509
13.19699764 -8.352191925 3.277997017
18.84826851 -11.51728821 5.122375011
18.88199234 -11.51495838 5.920152187
19.76830482 -11.99029064 7.001132488
13.21214771 -8.535898209 0.6132845283
13.23797226 -8.496687889 1.144806147
13.23732567 -8.482168198 1.677919745
13.24259663 -8.467899323 2.213068724
13.26815224 -8.468119621 2.754828691
13.21010113 -8.420537949 3.287208557
18.67422104 -11.50535202 5.093414783
18.75286102 -11.52874947 5.897736549
18.70804024 -11.48168468 6.682122231
13.2269268 -8.606113434 0.6144983172
13.22000885 -8.547820091 1.146799088
13.23491096 -8.542240143 1.681311369
13.23840141 -8.526907921 2.217247963
13.26897526 -8.530098915 2.76067996
13.22630692 -8.491036415 3.297079563
18.5396328 -11.5147419 5.073465347
18.60527802 -11.53116512 5.870218277
18.6033535 -11.50842953 6.663431168
13.30001545 -8.710942268 0.6149605513
13.22814274 -8.617331505 1.149637222
13.22878361 -8.600383759 1.684474587
13.23776722 -8.591290474 2.222080231
8.473644257 -5.814769268 2.051494122
13.24389267 -8.562714577 3.307285309
18.38296509 -11.5147543 5.048887253
18.40545082 -11.50674057 5.8289361
18.42847443 -11.49422836 6.622485638
13.25549698 -8.747119904 0.6169552207
13.29554272 -8.715826035 1.153874993
13.28612804 -8.695959091 1.691979527
13.3000555 -8.689693451 2.233556032
8.464033127 -5.846782684 2.053589582
13.24408245 -8.624681473 3.314250231
18.1980896 -11.48869896 5.016548157
18.23168755 -11.4873724 5.793371677
18.26728439 -11.48666954 6.585738659
13.25554752 -8.809713364 0.6183737516
13.27160072 -8.764188766 1.155743241
13.27423 -8.751363754 1.694807053
13.27744961 -8.735703468 2.235613823
8.496159554 -5.905415058 2.062152386
13.24740124 -8.68874073 3.321871519
18.06079483 -11.49342155 4.995718479
18.09669113 -11.49371147 5.768986225
18.09471703 -11.47132111 6.545248032
13.33587551 -8.92083931 0.6187787056
13.26980209 -8.825800896 1.158234239
13.26724339 -8.809859276 1.697991014
13.26698971 -8.792099953 2.239258051
13.30534458 -8.800260544 2.789535761
13.27250576 -8.765989304 3.333733797
17.90342712 -11.48536301 4.970129013
17.97696495 -11.50813103 5.748734951
17.96071243 -11.47740936 6.51691246
13.30612469 -8.96628952 0.6205854416
13.32255268 -8.920489311 1.162272573
13.34558392 -8.919805527 1.707074642
13.34511662 -8.901744843 2.252654791
13.35748386 -8.894412994 2.803385019
13.28536701 -8.83643055 3.343327522
17.77329254 -11.4923954 4.950818539
17.81053352 -11.49400997 5.715504169
17.8069973 -11.47087669 6.482185364
13.30182362 -9.027258873 0.6220715642
13.2978735 -8.968980789 1.164153218
13.30717945 -8.960077286 1.708152056
13.31384563 -8.949487686 2.254341602
13.32250214 -8.936790466 2.80414319
13.30973148 -8.914175034 3.355213642
17.58096504 -11.4653635 4.917387486
17.62086868 -11.46891308 5.676337242
17.64859009 -11.46043491 6.44583416
13.36053944 -9.130470276 0.6228544116
13.30059433 -9.037448883 1.166949511
13.29961967 -9.022253036 1.711563468
13.32123566 -9.017588615 2.260072947
13.32155704 -9.002971649 2.810390949
13.31035519 -8.981202126 3.362959385
17.4563446 -11.47365379 4.899200439
17.48678017 -11.4717598 5.651831627
17.49356079 -11.45505905 6.411157608
13.32497215 -9.172822952 0.6247336864
13.36399841 -9.140440941 1.171374559
13.37652683 -9.133441925 1.720702648
13.37412739 -9.113960266 2.270892859
13.39444923 -9.111505508 2.82763052
13.31210518 -9.046019554 3.370622635
17.33523178 -11.48325825 4.881778717
17.37948227 -11.48999119 5.634710789
17.37199402 -11.46470833 6.386419773
13.33674335 -9.244722366 0.6260346174
13.33513451 -9.186995506 1.173171282
13.34592533 -9.178971291 1.722381711
13.34184933 -9.158411026 2.27231288
13.36381435 -9.157065392 2.829172134
13.33202934 -9.122343063 3.381887913
17.16917992 -11.46441364 4.853655815
17.1910305 -11.45773411 5.594853878
17.19468117 -11.43938732 6.343596458
13.39554882 -9.346662521 0.626776278
13.34169292 -9.255737305 1.17600286
13.35242081 -9.247663498 1.726678491
13.34320736 -9.223816872 2.277503729
13.35996532 -9.219275475 2.834839344
13.35828972 -9.203065872 3.394472837
17.00348282 -11.44453621 4.825496197
17.05430794 -11.45603085 5.569333076
17.05713654 -11.43728924 6.313488007
13.36602211 -9.393353462 0.6285848022
13.38682747 -9.349159241 1.179982305
13.4025135 -9.344171524 1.734085202
13.41676235 -9.334887505 2.290822506
13.42135811 -9.322674751 2.850583315
13.36575222 -9.272551537 3.40347147
16.89299965 -11.4579258 4.810364723
16.95578957 -11.4771719 5.554457188
16.95746803 -11.45779991 6.295579433
13.38013268 -9.467964172 0.6298751831
13.37578869 -9.407599449 1.182337642
13.3678236 -9.387620926 1.735535264
13.38541031 -9.380521774 2.292443752
13.3900013 -9.36829567 2.852134705
13.3762207 -9.344302177 3.413133621
16.75610542 -11.45394802 4.788873672
16.75520897 -11.43358612 5.510777473
11.26090145 -7.966495991 4.454903603
13.41404247 -9.555799484 0.6309409738
13.41164017 -9.496271133 1.186097145
13.38007641 -9.461065292 1.740336061
13.3891468 -9.448536873 2.29803896
13.40698433 -9.444719315 2.861186743
13.38635349 -9.416222572 3.422804832
16.58964539 -11.43025494 4.760220051
16.61924744 -11.42932796 5.48516798
11.22926235 -8.001475334 4.454294205
13.39719868 -9.611273766 0.6326045394
13.41177177 -9.562505722 1.188817263
13.4356041 -9.562822342 1.748266339
13.4243927 -9.537133217 2.30724287
13.44862556 -9.537436485 2.87413311
13.406106 -9.494710922 3.434453487
16.47145271 -11.43616295 4.743030548
16.53762627 -11.45880127 5.474865913
11.18126488 -8.025951385 4.448358059
13.45709133 -9.717140198 0.6333881021
13.39986229 -9.621225357 1.191191196
13.41190147 -9.613952637 1.750568271
13.41239548 -9.595769882 2.311149597
13.42318535 -9.587450027 2.876732111
13.42215633 -9.571298599 3.445457697
16.33365631 -11.42862511 4.721055031
16.36930084 -11.43206024 5.439907551
11.14944839 -8.06060791 4.447740078
13.44963741 -9.779466629 0.634952724
13.45960903 -9.727101326 1.195748687
13.45648479 -9.709854126 1.757808566
13.47016335 -9.700148582 2.32303977
13.45569515 -9.67530632 2.888408899
13.43122768 -9.643785477 3.455158949
16.18461037 -11.41279316 4.696271896
16.21933746 -11.41590309 5.410027981
11.13047695 -8.103508949 4.451381683
13.44191742 -9.841842651 0.6365218759
13.44537163 -9.785012245 1.198088408
13.44223404 -9.767696381 1.76084435
13.46083641 -9.761260986 2.327343464
13.4678688 -9.75042057 2.896985769
13.44984245 -9.722945213 3.466841936
16.07339096 -11.42460442 4.681099415
16.12667847 -11.43607807 5.396405697
11.09357929 -8.134778023 4.449160576
13.49547672 -9.948940277 0.637485683
13.44930744 -9.858564377 1.201136589
13.45444012 -9.846682549 1.766030312
13.45300007 -9.826951027 2.332123518
13.47810459 -9.828080177 2.905664921
13.45662212 -9.798156738 3.476654768
15.94267559 -11.42279053 4.661134243
15.94774055 -11.40290356 5.358663082
11.06497765 -8.174154282 4.450209618
13.47710705 -10.00492287 0.6391825676
13.49271965 -9.959014893 1.205427408
13.5109539 -9.952408791 1.774284363
13.49947548 -9.929233551 2.343203068
13.53743553 -9.938957214 2.922156096
13.46789932 -9.873375893 3.487043619
15.78792763 -11.40005493 4.634669304
15.83409691 -11.41158009 5.339512348
11.03591919 -8.210441589 4.450647831
13.50149918 -10.09015179 0.6404130459
13.46921062 -10.00814342 1.207384706
13.48580933 -10.00391483 1.776614428
13.4858923 -9.988445282 2.347145796
13.49895573 -9.978164673 2.922609806
13.48536301 -9.953179359 3.498759747
15.68750095 -11.40855408 4.620797634
15.74857998 -11.43031788 5.327114582
11.01315689 -8.250896454 4.453219414
13.52216148 -10.17339039 0.6416925788
13.54141331 -10.12597561 1.212493777
13.51164341 -10.0901556 1.782713652
13.51319218 -10.07216263 2.355587482
13.50309944 -10.04957676 2.93018508
13.50569248 -10.03542709 3.511146545
15.53173733 -11.38302422 4.593874931
15.56768799 -11.38831615 5.287763596
10.9934473 -8.293426514 4.456857204
13.5094986 -10.23415184 0.6433363557
13.52393818 -10.18333054 1.214817524
13.52385998 -10.16766548 1.787852764
13.53024769 -10.1529007 2.36317873
13.54620457 -10.14797115 2.944026232
13.51909351 -10.11348057 3.522227287
15.42982292 -11.39291859 4.58006382
15.47097588 -11.40197182 5.272630692
15.48299408 -11.39077282 5.969817162
13.56879902 -10.34521103 0.644220829
13.52596951 -10.25430679 1.217770815
13.51433945 -10.23063087 1.791416049
13.52887249 -10.22143269 2.368673563
13.54956913 -10.21980953 2.95162344
13.51909733 -10.18281174 3.530678988
15.33773422 -11.40887928 4.568624496
15.3390379 -11.39094162 5.247211456
15.3390913 -11.37171268 5.936137199
10.57677841 -8.317811012 0.677022934
13.56867313 -10.35399246 1.222045422
13.5815773 -10.34720325 1.800729513
13.58769035 -10.33207989 2.381273031
13.61942673 -10.33807755 2.969936371
13.54473495 -10.27020836 3.544420719
15.18121338 -11.37979317 4.541215897
15.20897388 -11.38022709 5.222231865
15.22885323 -11.37472725 5.913651466
10.49531364 -8.315441132 0.6790546179
10.59743023 -8.326921463 1.581520081
10.58193493 -8.30091095 2.033228397
10.60424519 -8.303995132 2.492411852
10.61157513 -8.296422005 2.954167604
10.57451725 -8.255034447 3.410046816
15.13669968 -11.40864086 5.214041233
15.12670898 -11.38259506 5.893817425
10.42051315 -8.317233086 0.6810028553
10.52245331 -8.329273224 1.579298377
10.53313255 -8.321685791 2.031993628
10.52951717 -8.306653023 2.486022711
10.53704166 -8.299314499 2.94570899
10.53727722 -8.283903122 3.408706188
10.55448437 -8.282862663 3.883125782
10.58903408 -8.293589592 4.372341156
10.32632828 -8.304598808 0.6831330657
10.405756 -8.313684464 1.127566338
10.42155361 -8.312695503 1.575095296
10.44535351 -8.314561844 2.026131392
10.45489502 -8.308891296 2.479619026
10.45296001 -8.294939995 2.935249567
10.45193195 -8.278702736 3.395376921
10.46792412 -8.276955605 3.866810083
10.49342918 -8.281571388 4.350251675
10.25181007 -8.305459976 0.685048759
10.33107185 -8.314955711 1.127401471
10.34848785 -8.315266609 1.572963715
10.36455536 -8.314505577 2.021285534
10.3755455 -8.307245255 2.472414494
10.36582565 -8.287787437 2.924110651
10.38301754 -8.287302971 3.38649869
10.39132881 -8.280227661 3.853822708
10.40747929 -8.275659561 4.331352711
10.16803741 -8.301776886 0.6870999336
10.24386024 -8.309398651 1.126917601
10.27909184 -8.322710991 1.571258903
10.2641983 -8.297046661 2.013843298
10.30147743 -8.311554909 2.466313839
10.28718758 -8.288805008 2.915012836
10.29000378 -8.275437355 3.371136189
10.31141853 -8.27784729 3.839343786
10.32823658 -8.276638031 4.315186024
10.08571529 -8.295826912 0.6890630126
10.15812778 -8.301520348 1.126343727
10.19170856 -8.313878059 1.567985892
10.20436954 -8.308202744 2.011208296
10.20955086 -8.299687386 2.456977129
10.21956825 -8.294511795 2.907816887
10.20673275 -8.269901276 3.358154535
10.23322868 -8.276144981 3.825316906
10.24574566 -8.271976471 4.297324181
10.02930546 -8.308396339 0.6907601953
10.09836578 -8.312059402 1.126617551
10.10934162 -8.30807209 1.565066218
10.11727428 -8.299061775 2.005274534
10.12744808 -8.294281006 2.449197054
10.14566517 -8.295186996 2.899280548
10.13659477 -8.276007652 3.348829508
10.15360355 -8.272846222 3.810805798
10.17277527 -8.273620605 4.282661438
9.997306824 -8.341505051 0.6922721863
10.03548431 -8.310637474 1.56294322
10.05951786 -8.313591957 2.003071547
10.05060101 -8.294839859 2.442521572
10.05467987 -8.285522461 2.887480021
10.06022644 -8.277071953 3.337887764
10.07440281 -8.271981239 3.796816826
10.10484505 -8.281145096 4.270199299
9.995594978 -8.397284508 0.6934952736
10.02449036 -8.371481895 1.128909588
10.00178051 -8.342554092 1.563913107
10.01298141 -8.336099625 2.00221467
9.983435631 -8.30202961 2.437409401
9.975008011 -8.283501625 2.877984524
9.993171692 -8.281762123 3.328865051
10.02508259 -8.292555809 3.791721106
10.03544712 -8.287129402 4.257187366
9.985359192 -8.444162369 0.6947427988
9.993535042 -8.402796745 1.130143642
9.998041153 -8.394126892 1.567051291
10.0027895 -8.382862091 2.005551338
9.909724236 -8.301156998 2.430897474
9.899946213 -8.281637192 2.869068146
9.897917747 -8.265016556 3.312609911
10.02856159 -8.349392891 3.802030802
10.02161884 -8.331139565 4.262877464
9.992418289 -8.504386902 0.6958327889
9.992790222 -8.456886292 1.132419944
10.00680351 -8.455389977 1.571192265
10.00034332 -8.435633659 2.0098629
9.831380844 -8.296297073 2.423579693
9.832909584 -8.285257339 2.861799479
9.818579674 -8.259456635 3.300346851
10.02398396 -8.40051651 3.810000181
10.01995277 -8.384365082 4.272864819
9.983304977 -8.552589417 0.6970745921
9.990190506 -8.509859085 1.134647012
9.994608879 -8.501094818 1.57371664
10.00558376 -8.494484901 2.015151501
9.745297432 -8.284991264 2.414926529
9.756529808 -8.281368256 2.852520943
9.753479004 -8.264059067 3.291681051
10.0176115 -8.450533867 3.817504644
10.02420044 -8.442293167 4.285006046
9.978730202 -8.604481697 0.6982769966
10.00003242 -8.572640419 1.137323141
9.980626106 -8.54559803 1.576118469
10.00419998 -8.548639297 2.019668818
9.673596382 -8.284005165 2.408631802
9.680306435 -8.277029037 2.843226671
9.680671692 -8.262365341 3.280993938
10.00637341 -8.497062683 3.823603153
10.02815723 -8.500350952 4.297154427
9.973910332 -8.656439781 0.6994842291
9.993741989 -8.623354912 1.139450669
9.988580704 -8.607162476 1.580278277
9.989946365 -8.593157768 2.022631645
9.609879494 -8.288650513 2.403644562
9.607356071 -8.27466011 2.834583282
9.611104965 -8.262643814 3.271096468
10.01654339 -8.560145378 3.836285591
10.01957798 -8.549174309 4.305009365
9.98459816 -8.72078228 0.7005586028
9.97774601 -8.66675663 1.141247034
9.991504669 -8.665194511 1.584068894
9.983363152 -8.643773079 2.026572704
9.543122292 -8.290507317 2.398115635
9.531421661 -8.269461632 2.825258255
9.537008286 -8.258933067 3.259978533
10.01406956 -8.613902092 3.845214605
10.01383018 -8.600383759 4.313943386
13.80764675 -11.79246521 0.6688524485
9.969439507 -8.716301918 1.143325329
9.994135857 -8.72334671 1.587866664
9.984391212 -8.700562477 2.031494856
9.478027344 -8.293217659 2.392838717
9.180239677 -8.049399376 2.756840467
9.453772545 -8.247584343 3.246430874
10.01595116 -8.671305656 3.855560303
10.01850414 -8.659901619 4.326647758
13.79620075 -11.86172581 0.6705763936
13.79903126 -11.79598236 1.283277154
13.80571651 -11.78419018 1.898067832
13.81620598 -11.77138519 2.515565872
9.409915924 -8.293111801 2.387019157
9.072789192 -8.016815186 2.740431547
9.390789986 -8.251449585 3.238099813
10.0068264 -8.720443726 3.862617731
10.02136803 -8.718357086 4.338821411
13.83285427 -11.96976471 0.6719003916
13.80469608 -11.87887955 1.286810637
13.79724312 -11.85582733 1.902416945
13.81352901 -11.85152626 2.522314072
9.351247787 -8.300005913 2.382777452
8.982708931 -7.997012138 2.727674246
9.312760353 -8.24566555 3.226196766
14.10449505 -12.00565338 5.136514664
14.14681339 -12.01590443 5.816637516
13.81129837 -12.03176975 0.6737187505
13.83298492 -11.98435593 1.291361094
13.84455967 -11.97241402 1.911327362
13.85438061 -11.96292019 2.534268141
9.306851387 -8.320550919 2.381244898
8.905220032 -7.986493587 2.717572689
9.256136894 -8.253644943 3.219451189
14.13677216 -12.11138248 5.160648823
14.16479874 -12.11040592 5.839102268
13.82569313 -12.05396748 1.294306517
13.83215904 -12.04188251 1.915442824
13.82947731 -12.02233887 2.537996292
9.274312973 -8.345093727 2.381168127
8.840230942 -7.985382557 2.710131645
9.177916527 -8.241372108 3.206581831
14.16288376 -12.2089386 5.182343483
14.17023659 -12.19556999 5.857269764
21.3068676 -18.31862259 0.616992712
13.88053417 -12.13943672 2.551061869
9.240406036 -8.371113777 2.381153584
8.819858551 -8.019817352 2.712388754
9.103169441 -8.233934402 3.194971561
9.902973175 -8.864912987 3.87060523
9.912759781 -8.859279633 4.345535755
21.34481049 -18.47421265 0.6192459464
13.94086552 -12.27315807 2.566117525
9.201823235 -8.393223763 2.380336523
8.817709923 -8.069124222 2.718666792
9.036426544 -8.23503685 3.185831547
14.198452 -12.40501785 5.223250389
14.22326756 -12.40153027 5.909275532
21.40347099 -18.65443039 0.6214848161
13.93475056 -12.34944439 2.572434187
9.180261612 -8.43184948 2.382775784
8.815581322 -8.121281624 2.725347519
8.983222961 -8.244111061 3.179845572
14.19991589 -12.48870087 5.238481998
14.23868465 -12.50078201 5.932436466
14.43406105 -12.88533306 1.331140161
14.39202595 -12.8321352 1.983111262
13.9814415 -12.47394371 2.585957289
9.155293465 -8.465023041 2.384349585
8.84944725 -8.200845718 2.739688396
8.922727585 -8.249475479 3.172297239
14.215415 -12.58858585 5.259019852
14.23925495 -12.58438015 5.949573994
14.339571 -12.9696312 0.679861784
14.37773991 -12.92784119 1.33283937
14.39403915 -12.92311859 1.989105463
13.96524906 -12.54296589 2.591111422
9.127337456 -8.498449326 2.385721445
8.840623856 -8.248250961 2.745042324
8.850035667 -8.241704941 3.161035061
14.24740887 -12.69866562 5.284194469
14.25811291 -12.68777657 5.974381924
14.36621571 -13.00366974 1.336063981
14.38243961 -12.99889946 1.993725419
14.02495384 -12.67600346 2.606152534
9.089976311 -8.521264076 2.385156631
8.784484863 -8.253665924 2.739585876
8.77150631 -8.228488922 3.148139238
14.25044346 -12.78546143 5.300407887
9.548592567 -8.851302147 4.272738457
21.77143288 -19.47843742 0.629191637
14.38783264 -13.08515072 1.999531984
14.00487137 -12.74277496 2.610930681
9.04650116 -8.538804054 2.383518696
8.725186348 -8.253451347 2.733048201
8.712656021 -8.231215477 3.140489101
9.46582222 -8.851866722 3.795447826
9.496743202 -8.861743927 4.264848709
21.70953941 -19.55689621 0.632299304
21.77480125 -19.4992218 1.629837275
14.40281296 -13.18443966 2.006480217
14.06480408 -12.87793255 2.626210928
9.017951012 -8.566121101 2.384216309
8.639148712 -8.232739449 2.7208426
8.656682968 -8.233385086 3.133170605
9.402011871 -8.851713181 3.784908772
9.444988251 -8.874818802 4.257558823
21.81070518 -19.77648354 0.6342549324
21.72333145 -19.58678055 1.633499026
14.43090534 -13.29567719 2.014600515
14.04750538 -12.9438448 2.631104946
8.997008324 -8.602624893 2.386581659
8.58033371 -8.234582901 2.714677572
8.59205246 -8.230400085 3.123878002
14.31825638 -13.09473515 5.367935181
14.34295464 -13.09557724 6.074876308
21.8412323 -19.93656921 0.63673383
21.74858093 -19.74095917 1.640181422
14.4523592 -13.40203762 2.022222757
14.09257317 -13.06813717 2.64463973
8.966910362 -8.63131237 2.38733983
8.521615982 -8.236101151 2.708500862
8.521605492 -8.221956253 3.112950802
14.3385582 -13.19882298 5.390352249
14.35239601 -13.19041729 6.096411705
21.88594627 -20.11027336 0.639133811
14.47474003 -13.51001358 2.029990196
14.07987976 -13.14326668 2.650645018
8.929235458 -8.653391838 2.386755466
8.462990761 -8.237305641 2.702313423
8.451328278 -8.213108063 3.102009296
14.35976219 -13.30447674 5.413258553
14.33364296 -13.26157475 6.107676983
14.53289509 -13.74686241 0.6908199191
21.91679573 -20.15604973 1.658384919
14.49054813 -13.61302853 2.037256241
14.13203812 -13.27990913 2.665711164
8.885551453 -8.670082092 2.385093212
8.410403252 -8.243377686 2.697463751
8.394693375 -8.21818924 3.095172405
14.3620739 -13.39888859 5.431070805
14.30438519 -13.3239212 6.115156174
14.52010727 -13.83060837 0.6928071976
14.52708244 -13.75876808 1.368865967
14.49459553 -13.71090126 2.04386425
14.1243782 -13.3606596 2.672535181
8.864290237 -8.709060669 2.387784004
8.329942703 -8.227190971 2.686590433
8.345318794 -8.226664543 3.089887619
14.37778759 -13.50124073 5.45258379
14.25237656 -13.37094307 6.115157127
14.5210886 -13.92257786 0.694619596
14.53132248 -13.85324478 1.372956038
14.5167675 -13.82105064 2.051807642
14.16173363 -13.48625946 2.68584919
8.836821556 -8.739876747 2.38906765
8.268710136 -8.22476387 2.679691553
8.28441906 -8.22726059 3.081811428
10.51629448 -10.18594551 4.212434769
9.01085186 -8.841168404 4.167648315
14.53578091 -13.95310593 1.377283573
14.53458595 -13.93270493 2.059742928
14.1531229 -13.5673666 2.692695141
8.801955223 -8.766844749 2.389337778
8.209249496 -8.226056099 2.673516273
8.214690208 -8.216952324 3.070817471
10.45297146 -10.19533539 4.203992367
8.948205948 -8.844587326 4.156550884
22.37227249 -21.25297356 0.6501272917
14.55111313 -14.03945923 2.067328453
14.20029068 -13.69919109 2.707141876
8.768392563 -8.792139053 2.389540195
8.154115677 -8.228226662 2.667945862
8.156793594 -8.21671772 3.063062906
10.42734814 -10.23808861 4.207883358
10.441432 -10.23556805 4.732662201
22.3630867 -21.38764954 0.6530197859
22.25317574 -21.16455841 1.702592492
14.57002544 -14.14916229 2.075189829
14.19514275 -13.7846756 2.7146101
8.730354309 -8.813304901 2.388931036
8.099064827 -8.230107307 2.662365437
8.099001884 -8.21616745 3.055297136
8.817293167 -8.852303505 3.690239429
14.54712677 -14.22142792 2.079407215
14.23509407 -13.91191101 2.728295565
8.695207596 -8.836970329 2.388855934
8.02953434 -8.218412399 2.653389215
8.035523415 -8.210032463 3.045892
8.741718292 -8.839805603 3.675842047
14.00472355 -13.5983181 6.116848946
14.28265285 -14.06662941 2.061789989
14.24504662 -14.01262188 2.73799324
8.661457062 -8.861832619 2.389046907
7.970187187 -8.212935448 2.646372557
7.982292175 -8.212806702 3.039325237
14.51990032 -14.17960262 5.602510929
13.94210148 -13.62630081 6.111189365
14.7011919 -14.64988995 0.7046734095
14.27306175 -14.15027142 2.067159414
14.2617588 -14.12032986 2.748707771
8.631952286 -8.887741089 2.389710665
7.918364525 -8.216550827 2.641436815
7.923235416 -8.207281113 3.030653
8.736923218 -8.944913864 3.694972992
8.737024307 -8.932122231 4.135803223
14.69100952 -14.73674393 0.7066247463
14.6889801 -14.65213203 1.407876372
14.33742046 -14.30350304 2.079234838
14.30642128 -14.25025463 2.762948275
8.579216957 -8.894778252 2.386382103
7.866615295 -8.219894409 2.636491299
7.861733437 -8.204180717 3.02208519
7.856585979 -8.185473442 3.411715031
8.561678886 -8.826444626 4.080577374
14.65764999 -14.80698967 0.7088017464
14.68643093 -14.75108242 1.412184358
14.32731533 -14.39281368 2.084998608
14.30359554 -14.34610367 2.771589994
8.532354355 -8.909813881 2.384459496
7.807904243 -8.218934059 2.630236626
7.791780472 -8.192707062 3.011056662
7.805416107 -8.19155407 3.404831886
14.67611313 -14.84330845 1.416192889
14.34714508 -14.51107979 2.093539238
14.35516834 -14.49409008 2.787893057
9.771357536 -10.14032269 2.624217987
7.740707397 -8.209523201 2.62193203
7.750380039 -8.204985619 3.007711649
7.745820999 -8.18937397 3.39508152
13.74785614 -13.81563187 6.11625576
14.32974434 -14.58994198 2.098426819
14.3448801 -14.57971382 2.795249462
9.783358574 -10.21663952 2.634054184
7.686393738 -8.209254265 2.616275311
7.697628021 -8.206284523 3.001092911
7.696089745 -8.193539619 3.388121843
8.383470535 -8.832201004 4.049104214
15.21953106 -15.64568615 0.7117464542
14.38341522 -14.73275661 2.109560251
14.3815403 -14.71090412 2.809271574
9.772051811 -10.27121258 2.639564276
7.639157295 -8.212819099 2.611912251
7.642127514 -8.204606056 2.993647575
7.640808582 -8.192083359 3.379246235
8.319171906 -8.823984146 4.035586357
15.13651276 -15.66797543 0.714155674
15.20326996 -15.64481831 1.451916814
14.39657402 -14.84249687 2.117383003
14.38598347 -14.8120842 2.818871498
9.766412735 -10.32825089 2.645819902
7.582190037 -8.209259987 2.605555534
7.571089268 -8.185024261 2.981229782
7.593922615 -8.1957407 3.372688293
15.06609631 -15.69704056 0.7163924575
15.1287899 -15.6753931 1.453164339
14.41588974 -14.95415592 2.125510931
14.42228508 -14.94011021 2.832623243
9.753153801 -10.38152981 2.651067495
7.526618481 -8.204092026 2.599132061
7.52008009 -8.186788559 2.974987984
7.533241749 -8.18833065 3.361884832
10.4935112 -11.03206921 4.914693832
14.92764664 -15.66373539 0.7190324664
15.05116653 -15.69739723 1.454036951
14.46205235 -15.09797001 2.13655138
14.46819782 -15.08358097 2.84832406
9.759734154 -10.4511404 2.659777403
7.469883442 -8.199935913 2.592753887
7.473246098 -8.189716339 2.969499588
7.471208096 -8.176579475 3.350059271
10.44524097 -11.0563736 4.911345005
14.86356449 -15.70843697 0.7214124799
14.92009258 -15.67644691 1.452967882
14.44810486 -15.1886816 2.142402887
14.4594841 -15.17441177 2.85635066
9.759749413 -10.52152443 2.668098211
7.406373501 -8.191231728 2.585056305
7.421107769 -8.192259789 2.96329546
7.42064476 -8.180670738 3.34310627
10.40062523 -11.08766174 4.910247326
14.80194473 -15.75028515 0.7236744761
14.86696529 -15.72697449 1.455128908
14.51256847 -15.35299587 2.155350924
14.5039196 -15.31867027 2.872093201
9.761083603 -10.59033394 2.676354408
7.358304024 -8.19476223 2.58070159
7.366166115 -8.189105988 2.955797195
7.371432781 -8.183213234 3.336089134
8.025862694 -8.817249298 3.98119235
14.71065903 -15.76204205 0.726053834
14.79391861 -15.75748158 1.456393242
14.51686573 -15.45859241 2.16272378
14.49970818 -15.415555 2.880957603
9.750835419 -10.64806747 2.682440281
7.310306549 -8.198039055 2.576337814
7.297466755 -8.171847343 2.944189787
7.32367754 -8.186870575 3.329541206
10.3925581 -11.22338963 4.938970089
9.176603317 -10.23670292 0.750451386
14.7039814 -15.77059841 1.456879377
14.53043747 -15.57431602 2.171044827
14.53563786 -15.55353832 2.895725489
9.736115456 -10.70163155 2.687712908
7.256811142 -8.19548893 2.570599794
7.249709129 -8.174995422 2.938719034
7.260894299 -8.17516613 3.31772542
10.37779903 -11.28118706 4.949249744
9.272520065 -10.40032291 0.7513263822
14.61552525 -15.78469944 1.457414985
14.57695866 -15.72445679 2.182595491
14.58194256 -15.7032938 2.912144184
9.739232063 -10.7735424 2.696534872
7.203426838 -8.192653656 2.564851761
7.203401089 -8.179288864 2.93364954
7.202383041 -8.167255402 3.307332039
10.37224483 -11.34857082 4.963354111
9.158592224 -10.34932804 0.753025949
14.57740021 -15.84987926 1.460253954
14.54870129 -15.79943752 2.187064171
14.56077003 -15.79065609 2.919329405
9.743349075 -10.84700966 2.705638409
7.147388935 -8.18672657 2.558409691
7.158613205 -8.187386513 2.929446936
7.153638363 -8.171339035 3.300808191
7.895661354 -8.910149574 3.978863716
10.38732433 -11.69563293 0.7498884797
14.58503151 -15.96778393 1.465465188
14.60220718 -15.96433067 2.19983983
14.49879742 -15.8312912 2.920091391
9.737019539 -10.9138031 2.713185787
7.098455429 -8.190197945 2.554062605
7.091906071 -8.170204163 2.918201685
7.108957767 -8.176707268 3.295179844
7.829566956 -8.901763916 3.965360641
10.32750225 -11.70867062 0.751534164
10.37626362 -11.69541359 1.273174644
10.39896584 -11.7038641 1.798548818
10.40890408 -11.6989336 2.326032877
9.727971077 -10.97471142 2.71984601
7.050870895 -8.192188263 2.549653769
7.032305241 -8.162302017 2.909460306
7.058984756 -8.178901672 3.288160324
7.688628197 -8.813010216 3.920639753
8.982940674 -10.37092876 0.7575412989
10.30486298 -11.70006752 1.273324013
10.3233633 -11.70433807 1.796693802
10.33660507 -11.69919395 2.322496414
9.718204498 -11.03880215 2.726859093
6.996623039 -8.189465523 2.543918848
6.99041605 -8.169780731 2.905587435
7.003644466 -8.172616959 3.278682947
10.35612774 -11.63639355 5.025459766
10.16081142 -11.68763828 0.7550203204
10.25744629 -11.72578049 1.274427056
10.2511692 -11.70405483 1.794880986
10.26117516 -11.69942379 2.318820238
9.718091011 -11.109869 2.735446692
6.935609818 -8.176681519 2.536064148
6.944580555 -8.175430298 2.900937319
6.941781044 -8.16163826 3.267329693
10.34476757 -11.70007229 5.037958145
8.846393585 -10.37470531 0.3079388142
10.07479382 -11.67512035 0.7567826509
8.900060654 -10.36265182 1.213070989
10.166255 -11.69356823 1.792051673
10.18231392 -11.69168568 2.314233065
9.713059425 -11.17988205 2.743568659
6.884335995 -8.176205635 2.530992746
6.89468956 -8.173966408 2.894581079
6.901437283 -8.170219421 3.263104439
10.24764442 -11.67777824 5.016078949
8.766013145 -10.34140301 0.762024343
10.07049847 -11.68196678 1.272357821
10.09981346 -11.6983223 1.790752172
10.09954453 -11.67918015 2.309016228
9.714894295 -11.25407028 2.752720833
6.845228672 -8.185753822 2.528605223
6.843560219 -8.170811653 2.887803316
6.850455761 -8.167316437 3.255034924
10.17254353 -11.67413139 5.002308369
9.929409027 -11.66549587 0.7599698305
10.00150585 -11.68331146 1.272375464
10.03126907 -11.69661999 1.788958073
10.0318985 -11.68225002 2.306039572
9.698759079 -11.30956459 2.75831461
6.796665668 -8.182412148 2.523412704
6.785848141 -8.160251617 2.878956795
6.806219578 -8.171230316 3.249355555
10.11660671 -11.68658352 4.995563984
8.644713402 -10.35175514 0.3175533116
9.868831635 -11.67500305 0.7615474463
9.952129364 -11.70167542 1.273163557
9.956898689 -11.69192028 1.786820889
9.965715408 -11.68643379 2.303255796
9.696302414 -11.37647152 2.7663095
6.741569996 -8.174218178 2.51688838
6.742888927 -8.162548065 2.874168396
6.759356022 -8.169487 3.242176533
7.352668762 -8.795401573 3.858614922
9.821766853 -11.69901466 0.7630816698
8.667453766 -10.37372971 1.213425994
9.873253822 -11.67653179 1.783717513
9.886706352 -11.67245007 2.298124313
7.311982632 -8.856402397 2.286552429
6.694615364 -8.174433708 2.512416363
6.692079067 -8.158612251 2.867362499
6.704709053 -8.161549568 3.232638836
7.309076786 -8.803936958 3.853161097
8.521160126 -10.33515453 0.7675579786
9.834749222 -11.72495842 1.274140954
9.831469536 -11.70644188 1.784819961
9.836295128 -11.69676495 2.298066139
7.263990879 -8.859855652 2.283544779
6.639770985 -8.165683746 2.505871534
6.653320312 -8.169998169 2.864722967
6.656799793 -8.163062096 3.226024866
8.409204483 -10.05745697 4.329403877
9.808398247 -11.84045315 0.7660253644
8.610105515 -10.44731426 1.216677666
9.826480865 -11.78084183 1.789950132
9.822430611 -11.75751019 2.303281307
7.215994358 -8.865799904 2.280859709
6.591734886 -8.166542053 2.501431942
6.59215641 -8.153983116 2.854597569
6.616780281 -8.170354843 3.221754789
8.351877213 -10.06246567 4.320886135
9.810076714 -11.91941833 0.7674539089
8.476679802 -10.36561012 1.212981939
9.825663567 -11.85660648 1.79528594
9.824965477 -11.84071255 2.311462879
7.154880047 -8.854049683 2.275081158
6.550338745 -8.171861649 2.498310328
6.541708469 -8.151846886 2.848226309
6.563796043 -8.16563797 3.213200569
9.863324165 -11.79669094 4.978076458
8.369670868 -10.3842783 0.3300626278
9.809392929 -12.0002346 0.7689676285
9.807276726 -11.93220234 1.283374429
9.811887741 -11.92229176 1.799611449
9.822323799 -11.91495037 2.318547487
7.095179081 -8.846164703 2.269896507
6.50245142 -8.172244072 2.493854046
6.493950844 -8.149765015 2.842207909
6.514813423 -8.162388802 3.205547571
8.317490578 -10.15743828 4.337223053
8.316825867 -10.39089489 0.3324388564
8.295655251 -10.35386181 0.7730682492
9.803081512 -12.00528622 1.286639214
9.79969883 -11.98631477 1.803866744
9.816649437 -11.98631859 2.325227022
7.047541142 -8.848582268 2.26685214
6.44808054 -8.162409782 2.487269878
6.454090118 -8.156215668 2.838661671
6.464643478 -8.157437325 3.197404146
8.373110771 -10.28527451 4.376372337
8.266665459 -10.4002676 0.3346624374
15.22700405 -18.37382889 0.7631882429
9.801123619 -12.08148575 1.29004693
9.80430603 -12.06986904 1.809911132
9.809276581 -12.05629158 2.331707001
7.003907204 -8.855217934 2.264627695
6.396463394 -8.155244827 2.481364965
6.407793522 -8.155138969 2.833040476
6.422302723 -8.160953522 3.192141056
8.425383568 -10.41072369 4.414448261
8.204773903 -10.39580059 0.3375236094
15.26281357 -18.53875732 0.7654113173
8.223813057 -10.34867668 1.212156534
8.207566261 -10.31718731 1.648123145
9.865646362 -12.19976807 2.348336697
6.952483177 -8.852706909 2.26073885
6.351467133 -8.155216217 2.477175951
6.360287189 -8.152363777 2.826997757
6.369772911 -8.152593613 3.183016539
9.847548485 -12.09454346 5.045156479
6.925994873 -8.97281456 0.4072140455
6.883678913 -8.91266346 0.7786273956
15.26389503 -18.55966568 1.581161737
8.177183151 -10.34874916 1.649672627
9.878134727 -12.29416656 2.358155012
6.888176441 -8.834980011 2.254075766
6.307840347 -8.156452179 2.473324537
6.305168152 -8.1404953 2.818462133
6.32758522 -8.15566349 3.177737236
8.218864441 -10.30968189 4.356613159
6.60745573 -8.656169891 0.4242619872
6.628511906 -8.670379639 0.779962182
15.29974842 -18.72653389 1.588649392
14.86926174 -18.20154953 2.363872528
9.813493729 -12.29985714 2.355750322
6.833137035 -8.827399254 2.249335766
6.266857147 -8.160457611 2.470156908
6.261734009 -8.141647339 2.813642979
6.277830601 -8.149725914 3.169558048
8.026825905 -10.15513039 4.288636684
8.009222984 -10.37121201 0.3465982974
6.584561348 -8.673622131 0.781014502
8.012507439 -10.30626297 1.210231781
8.020213127 -10.29927063 1.642549038
9.895564079 -12.4808321 2.377286434
6.787145615 -8.832754135 2.246853352
6.220802784 -8.158276558 2.46559906
6.220916748 -8.148123741 2.810107946
6.230733871 -8.146468163 3.162333965
7.953948498 -10.13631725 4.272290707
7.973981857 -10.39313221 0.3480027616
8.970822334 -11.56150055 0.7799319029
7.990287781 -10.34343338 1.211901426
7.98764658 -10.3242445 1.643600941
9.88013649 -12.54080391 2.382494688
6.750409603 -8.843073845 2.2456429
6.163337231 -8.139800072 2.4575243
6.177613258 -8.14629364 2.804811239
6.192571163 -8.15075779 3.157948256
8.007936478 -10.26185417 4.310867786
7.915259361 -10.39021587 0.3506677747
7.857602119 -10.30511475 0.7820929885
15.40077305 -19.2226181 1.61093843
7.955918789 -10.35354424 1.644989491
9.828520775 -12.55821514 2.381883144
6.698346138 -8.835080147 2.241100073
6.120057106 -8.140134811 2.453640461
6.129324913 -8.140842438 2.798310757
6.15191555 -8.154464722 3.153122187
12.07680988 -15.11820412 6.124993801
7.842260361 -10.37297821 0.3540885448
15.47000408 -19.55323982 0.7792745233
15.40645981 -19.36635208 1.617406845
15.00309372 -18.858778 2.414026022
9.800889015 -12.61238289 2.385999441
6.676704407 -8.868613243 2.243867159
6.080647469 -8.147345543 2.451182604
6.079874516 -8.13620472 2.791849375
6.112535954 -8.162004471 3.149303436
12.01783466 -15.15478039 6.12422514
7.781290531 -10.36633301 0.3568705618
15.46841812 -19.68428612 0.7816870213
7.79743433 -10.31703091 1.210728407
7.895569801 -10.41934586 1.648378015
6.592860699 -8.83833313 1.868658304
6.6650424 -8.914272308 2.248855829
6.042539597 -8.153319359 2.448670864
6.035577297 -8.134758949 2.786575794
6.045804501 -8.136592865 3.134848356
7.875859261 -10.30924129 4.300907135
7.732227802 -10.37040997 0.3590191603
8.707909584 -11.5509367 0.7856377363
7.76488018 -10.34125805 1.211826324
7.770887852 -10.33592224 1.639608026
6.543498993 -8.835155487 1.866149783
6.663526535 -8.966801643 2.255410194
5.991910458 -8.143937111 2.44268465
6.001374245 -8.142599106 2.784154892
6.002953529 -8.134104729 3.128500938
11.92060852 -15.24229717 6.129641533
7.692902565 -10.38958073 0.3605922759
15.53364372 -20.03398132 0.786552906
15.52313328 -19.90730858 1.64177537
15.09295082 -19.35592842 2.451867104
6.485546112 -8.818292618 1.861910582
6.671621323 -9.034346581 2.264525652
5.943923473 -8.137334824 2.437382698
5.954725742 -8.137731552 2.778036356
5.963853836 -8.138435364 3.124126911
11.86013031 -15.27172184 6.127110004
7.688224316 -10.4550848 0.3602013588
15.5672245 -20.21261787 0.7890247703
15.52965736 -20.05135727 1.648279309
15.12513351 -19.52766609 2.464994907
6.432538509 -8.812627792 1.859015822
6.673063278 -9.094368935 2.272258997
5.901035309 -8.136592865 2.433460474
5.905671597 -8.132143021 2.771540165
5.921060085 -8.140609741 3.118826628
7.70147419 -10.30002594 4.270989418
7.67610693 -10.50841331 0.3602427244
8.502895355 -11.52898788 0.7898067236
7.566101074 -10.30184555 1.210099578
15.14300156 -19.69005585 2.477150917
6.387289047 -8.813313484 1.857106328
6.651555538 -9.129477501 2.275318384
5.861906052 -8.142787933 2.430967331
5.855550289 -8.122233391 2.764155865
5.884501934 -8.147575378 3.115407705
10.25407219 -13.50931358 5.448343277
7.668241024 -10.57093716 0.3600030839
7.5003829 -10.34337807 0.7907549143
15.63294601 -20.46321297 1.666868448
7.534223557 -10.31690121 1.633089066
6.341975212 -8.81643486 1.855448842
6.322630405 -8.778812408 2.208930731
5.819158077 -8.141633987 2.427030325
5.81656599 -8.128314972 2.7609694
5.835732937 -8.14179039 3.107672215
10.21192551 -13.54781914 5.451071739
7.311765194 -10.18777466 0.3792523146
7.328297615 -10.19645786 0.7919305563
15.65300369 -20.63618851 1.674692392
15.20888042 -20.05082703 2.504774094
6.296868324 -8.816679955 1.853523731
6.462634563 -9.014072418 2.248196125
5.77520895 -8.141283035 2.423132658
5.7813344 -8.136259079 2.75856328
5.781083107 -8.125653267 3.096975088
7.529672146 -10.29683018 4.243305206
7.573596478 -10.58959961 0.3639646769
7.364862442 -10.31016159 0.7931551337
8.368252754 -11.5280695 1.265291452
15.2467947 -20.236866 2.519127131
6.241979599 -8.804218292 1.849912286
6.646677971 -9.305229187 2.297510386
5.735068798 -8.142790794 2.419876575
5.738820076 -8.134854317 2.753652811
5.737490177 -8.122894287 3.090627432
10.10580826 -13.60209846 5.447768688
7.678292751 -10.79440498 0.3574205339
7.329959869 -10.32977962 0.7942736149
7.344937325 -10.29594326 1.209928632
15.26610088 -20.39402962 2.530997276
6.197070599 -8.803996086 1.847970128
6.64162302 -9.359452248 2.304158449
5.703561306 -8.152411461 2.41865778
5.693972588 -8.130164146 2.747901201
5.70486927 -8.131122589 3.088104486
5.704416275 -8.120022774 3.430131912
7.67235899 -10.85463905 0.3570867479
7.280334949 -10.3302784 0.7953731418
15.7577219 -21.19394875 1.699936509
7.317658424 -10.30946445 1.627966404
6.153627396 -8.802482605 1.84597075
6.637753487 -9.412593842 2.310758829
5.663568974 -8.15103817 2.414995909
5.638440609 -8.108868599 2.737927437
5.666275978 -8.131576538 3.083152533
5.661195278 -8.114598274 3.422161341
6.860145092 -9.865492821 0.4020222723
6.867749214 -9.860397339 0.7960768342
15.7879343 -21.37264824 1.708036304
15.36202717 -20.79413986 2.562247276
6.109042645 -8.799199104 1.843753934
6.078178883 -8.748758316 2.189278126
5.633234978 -8.164464951 2.414510489
5.59624815 -8.10679245 2.732991934
5.620508671 -8.125179291 3.075814009
5.633342266 -8.131169319 3.421963215
7.124313831 -10.2659111 0.7976489663
8.139428139 -11.53595924 1.265782595
15.38835907 -20.98005104 2.576412678
6.066630363 -8.804124832 1.842469573
6.056468964 -8.780337334 2.191983938
5.594394207 -8.169376373 2.411973238
5.562430382 -8.117866516 2.731432438
5.570031166 -8.114910126 3.067055702
5.583003044 -8.121235847 3.411858797
7.661239624 -11.06184673 0.3554860055
7.118889332 -10.33024883 0.798905015
7.136785984 -10.29718113 1.210116029
7.135493279 -10.28314686 1.622277856
6.014621735 -8.796192169 1.839491844
6.626786232 -9.588043213 2.332766056
5.559176922 -8.178800583 2.410477161
5.522742271 -8.118515015 2.727319002
5.536224842 -8.125932693 3.065084457
5.539831638 -8.120183945 3.405061483
7.666527748 -11.14293385 0.3544277251
7.059564114 -10.31981945 0.8000130653
15.89746571 -21.98251915 1.735710859
7.099023819 -10.30317307 1.623007774
5.932936668 -8.745708466 1.83096981
5.954222202 -8.763346672 2.183333397
5.53357935 -8.198085785 2.411375284
5.480754852 -8.115856171 2.722362995
5.49311924 -8.121951103 3.058692932
5.492197514 -8.110315323 3.395446301
7.658221245 -11.20653629 0.3541223407
7.012787342 -10.32230663 0.8010734916
7.937011719 -11.50350761 1.264456391
7.96542263 -11.52364635 1.730346441
5.91855526 -8.783813477 1.834254622
5.91708374 -8.771354675 2.18205452
5.511565685 -8.219471931 2.41292572
5.432961941 -8.105189323 2.715310335
5.451278687 -8.119305611 3.052779198
5.455245018 -8.111522675 3.39020443
7.65493679 -11.27369118 0.3535584509
6.9691782 -10.33224106 0.8021937013
6.979949474 -10.28988743 1.209908724
6.983498573 -10.28237724 1.619150758
5.889719963 -8.802776337 1.835004807
6.60881424 -9.752384186 2.353038311
5.483467579 -8.235435486 2.413120747
5.399477959 -8.11055851 2.712802887
5.408463478 -8.112418175 3.045842171
5.424003601 -8.122723579 3.388321161
7.650010586 -11.34683418 0.3529927731
6.917303562 -10.33069611 0.8032889366
16.02120399 -22.6080265 1.764138341
6.93996954 -10.29220867 1.619009852
5.838543892 -8.788644791 1.831472993
6.603666306 -9.810323715 2.360292673
5.452974319 -8.248133659 2.412614107
5.354147434 -8.10509491 2.707032442
5.364486694 -8.106258392 3.038941145
5.384708881 -8.123010635 3.382558346
7.650532246 -11.42816257 0.3521006703
6.909792423 -10.39315891 0.8045441508
6.897186279 -10.31856728 1.21129477
6.88890934 -10.29501438 1.618208408
5.796544075 -8.792304993 1.830144048
6.614223957 -9.893404961 2.37182188
5.416498661 -8.255307198 2.410747766
5.310088158 -8.100973129 2.701671839
5.328578949 -8.113285065 3.035967112
5.337338924 -8.114775658 3.373509645
7.648222923 -11.50639057 0.3513519764
6.899574757 -10.4524498 0.8057995439
6.848488331 -10.32435417 1.211607933
15.65738392 -22.41583443 2.687659502
5.747559547 -8.78612709 1.827536464
6.842576504 -10.2757597 2.435955763
5.390502453 -8.276619911 2.412027597
5.264976501 -8.095046997 2.695884228
5.28810358 -8.113888741 3.031040907
5.290110588 -8.106287956 3.364451647
7.636130333 -11.5717411 0.3511446118
6.897171021 -10.52316952 0.8070834875
6.795174122 -10.32342339 1.211621284
15.685709 -22.62175179 2.703481674
5.703369141 -8.786135674 1.825767994
5.75096941 -8.841417313 2.181021214
5.369042397 -8.304219246 2.414707184
5.22688055 -8.098381996 2.692601204
5.251117706 -8.119002342 3.02756834
5.247544765 -8.103766441 3.357601166
6.901197433 -10.59648705 0.8082721233
6.745248318 -10.31987667 1.211513638
7.604426861 -11.50570107 1.72191298
5.664337635 -8.787187576 1.824323177
7.75712204 -11.68624306 2.677013874
5.340855122 -8.317120552 2.414493799
5.19835043 -8.106759071 2.691278458
5.207620144 -8.109554291 3.020107985
5.216621399 -8.111680984 3.355092525
6.883487225 -10.64337158 0.8094644547
6.69725132 -10.32215786 1.21167326
6.677626133 -10.28238869 1.613176227
5.623977184 -8.789051056 1.822918892
6.5744133 -10.10978127 2.397886992
5.313634872 -8.334038734 2.415022373
5.160446644 -8.107288361 2.68752265
5.159592628 -8.096060753 3.011220217
5.173217297 -8.104763985 3.347076893
6.881612778 -10.71317387 0.8107134104
6.650468826 -10.32585335 1.211898804
