# .PCD v0.7 - Point Cloud Data file format
VERSION 0.7
FIELDS x y z
SIZE 4 4 4
TYPE F F F
COUNT 1 1 1
WIDTH 1293
HEIGHT 1
VIEWPOINT 0 0 0 1 0 0 0
POINTS 1293
DATA ascii
-13.96588898 10.7677803 3.940134764
-28.43387794 24.4879055 9.129622459
-14.60604477 11.44604969 5.250907898
-28.22647095 24.46943474 11.64936066
-8.011163712 5.068452358 0.3651464283
-7.958333492 5.034517765 0.5867471099
-7.930609703 5.023583889 0.8010656834
-14.76854706 11.4593401 1.414819479
-13.78343582 10.52692604 1.88032949
-14.60821152 11.33645344 2.478579283
-13.56180859 10.38419247 2.838455677
-14.98903179 11.76893711 3.651226521
-13.96420193 10.83582306 3.946963072
-28.27549362 24.503685 9.100075722
-14.57207203 11.48816872 5.249736309
-28.03955269 24.4569416 11.59957695
-7.985693455 5.075311661 0.3658893406
-7.926411152 5.033608437 0.5878984332
-7.906004429 5.029379845 0.8008899689
-14.74767876 11.51370621 1.413042307
-13.77308178 10.58477592 1.880068541
-14.5544281 11.35894585 2.474224806
-13.57454777 10.46639633 2.844583511
-14.15197182 11.04806519 3.471055508
-13.94231319 10.88499165 3.948355436
-14.62841892 11.58071995 4.703627586
-14.57641315 11.57098484 5.263600349
-27.86951256 24.45935059 11.55689335
-7.953717709 5.07448101 0.367868185
-7.886570454 5.026461601 0.5898544192
-7.879239082 5.034444332 0.8007713556
-14.60152149 11.45291328 1.407725096
-13.78681755 10.66921997 1.881670237
-14.46130848 11.34738541 2.465091228
-13.52109146 10.48258972 2.839087486
-14.18745422 11.15719223 3.485029459
-13.96227741 10.97817421 3.961614132
-14.50855446 11.5402813 4.674554825
-14.50872993 11.58075714 5.249867916
-27.69566727 24.46516609 11.51398373
-7.931181431 5.083785534 0.3681379557
-7.856241226 5.026550293 0.5908462405
-7.844531536 5.030354977 0.8012951612
-28.16729164 24.43592072 0.5910657644
-14.45923328 11.39066124 1.402595043
-13.73828602 10.69136143 1.878518701
-14.44928169 11.40923882 2.465943098
-13.48312473 10.51679802 2.836475611
-14.1119194 11.15641785 3.473980665
-13.88910007 10.97824097 3.949068069
-14.49890041 11.60976028 4.681751251
-27.60833931 24.46371078 10.21513271
-14.37374401 11.56533527 5.793845177
-7.905049801 5.088115215 0.3691679835
-7.829569817 5.031353951 0.5912902355
-7.807019711 5.023311615 0.8020240068
-27.99281693 24.43297577 0.5880481601
-14.36319733 11.37523746 1.398697019
-13.7829361 10.80651188 1.882486701
-14.53535748 11.56997871 2.479195595
-14.02766132 11.15020943 3.461247444
-14.45182323 11.63917828 4.676324844
-27.43813515 24.46268082 10.17679787
-14.36190414 11.63288403 5.803269863
-7.867467403 5.081329346 0.3721121848
-7.810826302 5.042176723 0.5909309387
-7.782552242 5.028535366 0.8018584251
-27.82009697 24.43049049 0.5850214958
-14.3223238 11.40891171 1.396379232
-13.72112465 10.81602097 1.878332138
-14.03713226 11.15978527 2.419239521
-13.22141266 10.39683342 2.798450708
-13.39829159 10.60525799 3.32562232
-27.47674751 24.49661827 7.711205482
-14.41576672 11.67934799 4.674526215
-13.96828175 11.27689266 5.080832958
-7.837132931 5.081223965 0.3738662302
-7.766281605 5.027976513 0.5936303735
-7.750934124 5.026680946 0.8021962047
-27.63767242 24.41732025 0.5822317004
-14.36427021 11.52351475 1.396317959
-13.68508625 10.85033894 1.876141667
-13.44091797 10.64721203 2.346798897
-13.24062538 10.48248291 2.805624008
-13.39113712 10.66649151 3.329604626
-14.44082355 11.74323368 4.124881268
-14.36022854 11.70016479 4.666369438
-13.91571045 11.29771614 5.072403431
-13.8508358 11.27310276 5.608788967
-7.819674492 5.093406677 0.373467356
-7.739016533 5.030206203 0.5942960978
-7.725095272 5.03024292 0.8021355271
-27.44992256 24.39756203 0.5795916915
-14.09066391 11.32847404 1.387664676
-13.68594742 10.9209404 1.876767993
-13.29601765 10.60470104 2.819203138
-13.36267281 10.70690823 3.328822851
-27.14934921 24.50353241 7.656238079
-14.2964201 11.71245193 4.655494213
-13.90533924 11.36073875 5.080122471
-13.86446857 11.36023617 5.628367901
-7.79082489 5.094415665 0.3749862611
-7.710364819 5.030900478 0.5951350331
-7.693588257 5.028069973 0.8024808764
-27.23130989 24.34586525 0.5776688457
-14.00882053 11.32032204 1.384248853
-13.65380764 10.95934105 1.874882936
-13.3077898 10.65213966 2.334524155
-13.23546505 10.61248493 2.812473297
-14.40797234 11.86353874 4.132257938
-14.21345997 11.70505619 4.638280869
-13.85801983 11.38672352 5.073767185
-13.81058407 11.37945938 5.618539333
-7.747869015 5.081345558 0.3789102733
-7.694517612 5.044050694 0.5944393873
-7.660730362 5.02432251 0.8029319048
-27.14661217 24.4255085 0.572816968
-13.93706989 11.32161617 1.381112099
-13.73745918 11.11329937 1.881844282
-13.32725334 10.74006557 2.339226007
-13.20858097 10.65372181 2.811672688
-14.38905144 11.92162514 4.135344982
-26.70217323 24.46562195 8.784991264
-13.84850979 11.45110607 5.081978798
-13.78608799 11.42851734 5.621632576
-7.714928627 5.077814102 0.3811599016
-7.668741226 5.047302723 0.5949397683
-7.632189751 5.024629116 0.803083241
-26.97122383 24.41426277 0.5699926019
-13.91760921 11.37499714 1.37938273
-13.64264011 11.08962154 1.875182152
-13.29572105 10.77732468 2.337519407
-13.25687122 10.77111435 2.824177265
-13.14883137 10.69821548 3.297392368
-13.213871 10.80140877 3.815287828
-26.53557205 24.46147156 8.752010345
-13.9572506 11.63730049 5.135934353
-13.7507267 11.46655369 5.620017529
-7.6764431 5.068494797 0.3843776584
-7.635953426 5.043374538 0.5962995291
-7.612150192 5.033284187 0.8026266694
-26.793396 24.3992424 0.5672574639
-13.866992 11.39706802 1.376814246
-13.60988426 11.12789917 1.87326324
-13.25846004 10.80880642 2.335098028
-13.2665453 10.88753891 3.330023766
-13.24508667 10.90321541 3.83164525
-14.02133656 11.73746777 4.605251789
-13.85403728 11.60644054 5.108222485
-7.654877663 5.075849056 0.3847098053
-7.59903574 5.035023689 0.5981795788
-7.589293003 5.039007664 0.8023743033
-26.62858009 24.39609909 0.5642555356
-13.89475441 11.49886036 1.376329541
-13.61196041 11.20170498 1.874013901
-13.07485676 10.76041985 3.292026043
-13.18973255 10.91648865 3.823799372
-13.06541348 10.82235336 4.296198368
-13.79665089 11.62234497 5.098193169
-7.627729416 5.077454567 0.3860078454
-7.573409081 5.037826538 0.598690331
-7.553855896 5.031790257 0.803045094
-26.46966171 24.39780617 0.5611431003
-26.37803078 24.39057159 1.705454946
-13.54255009 11.20271206 1.869295955
-12.88384247 10.56264687 2.29215312
-13.6432476 11.37990093 2.905173063
-12.96506214 10.7159586 3.272656679
-13.17248058 10.96913052 3.826689243
-13.02947235 10.85484505 4.293673992
-13.77926922 11.67991161 5.103741169
-14.12316227 12.08462238 5.82848978
-7.599229813 5.077505589 0.3875503242
-7.54920578 5.041926861 0.5990308523
-7.519193649 5.026504993 0.803576529
-26.30404663 24.39152145 0.558214426
-13.65798187 11.40299034 1.367604136
-13.56493282 11.298069 1.871614337
-13.27469254 11.03577423 2.344174147
-13.46776772 11.27100182 2.878200531
-12.92399502 10.74217606 3.26903367
-13.09536552 10.95927811 3.812711716
-13.01087475 10.90556526 4.297009945
-13.6301403 11.59863472 5.057905674
-14.51321983 12.57740784 6.017732143
-7.554812431 5.062468529 0.3917143643
-7.523634911 5.044479847 0.5995457172
-7.495062828 5.030380726 0.8034353256
-26.14160156 24.39550781 0.5548955798
-26.06000328 24.38961601 1.691586375
-13.49681091 11.30011654 1.86699903
-12.88519287 10.70022869 2.296894073
-13.48047256 11.36090946 2.884992838
-13.00535297 10.89705372 3.293676853
-13.08863544 11.0231142 3.818649054
-25.72736549 24.45691681 8.595306396
-13.6663847 11.71667099 5.085119247
-25.55093575 24.44641876 10.97802448
-7.54855299 5.084999084 0.389390409
-7.490458965 5.04042387 0.6008842587
-7.468186378 5.031256199 0.8035025597
-25.96693611 24.37736702 0.5522454381
-25.91042709 24.40555954 1.684777856
-13.46696854 11.34545612 1.865352988
-13.12381935 11.0235424 2.329827547
-13.1477356 11.08328819 2.829696417
-13.02296925 10.98967648 3.304037094
-13.08652973 11.09587669 3.826374054
-13.88649082 11.98554325 4.613120556
-13.63527107 11.75987339 5.085454464
-13.64058876 11.80891132 5.65805912
-7.509176731 5.073175907 0.3928822577
-7.456710339 5.034056664 0.6024447083
-7.444110394 5.034887314 0.803365469
-25.80782509 24.37424278 0.5492473841
-25.75276375 24.40377045 1.677907109
-13.45936298 11.41072369 1.865389228
-12.85189629 10.80662537 2.297420025
-13.50376987 11.57378483 3.421684027
-13.45954704 11.64713287 5.028803825
-13.63630009 11.88161278 5.670994759
-7.485005379 5.076931 0.3937107027
-7.428544044 5.033282757 0.6033167839
-7.415935516 5.034049988 0.8035420775
-25.6517601 24.37320709 0.5462007523
-25.58442879 24.3895092 1.670772314
-13.57870674 11.61133671 1.875196338
-12.74238777 10.75944614 2.285738707
-13.08469772 11.15966415 2.826905251
-13.48538303 11.629282 3.423842907
-13.19415855 11.3564291 3.873281002
-13.41632748 11.63391876 4.474829674
-13.28473473 11.53327847 4.9722085
-13.07981873 11.35235119 5.434249401
-7.479970932 5.100744247 0.3911364675
-7.404534817 5.036709785 0.6036711335
-7.385077953 5.030157089 0.8039307594
-25.49459839 24.36990547 0.5432075262
-14.91402721 13.12537575 1.393553376
-13.28088379 11.36781597 1.852913857
-12.74599552 10.83266068 2.288568974
-12.91930294 11.05363369 2.801356316
-13.34875011 11.5571146 3.398452997
-13.20822525 11.44557762 3.885600328
-13.40920448 11.7020998 4.482937336
-13.26200581 11.5837574 4.975684643
-13.04081821 11.38368893 5.430903912
-7.45985508 5.108668804 0.391233772
-7.383273602 5.042927742 0.6036788225
-7.357021809 5.029019833 0.8041152358
-25.34318352 24.37165451 0.5400944352
-25.27062225 24.38178635 1.657132745
-13.17099476 11.32292652 1.84507978
-12.69375801 10.84603596 2.284234047
-12.6027832 10.78158092 2.748338938
-13.42911816 11.71990299 3.423740149
-15.25914192 13.76367569 4.484232426
-13.3649826 11.73002338 4.478440762
-13.23125744 11.6256218 4.976046085
-13.50316048 11.96979046 5.655934811
-7.432955265 5.109251499 0.3925499618
-7.351157188 5.037381172 0.6050827503
-7.337171078 5.036521912 0.8036740422
-25.1811657 24.36088181 0.5372806191
-25.11822891 24.3811264 1.650446415
-13.14680004 11.36993122 1.843846917
-12.78031349 11.01035118 2.2978127
-12.56697083 10.81210136 2.746037245
-13.51512241 11.89068985 3.450529099
-13.18866634 11.57368088 3.896820068
-13.36906147 11.81124878 4.490559101
-13.55726337 12.06359196 5.119030476
-13.38665581 11.91862202 5.618020535
-7.422301769 5.127160549 0.3909401894
-7.317773819 5.030199051 0.6066669226
-7.313254356 5.0395298 0.8035484552
-25.02489471 24.35516167 0.5343470573
-13.86266804 12.23471737 1.362506628
-12.75567627 11.01608372 1.814301133
-12.82019997 11.12532902 2.305428505
-12.49635601 10.80428505 2.73741436
-13.41979694 11.86299515 3.434826374
-12.76628304 11.18060017 3.783073664
-13.31930161 11.8331871 4.484249592
-13.29034042 11.84446621 5.025290489
-13.34189606 11.94674873 5.612811565
-7.426366806 5.161103725 0.3866379261
-7.29930687 5.038980484 0.6063316464
-7.279927254 5.032105923 0.8041632771
-24.89048195 24.37228203 0.5308607221
-24.79678345 24.35823059 1.636688709
-12.56994629 10.8828516 1.800575733
-13.25650597 11.67945099 2.364470243
-12.48441029 10.86095905 2.739478111
-12.88906765 11.34982204 3.316292286
-12.76709938 11.2543211 3.791584253
-13.38755989 11.9872818 4.51875639
-13.25989246 11.88795185 5.02611208
-13.29199219 11.96896553 5.605267048
-7.435602188 5.200982571 0.3813459575
-7.274114609 5.040320873 0.606872797
-7.239983559 5.017108917 0.805313468
-24.73339653 24.36354828 0.5279991627
-12.36944675 10.73834324 1.322335958
-12.43610191 10.80479717 1.790844202
-12.79401779 11.24089909 2.307047367
-12.4456892 10.88809299 2.736679077
-12.89076424 11.42566299 3.323148966
-12.81186581 11.37807846 3.812993288
-13.70554543 12.42509079 4.640164852
-13.27655411 11.98497963 5.046011925
-13.24963093 11.99958897 5.6012187
-7.419243336 5.213064194 0.3806955516
-7.251633167 5.044491768 0.607065022
-7.213568211 5.016714096 0.8054118156
-24.58599472 24.36441803 0.5249040723
-12.31510067 10.74688911 1.31979084
-12.45218277 10.89254665 1.792702794
-12.74732494 11.26156998 2.303515434
-12.37918377 10.88392448 2.728794098
-12.81475067 11.41439438 3.311629057
-12.75324249 11.3859663 3.804360628
-13.47487831 12.24463177 4.57147646
-13.22136688 12.00085449 5.037007332
-13.22855854 12.05456352 5.607069969
-7.409496307 5.232451439 0.3788168132
-7.211853981 5.029294968 0.6095463634
-7.193863392 5.023623466 0.8049812317
-24.48677063 24.41825485 0.5205026269
-12.3192625 10.82093716 1.318699121
-12.4199667 10.92680454 1.790830851
-12.70192337 11.28353024 2.300155163
-12.37852573 10.95381832 2.733003855
-12.72979927 11.39233875 3.29794693
-13.43789387 12.28293896 4.57001543
-13.14844036 11.99606037 5.020789623
-13.18217278 12.08059978 5.601261139
-7.248655319 5.08330822 0.4049323499
-7.180186272 5.022789955 0.6109793782
-7.178137779 5.034923077 0.8042306304
-24.4868927 24.58393097 0.5133154988
-12.26081371 10.82467079 1.316050053
-12.39687729 10.97143841 1.789669633
-12.5775013 11.21554852 2.286470413
-12.35523701 10.99845219 2.733088017
-12.62691975 11.34897995 3.27993536
-12.65422249 11.42163181 3.792416573
-13.4556694 12.38446236 4.587782383
-13.12824059 12.09774113 5.591957092
-7.215571404 5.075453758 0.4075054526
-7.160501957 5.029532433 0.6108288169
-7.15047884 5.032691479 0.8044418097
-24.35137749 24.59676933 0.5098903775
-12.26044559 10.89428425 1.314828992
-12.55140114 11.21874332 1.802293897
-12.4707098 11.16632652 2.275054216
-12.28611279 10.99063969 2.724722862
-13.31592274 12.26241302 3.996299982
-13.34187222 12.33407497 4.559472561
-12.93763924 11.90903664 4.961622238
-13.34143734 12.42753124 5.707722187
-7.185214996 5.07039547 0.4095923901
-7.142131805 5.037683487 0.6105015874
-7.114977837 5.021308899 0.8053011298
-24.48048592 24.91161728 0.4989002943
-12.27808094 10.98513317 1.314034462
-12.38657475 11.14206982 2.266580105
-12.23922729 11.00799847 2.720461845
-12.53071594 11.38624191 3.270014763
-13.07300377 12.060112 3.933762789
-13.45146751 12.54385281 4.609813213
-12.90177441 11.94555759 4.960368633
-13.48316193 12.67724133 5.790799618
-7.1601758 5.071145058 0.4106983542
-7.119815826 5.041257381 0.6107055545
-7.090095043 5.021778107 0.8053067923
-24.4700489 25.06905556 0.4917874336
-14.51425266 13.64373207 1.367003202
-12.30011654 11.11432838 2.257781506
-12.19879627 11.03268433 2.717403173
-12.09092522 10.9465332 3.170652628
-12.97933292 12.02966881 3.91518712
-13.56855297 12.76495552 4.663199902
-12.84081841 11.95243645 4.948826313
-13.57767487 12.87393284 5.852281094
-7.132566929 5.068777561 0.4123007059
-7.092295647 5.03870821 0.611621201
-7.07309103 5.031186581 0.8046673536
-24.46398926 25.23276901 0.4844734669
-12.24534321 11.09016418 1.310753226
-11.87174416 10.64800167 1.751397014
-12.25929928 11.13910484 2.25497961
-12.10935402 10.99979115 2.705215216
-12.70301533 11.73897934 3.325026751
-12.87077618 11.98070717 3.892097473
-13.43548584 12.69182873 4.628176689
-12.84951019 12.04193783 4.966060162
-13.58135509 12.96424294 5.871290684
-7.109487057 5.072896481 0.4128751755
-7.064115524 5.036634922 0.612498045
-7.059245586 5.045689583 0.8036591411
-24.45277405 25.40037918 0.4768550098
-12.69488144 11.68987274 1.320260882
-11.77253056 10.60422134 1.744328976
-12.41451073 11.3945713 2.278089762
-11.84920216 10.76780796 2.661287069
-12.75373268 11.88031769 3.344598293
-12.67931938 11.83184433 3.844116688
-14.01645279 13.47514057 4.848052025
-12.9794445 12.28183746 5.034492016
-13.59919739 13.07240772 5.897237301
-7.089174747 5.077170849 0.4132902026
-7.045212269 5.042268753 0.6123956442
-7.033111095 5.044333458 0.8037771583
-24.45697594 25.57008362 0.4694596231
-11.88880444 10.80698109 1.753990769
-12.44599056 11.50653839 2.284934282
-11.92334747 10.92637539 2.679601431
-12.92410374 12.15829659 3.392736197
-12.7229557 11.96236134 3.866374493
-13.56618404 13.01863861 4.699462414
-13.01815224 12.40623474 5.064069271
-13.54582787 13.09516907 5.889496803
-7.060415268 5.072913647 0.4151495695
-7.020427227 5.042361259 0.6129646897
-7.00646019 5.040713787 0.8040504456
-24.45466232 25.74220085 0.4617954195
-12.47897053 11.57932758 1.800690651
-12.59323311 11.75788212 2.307197332
-12.76990032 12.05322361 3.362353325
-12.58669186 11.87695885 3.834683657
-13.3328886 12.82269478 4.628398895
-12.85781002 12.29371071 5.011430264
-13.16039753 12.71173191 5.722866535
-7.025314808 5.060937405 0.4182540774
-6.995684147 5.042331696 0.6135365963
-6.975295544 5.032981873 0.8046127558
-13.58281422 12.93821716 0.7891510129
-12.34969997 11.50761032 1.308083057
-12.37897968 11.53555679 1.793579221
-12.30944252 11.49401665 2.272227526
-12.07042503 11.24392509 2.716161013
-12.32850838 11.59816933 3.261501312
-12.57710457 11.94399643 3.841074944
-13.1912632 12.73537636 4.589899063
-12.78633499 12.2880621 4.995748043
-13.00581455 12.60654449 5.665943623
-7.004394054 5.065472603 0.418634057
-6.970983982 5.042180061 0.6141113043
-6.955746174 5.038878918 0.804195106
-13.50499249 12.93017673 0.7877758741
-12.13407803 11.32282639 1.301714778
-12.33677006 11.56042004 1.790979028
-12.22300053 11.46495152 2.263435125
-12.02299023 11.26024437 2.711873531
-12.33754158 11.6858511 3.270670652
-12.58703327 12.03544998 3.853467226
-12.87323666 12.42932701 4.487429619
-12.87559414 12.4803896 5.047689915
-12.99265575 12.67476845 5.676847935
-6.979667664 5.065344334 0.4197611213
-6.937408924 5.031189919 0.615944922
-6.932374001 5.04007864 0.8041074872
-13.47063923 12.97416401 0.7850449681
-12.28560925 11.5743227 1.787680387
-12.23415279 11.5540781 2.267668247
-11.89012718 11.17177868 2.691384315
-12.2463007 11.65108871 3.255225897
-12.67063141 12.21868706 3.888388634
-12.81467533 12.43982315 4.478383541
-23.83353424 26.19651222 9.693447113
-12.94085979 12.69521999 5.669204712
-6.953716755 5.063567638 0.4211401939
-6.924252033 5.044586182 0.6149102449
-6.917196274 5.05255127 0.8032079339
-13.45511818 13.04124928 0.781695962
-12.06881332 11.39212704 1.29757154
-12.21929073 11.56943512 1.783194661
-12.36682415 11.79333687 2.288224936
-11.94435978 11.31231594 2.706393242
-12.20756721 11.68038845 3.252696753
-12.7345953 12.37969494 3.917607307
-12.24273682 11.80939102 4.282450676
-12.24601936 11.8593874 4.810120106
-23.60967255 26.20661926 10.87006187
-6.927095413 5.062252522 0.4224798083
-6.911043167 5.057940483 0.6138728261
-6.906489372 5.069016457 0.8020175695
-19.27342987 20.28138542 0.5892013907
-12.14429665 11.56020927 1.297969818
-12.2626152 11.6991663 1.787307143
-12.25240898 11.72985363 2.275708914
-11.91244984 11.35121059 2.705321789
-12.17615509 11.71879768 3.252002954
-11.9062891 11.42536449 3.673876524
-12.25985909 11.9136982 4.300933838
-12.23352242 11.92694092 4.819503784
-23.45271301 26.19127083 10.83129406
-6.891206264 5.047922611 0.4258635342
-6.910889626 5.088830948 0.6108053923
-6.912064552 5.105617523 0.7993820906
-23.89476395 26.13883209 0.4315000176
-12.11461926 11.59965515 1.295938134
-12.22430038 11.73285484 1.785062194
-12.22710133 11.77606487 2.275151014
-11.78053379 11.26132584 2.684891462
-11.68114281 11.17875576 3.136307478
-11.88423824 11.47357082 3.676203966
-12.20575428 11.92488575 4.292898178
-12.20345879 11.96867371 4.820805073
-23.31027985 26.19321251 10.79948616
-6.871191025 5.051301956 0.4262987971
-6.919541836 5.127886295 0.6067306995
-6.896129608 5.115870476 0.7986242175
-23.75350571 26.13436508 0.4284557402
-12.12847519 11.69369507 1.294884324
-12.19089127 11.76492786 1.783132792
-12.08236122 11.6725893 2.258488655
-11.82586384 11.39310646 2.698392391
-11.63238335 11.18755722 3.130619287
-11.8619566 11.52175236 3.678518534
-12.29802704 12.11844921 4.338135242
-23.16337776 26.18841171 10.76538372
-6.852955818 5.058260441 0.4261918366
-6.907272339 5.14278841 0.6054950953
-6.864683151 5.105206966 0.7993576527
-23.61308861 26.1389904 0.4250009954
-13.03318501 12.91106033 1.313789487
-12.67104244 12.44759369 1.821654797
-12.05838108 11.71985435 2.258105278
-11.74930477 11.36787701 2.68828845
-12.40433025 12.24552345 3.330887794
-11.81645489 11.54049683 3.67370677
-12.25892162 12.14967442 4.335821629
-12.60089207 12.63876534 5.019976139
-23.0214386 26.18894196 10.73360825
-6.828512669 5.057398319 0.4273378551
-6.851480484 5.103150368 0.6106026769
-6.832612038 5.094959736 0.800054431
-23.474123 26.14450836 0.4215186834
-14.17953587 14.45214272 1.337765694
-12.01078987 11.73730183 2.254536867
-11.76663971 11.46569347 2.696528196
-12.32467651 12.22547054 3.318469286
-12.11900902 12.00764084 3.777006388
-12.16006565 12.10360146 4.311385155
-12.75814247 12.9286356 5.10324192
-22.87508011 26.18270111 10.699543
-6.806584835 5.059523106 0.4279849827
-6.80836916 5.078794003 0.6139128208
-6.792506218 5.075704575 0.8013880253
-23.31807327 26.12735748 0.4186454415
-14.12238407 14.47672653 1.334752083
-12.96593189 12.99126816 1.846501708
-12.34920597 12.24965096 2.303466797
-11.88695335 11.6970787 2.724796772
-12.25615692 12.21906662 3.30881238
-12.25054646 12.25915241 3.827792883
-12.18276024 12.21480656 4.332061768
-22.72900963 26.17573738 10.66549587
-6.77289629 5.048092842 0.4308527112
-6.790085793 5.085506439 0.6135964394
-6.764389038 5.069800854 0.8017635345
-23.17274666 26.13176727 0.415022403
-14.13879871 14.59583473 1.333351612
-12.58906555 12.59374046 1.81758523
-12.0607338 11.95914268 2.267193794
-11.81224442 11.68241501 2.715624809
-12.91137314 13.15449238 3.4823277
-12.1834898 12.25421524 3.81686306
-12.83033562 13.15189648 4.587117195
-12.64052963 12.9544611 5.084402084
-22.5890007 26.1756897 10.63435078
-6.757186413 5.05778265 0.4302484989
-6.764938831 5.08485651 0.6141483784
-6.746156693 5.076364994 0.8012420535
-20.59513092 22.98397446 0.4975537658
-13.56951427 13.95668316 1.319177508
-12.59624863 12.69192123 1.819008231
-11.98086262 11.93540764 2.259270191
-11.75532532 11.68639851 2.709637403
-12.20212364 12.36161995 3.832807779
-12.886446 13.31572723 4.621669769
-12.59735489 12.98547459 5.081411362
-22.44693375 26.17189598 10.60206795
-6.729990005 5.051194668 0.4322049022
-6.731540203 5.070364475 0.6162505746
-6.72303772 5.076529026 0.8011729121
-20.53531647 23.05777931 0.4927524626
-12.56471634 12.73893356 1.295770645
-12.53772736 12.69673443 1.815161943
-11.48899651 11.37090588 2.194863796
-11.57231236 11.52406311 2.678976297
-12.22332001 12.42476845 3.323694229
-12.339571 12.62778187 3.886369467
-13.56330395 14.30367756 4.889613628
-22.38596916 26.16429329 9.396935463
-22.31656456 26.18277359 10.57556248
-6.713068008 5.059156895 0.4318536222
-6.704834938 5.065722942 0.6172204614
-6.698255062 5.072858334 0.8013761044
-20.42158699 23.06921577 0.4895008802
-12.50403881 12.74501991 1.292917371
-12.53405952 12.77759075 1.815702319
-11.58003712 11.56731224 2.210235834
-11.55505848 11.57480621 2.680419207
-12.19500828 12.47133636 3.324360132
-12.33517838 12.70783424 3.895503044
-22.34987831 26.19117355 8.226358414
-22.25297165 26.17099571 9.371909142
-22.17611504 26.17917824 10.54388809
-6.690091133 5.059179306 0.4327643812
-6.689081192 5.07518959 0.6165456176
-6.667969227 5.063263893 0.8019952178
-20.29952621 23.06897163 0.486567229
-12.46150017 12.77476883 1.290453076
-11.679389 11.77723026 2.226854086
-11.49639416 11.57450771 2.674003363
-11.38517189 11.47046661 3.124422789
-13.02518559 13.72345448 4.125302792
-13.21097946 14.02523708 4.785878181
-12.39820862 12.9794178 5.041030407
-22.02459717 26.15945244 10.50648022
-6.65873909 5.048044682 0.4354479611
-6.661266327 5.068729401 0.6177052259
-6.646691322 5.066800594 0.8016656041
-20.19690895 23.09371185 0.4829367697
-13.84938335 14.7137394 1.318135262
-11.51131821 11.67274666 2.682106495
-11.35419464 11.50622082 3.123764277
-12.97814655 13.75399971 4.121922493
-13.13404655 14.01726341 4.771296978
-12.44631767 13.13448334 5.078664303
-21.88923264 26.16064453 10.47714424
-6.639940262 5.054692268 0.4353107214
-6.638327122 5.068490505 0.6181345582
-6.621366501 5.063306332 0.8018377423
-20.12633705 23.16896057 0.4777385592
-13.96588421 14.97120762 1.318735838
-13.78696918 14.7228756 1.917873263
-11.69834805 11.96253014 2.235523224
-11.47776222 11.71030617 2.680949211
-11.29847622 11.50843811 3.116738796
-12.92753029 13.77961349 4.117423058
-13.10671997 14.08156204 4.776382446
-12.58332539 13.41847801 5.157220364
-21.7563343 26.1642952 10.44897175
-6.618287563 5.055959702 0.4359768927
-6.606356144 5.057513714 0.6198135018
-6.60206461 5.067694664 0.801440239
-20.030756 23.2025528 0.4738347828
-13.80981445 14.86786556 1.313532829
-11.73297501 12.04793549 1.755406499
-11.57988548 11.88670826 2.222308636
-11.44710445 11.74796581 2.680127382
-11.33419991 11.63953686 3.133807659
-12.90463257 13.84803391 4.122438908
-12.58959579 13.46437931 4.592627525
-12.54422188 13.45712852 5.156677723
-21.61701202 26.16745377 10.41940594
-6.599034309 5.06030941 0.4361373782
-6.583535671 5.057024956 0.6202505231
-6.575649738 5.062363148 0.801733911
-22.04923058 26.10884857 0.3888836205
-12.42657757 13.08250713 1.283264279
-11.82047081 12.24908257 1.763188839
-11.38759422 11.70412064 2.198605776
-11.72578144 12.25965405 3.243393898
-21.69026375 26.12932205 6.968970776
-21.65647507 26.18366051 8.105124474
-21.55605507 26.15584373 9.233034134
-21.4756546 26.15733337 10.38667393
-6.573891163 5.056600571 0.4375695288
-6.56429863 5.061238766 0.6201355457
-6.54340601 5.048850536 0.8026093245
-21.9128933 26.10700607 0.3855790794
-12.04997444 12.65427589 1.273963332
-11.66449261 12.11822796 1.751568913
-11.23410606 11.57196903 2.180212498
-12.18172836 12.92629337 2.837885857
-11.67347813 12.2710104 3.237741232
-21.56227303 26.13776779 6.95082283
-21.51964569 26.17982483 8.081067085
-21.42213058 26.15550804 9.207084656
-21.33900642 26.15277863 10.35625267
-6.545288563 5.047970772 0.4397693276
-6.547420025 5.068584442 0.6196507812
-6.514819145 5.040005684 0.8031455874
-21.77327538 26.09966278 0.3824287355
-12.01598263 12.69376469 1.271690726
-11.55632782 12.0511961 1.743749022
-11.26439762 11.69292164 2.18747735
-12.31218815 13.19740295 2.870046139
-11.61430645 12.27248287 3.23028183
-21.41396141 26.11678505 6.92602396
-21.37743187 26.16736984 8.054833412
-12.34017754 13.45054722 5.116025448
-21.20371819 26.14913368 10.32642174
-6.521456718 5.045605659 0.4409557283
-6.528188229 5.072639942 0.6195365787
-6.504322052 5.057422638 0.8017883301
-21.63626862 26.09490013 0.3792036176
-12.47814751 13.42559338 1.279322147
-11.6641264 12.28389168 1.753196836
-11.34490967 11.88559246 2.201858044
-12.17949009 13.10212231 2.849420071
-13.45561504 14.95695686 3.723646641
-21.28414345 26.12076378 6.907166004
-21.24001312 26.16060829 8.030373573
-12.30863571 13.499506 5.119016171
-21.07305717 26.15113831 10.29889965
-6.49928093 5.046855927 0.4415927529
-6.489175797 5.049144745 0.6225838065
-6.478171825 5.051586628 0.8020988703
-21.49744797 26.09587288 0.3756437302
-13.16139317 14.47853088 1.291132927
-11.61861801 12.30426502 1.750396252
-11.44953632 12.11473751 2.219738245
-12.17489815 13.19096565 2.854902029
-11.96359348 12.93941021 3.339020014
-21.15338707 26.12252998 6.887952328
-21.10516357 26.1659317 8.008298874
-12.26583862 13.5372467 5.117821217
-20.94151497 26.15095329 10.27081966
-6.480173588 5.050710678 0.4417634308
-6.464700222 5.046998501 0.6231794953
-6.462522507 5.060256481 0.8013635278
-21.36557007 26.09632301 0.372263819
-12.40331745 13.50590801 1.274424076
-11.55609226 12.30465794 1.746275067
-11.32553291 12.02195072 2.205446959
-11.95649719 12.9709034 2.816745996
-11.94552994 13.00805855 3.343338966
-21.00938606 26.10431099 6.864321709
-20.97491455 26.16748428 7.986497879
-12.20094967 13.5382185 5.105633259
-20.8101902 26.15014458 10.24275494
-6.458343983 5.049127579 0.4427450299
-6.452100277 5.058327198 0.6221845746
-6.427256584 5.041151524 0.8026174307
-21.24520111 26.1028862 0.3688718677
-13.08832932 14.57673073 1.285978794
-11.55271435 12.38045597 1.746817708
-11.2091217 11.93823624 2.192170382
-11.8883152 12.96312237 2.8089571
-11.90542507 13.03637028 3.340981483
-20.87465286 26.09833527 6.843664646
-20.84374809 26.15729713 7.962783337
-20.75269699 26.1395359 9.076055527
-20.68987274 26.16456795 10.2204237
-6.434689045 5.046332836 0.4439430833
-6.431847572 5.060359478 0.6222660542
-6.40434885 5.03769207 0.8027498722
-18.60762024 22.51636696 0.4700219333
-13.10800362 14.7069521 1.284469008
-11.47270775 12.35118961 1.741250634
-11.15585613 11.94395161 2.187810183
-11.86870861 13.07417297 3.339994192
-20.74240112 26.09496307 6.82376194
-20.70075989 26.13828659 7.935770512
-20.65170479 26.18184662 9.064833641
-20.68228722 26.34522247 10.25812721
-6.412229538 5.045047283 0.4448881745
-6.407051086 5.055774212 0.623098135
-6.388765335 5.046092987 0.8020192981
-18.51053047 22.53755188 0.4665051997
-13.04505348 14.71899986 1.281358957
-11.4918232 12.46450043 1.743660927
-11.14106369 12.00526619 2.188929081
-20.68301392 26.08493996 5.717559814
-20.63247681 26.12349319 6.811238766
-20.59638596 26.17515945 7.924056053
-20.64359093 26.36181831 9.096971512
-20.68005943 26.53569984 10.2991991
-6.386410236 5.038775444 0.4466067851
-6.378914833 5.046160698 0.6244972348
-6.374704361 5.058218479 0.801009059
-18.43350601 22.59550095 0.4617531598
-12.24934673 13.66191864 1.264476418
-11.35880947 12.35730648 1.733818173
-11.07759571 11.99582291 2.183119297
-11.2365284 12.274333 2.693053722
-11.68724537 12.99062729 3.308975935
-11.62723064 12.95606709 3.820787907
-20.58218956 26.35564232 7.950026989
-20.6204567 26.52113342 9.12250042
-6.371235371 5.049176693 0.445716083
-6.359196663 5.050012112 0.6243568659
-6.350429058 5.055478096 0.8010620475
-20.70168686 26.08745384 0.3554745913
-12.25095558 13.7649889 1.262631178
-11.24265003 12.27710342 1.72536242
-11.02018356 11.99894524 2.178328753
-11.13486385 12.21396255 2.67820406
-11.69039917 13.0915432 3.319226503
-20.4694767 26.27367592 6.806524277
-20.57988548 26.55586815 7.981165886
-20.65823936 26.90625954 10.3757534
-6.350409031 5.051346779 0.4461112618
-6.337965488 5.049998283 0.6246364713
-6.316823959 5.037273884 0.8022302985
-20.57676697 26.09249115 0.3519396782
-12.2318058 13.83356476 1.260470986
-11.17302322 12.2640934 1.720656157
-11.48876476 12.77966499 2.249021292
-11.26917839 12.50465202 2.71224308
-11.60408497 13.05935478 3.30526638
-20.46365166 26.4582653 6.829241276
-20.5195179 26.66055107 7.987677097
-20.63081169 26.94030952 9.203332901
-20.62958336 27.06232643 10.40408802
-6.327702045 5.047531128 0.4473665059
-6.319728851 5.052694798 0.6245836616
-6.299751759 5.04156065 0.8017830849
-18.12098503 22.62401581 0.4521554112
-12.14105606 13.79100132 1.257086635
-11.14315128 12.30116653 1.719078064
-11.51028919 12.89745426 2.255495548
-11.0877552 12.31550312 2.680211782
-11.5288887 13.03375053 3.293364048
-20.44392204 26.61385155 6.846290112
-20.5766201 26.93512726 8.040549278
-20.59012222 27.06807327 9.219902039
-20.64119911 27.27170753 10.45259285
-6.299492359 5.035400391 0.4499162734
-6.297442913 5.050846577 0.6250562072
-6.286020279 5.05075264 0.8009780645
-18.0411911 22.66054535 0.4482820332
-12.08610725 13.80608368 1.254270673
-11.12086773 12.34980965 1.71811986
-11.27903271 12.63967514 2.225634098
-11.13311005 12.46688938 2.695378065
-11.4202919 12.95653629 3.272245884
-20.42960548 26.78905296 6.866692066
-20.5713768 27.117136 8.068543434
-20.66674232 27.51515961 10.51158333
-6.280629158 5.0384202 0.450104028
-6.275203705 5.048894405 0.625531733
-6.263784885 5.048748493 0.8009672761
-17.89342499 22.60266113 0.4470900893
-12.09948063 13.92441273 1.252668738
-11.6414547 13.22498226 1.761309028
-11.16469383 12.55532932 2.212580681
-11.45962143 13.05388737 2.769981146
-11.30264854 12.86851692 3.248958826
-20.45066833 27.02054977 6.899487495
-20.57641792 27.32704353 8.102726936
-20.66599846 27.72037506 10.55682468
-6.267280102 5.049609661 0.4489986598
-6.254113674 5.04849577 0.6258208156
-6.241596699 5.046639442 0.8009597063
-18.08700752 23.06173134 0.4302887917
-12.0233469 13.90749645 1.249468446
-9.799777031 10.50969315 1.612471342
-9.909119606 10.72058392 2.033284187
-11.41615486 13.08021355 2.76726985
-12.30838394 14.51512432 3.536222219
-20.43413544 27.19631577 6.919763088
-20.57704735 27.53238297 8.135536194
-20.6640377 27.9259243 10.60199547
-6.248413563 5.052487373 0.4491868317
-6.236345291 5.052989483 0.6255424619
-6.215076923 5.037751198 0.8014369011
-18.0042038 23.10393524 0.4260138869
-9.736362457 10.4900856 1.207993507
-9.704147339 10.43622684 1.605448127
-9.897625923 10.77818489 2.03460288
-11.37044907 13.10304356 2.764098883
-12.26946449 14.55953026 3.535816431
-11.40824032 13.2753849 3.830100775
-20.57331085 27.73312187 8.166975975
-20.65063858 28.11558533 10.64141178
-6.218672752 5.038710117 0.4519713521
-6.213130951 5.049077988 0.6262159944
-6.194467068 5.039232731 0.8011530638
-6.220388412 5.097989559 0.9719766378
-9.69205761 10.4949789 1.205849528
-9.547333717 10.26653194 1.59341979
-9.838380814 10.76202679 2.028952122
-9.56051445 10.36927128 2.386450052
-12.20695972 14.56713009 3.528877974
-11.35772896 13.29177761 3.825019121
-20.56160164 27.93390846 8.197205544
-20.60797882 28.12719536 9.424643517
-20.65239716 28.33150673 10.68985844
-6.200251579 5.043514252 0.4518629611
-6.191421032 5.048861027 0.6264696717
-6.171715736 5.037264347 0.8011134267
-6.194194317 5.091072083 0.971591711
-9.662297249 10.52601814 1.20388341
-9.556127548 10.35600185 1.594934344
-9.629701614 10.51467609 2.001460552
-11.23731518 13.08749104 2.74922514
-9.538609505 10.45596886 2.792212963
-11.32074642 13.33432293 3.825283289
-20.55072403 28.1382885 8.228230476
-20.60256958 28.34249878 9.464895248
-20.63997269 28.53783417 10.73340607
-6.186136723 5.054900169 0.4507140517
-6.166162014 5.041383743 0.6275321841
-6.154045105 5.0414505 0.8006331921
-6.170967579 5.086926937 0.9711511731
-9.631930351 10.55252075 1.201972365
-9.487205505 10.32423306 1.590101242
-9.51941967 10.4148407 1.988174319
-9.479437828 10.39540195 2.379894257
-9.467906952 10.42136288 2.780111074
-9.712551117 10.85461426 3.274917841
-20.55160332 28.35319328 8.262925148
-20.59655762 28.54849434 9.503350258
-20.64216995 28.75933838 10.78340816
-6.168072701 5.056976318 0.4509503841
-6.144924164 5.038358688 0.6280682087
-6.141386032 5.05184412 0.799708426
-6.153879642 5.090656281 0.9704961777
-9.606339455 10.58293819 1.200206637
-9.473028183 10.37113571 1.589672804
-9.46986866 10.40617752 1.983662367
-9.437450409 10.39853287 2.375791311
-9.429058075 10.42962456 2.776199102
-20.55293846 28.56041908 8.296530724
-20.59620094 28.75503159 9.543019295
-20.62493324 28.940485 10.82056999
-6.15002346 5.058978081 0.4511878788
-6.128345966 5.0440979 0.6276068687
-6.107713223 5.030581474 0.8010603189
-6.128283024 5.080777168 0.9702618718
-9.567252159 10.59570408 1.198145986
-9.491477013 10.47055054 1.591929317
-9.565361023 10.63354683 2.00083065
-9.4122715 10.4285059 2.375307798
-9.460898399 10.55217743 2.792354345
-9.473867416 10.6193037 3.210561752
-20.55615044 28.77296448 8.331366539
-20.57064629 28.93352318 9.572838783
-20.63656998 29.18232346 10.87723732
-6.119944096 5.045049191 0.45395419
-6.113880157 5.053141117 0.6267614961
-6.086938381 5.029436588 0.8009529114
-6.096038342 5.063196659 0.9702129364
-9.34738636 10.31325245 1.580873966
-9.420264244 10.47503662 1.982282281
-9.324264526 10.36402607 2.361761332
-9.414844513 10.55298328 2.786850691
-9.319159508 10.44234085 3.165690422
-20.54431534 28.98525047 8.363833427
-20.59221268 29.2030983 9.628788948
-20.6408062 29.41474342 10.93041801
-6.098098278 5.042271137 0.4549398422
-6.093386173 5.054137707 0.6268339157
-6.069365501 5.033283234 0.8004795909
-6.073095322 5.058592319 0.9697901607
-9.586972237 10.78358936 1.195488334
-9.289848328 10.29725933 1.576959848
-9.528002739 10.72968388 2.001592398
-9.294369698 10.38959885 2.360509157
-9.260333061 10.37880611 2.750637293
-9.299500465 10.48923779 3.169096947
-20.53709221 29.19647408 8.396945
-20.59113312 29.42696953 9.67195034
-20.62979507 29.63580513 10.97812939
-6.076302528 5.039391518 0.4559286833
-6.064208984 5.039367199 0.6286847591
-6.04970026 5.033659458 0.8002531528
-6.047077656 5.048768044 0.9695321321
-11.89777851 14.64277172 1.229695439
-9.308135986 10.40101051 1.579259157
-9.374529839 10.55491543 1.981701016
-9.204645157 10.3164978 2.346204519
-9.21707058 10.3822031 2.74576664
-9.217500687 10.42884064 3.149731159
-20.536623 29.42141151 8.433434486
-20.57881165 29.63454056 9.710046768
-20.62927628 29.86566925 11.03002071
-6.062892914 5.049907207 0.4548227787
-6.048717976 5.046491146 0.6280342937
-6.027979374 5.030543804 0.8002758026
-6.028441429 5.050764561 0.9689027667
-12.16607571 15.19358158 1.231702805
-9.282248497 10.43324757 1.577923775
-9.355283737 10.59940147 1.981908083
-9.154405594 10.3076067 2.340469122
-9.194169044 10.41936874 2.746773958
-9.278855324 10.60797787 3.181861639
-20.53380203 29.64502335 8.469414711
-20.52295303 29.77064323 9.726635933
-20.62931061 30.09920883 11.08296299
-6.050476551 5.062069416 0.4534519613
-6.032171249 5.051857948 0.6275763512
-6.002166748 5.02050209 0.8007973433
-6.012923241 5.057814598 0.9681118131
-9.24075222 10.43973732 1.575300455
-9.327604294 10.63018417 1.980862975
-9.090047836 10.27458096 2.331602812
-9.126653671 10.38163185 2.734863043
-9.267019272 10.66572571 3.187853098
-20.49795723 29.81508446 8.491544724
-20.62021637 30.31984711 11.13130188
-6.02152586 5.047090054 0.4562856257
-6.010465145 5.048644543 0.6280869246
-5.982635975 5.020590305 0.8005796671
-5.989161968 5.051089764 0.9677571058
-9.450654984 10.87098885 1.18744278
-9.227962494 10.49409389 1.575058103
-9.324227333 10.702034 1.9835186
-9.051286697 10.28398323 2.328352213
-9.105640411 10.42195988 2.736450434
-20.4798336 30.01732063 8.521792412
-20.61555099 30.55076981 11.18295574
-6.003975868 5.050634861 0.4562311471
-5.985738277 5.040210247 0.6291831732
-5.96825552 5.029159546 0.7997409701
-5.963433743 5.0408144 0.9675171375
-9.666523933 11.31503201 1.189033151
-9.131361008 10.40749741 1.567860723
-9.285992622 10.71557331 1.980908275
-9.028625488 10.32065392 2.328679562
-9.058475494 10.41783905 2.730417252
-9.271016121 10.83065319 3.210260391
-8.99473381 10.39879417 3.514230967
-20.61425972 30.79035759 11.23735428
-5.982358456 5.047303677 0.4572318494
-5.964156151 5.036786556 0.6297015548
-5.947736263 5.027377129 0.7996505499
-5.9439044 5.040740013 0.9669514298
-9.354676247 10.8674221 1.18300879
-9.115407944 10.45644474 1.567359447
-9.042386055 10.37780762 1.946918249
-8.973778725 10.30231667 2.321853638
-9.029261589 10.44431782 2.729651928
-9.233454704 10.84600353 3.207159281
-8.983016968 10.45562935 3.521747828
-20.57549477 30.81097984 9.939249039
-20.61624718 31.03866005 11.29449177
-5.975977898 5.069441795 0.4542761147
-5.940602303 5.02983427 0.6306129694
-5.92624712 5.023781776 0.7996881008
-5.924405575 5.040580273 0.9663878083
-9.293401718 10.83858013 1.583036423
-8.991321564 10.36618328 1.942229509
-8.940992355 10.32157421 2.319942951
-9.007817268 10.48443413 2.731216192
-9.138242722 10.76045513 3.182774544
-8.953579903 10.48194218 3.521522999
-20.54668236 31.00521088 9.972425461
-20.60542488 31.26729965 11.3447752
-5.965447426 5.084751606 0.452370733
-5.924174786 5.034790516 0.6301633716
-5.904094219 5.020503044 0.799687326
-5.907950401 5.045521259 0.9656582475
-9.298747063 10.92800045 1.584358692
-8.916535378 10.31283474 1.933875084
-8.894309998 10.31657124 2.31491375
-8.901895523 10.37668514 2.707689762
-9.098049164 10.77018356 3.178609848
-8.876971245 10.42481136 3.500286341
-20.5556221 31.26886749 10.02589321
-20.60070801 31.50964355 11.39948845
-5.95210743 5.097037315 0.4509478807
-5.910743237 5.04484272 0.6291273832
-5.882715702 5.016705513 0.7997319102
-5.88577652 5.042150974 0.9651684165
-9.280985832 10.9819212 1.177331924
-8.918309212 10.39243412 1.93730998
-8.882410049 10.37624836 2.31801486
-8.895150185 10.44227219 2.713629961
-9.059788704 10.78318024 3.17516613
-8.870738983 10.49605656 3.511106253
-20.54441833 31.51233864 10.07201195
-20.57870674 31.72381401 11.44454193
-5.932485104 5.09685564 0.4514200985
-5.884613514 5.034574509 0.6303970814
-5.867630005 5.025335789 0.7988536358
-5.862398624 5.034792423 0.9648377299
-9.151885033 10.83735371 1.573883176
-8.830508232 10.31865025 1.927056551
-8.868881226 10.42982101 2.320527077
-8.881505013 10.50025463 2.71799612
-8.951743126 10.67501545 3.146085739
-9.185278893 11.14207649 3.666231871
-20.52017212 31.72256088 10.10943127
-20.58882904 32.01193619 11.51285362
-5.902284622 5.079816341 0.4545059204
-5.861287117 5.027220726 0.6313228011
-5.850271702 5.028300285 0.7983959913
-5.841336727 5.032944679 0.9642987251
-9.044745445 10.73207474 1.171029091
-9.357779503 11.28349304 1.592073202
-8.818161011 10.37385082 1.928337693
-8.8058815 10.39932823 2.3120749
-9.008612633 10.80808544 2.764569998
-8.908147812 10.67713928 3.140509844
-9.172288895 11.20784187 3.675168991
-20.52835274 32.00743484 10.16727352
-20.58510399 32.26546478 11.57068729
-5.856276035 5.032932281 0.4621614516
-5.84125042 5.027082443 0.6314255595
-5.83193922 5.029455662 0.7980660796
-5.823978424 5.035824299 0.9636321664
-9.021416664 10.7750082 1.169092536
-9.221226692 11.12881184 1.581567407
-8.803834915 10.4300108 1.929504275
-8.75445652 10.38496113 2.305947304
-9.041115761 10.95329571 2.783352852
-8.985883713 10.90430164 3.181500673
-9.139173508 11.2331934 3.674360752
-20.52535439 32.26250076 10.21740627
-20.57979012 32.53258133 11.63148594
-5.834042549 5.027191639 0.4634512663
-5.820989609 5.024718761 0.6317691207
-5.806798935 5.018343449 0.7986297011
-5.807601929 5.040379524 0.9629086256
-20.06759834 30.77500916 1.302571893
-8.722174644 10.31350327 1.54041338
-8.711813927 10.34209728 1.918340683
-8.702241898 10.36860752 2.299609423
-9.054476738 11.06142998 2.796096087
-8.998952866 11.01192093 3.197761059
-20.47130775 32.25885773 8.891085625
-20.49507332 32.47016525 10.25359821
-20.570158 32.7817955 11.68745232
-5.808968067 5.016160965 0.4655447006
-5.807563305 5.034430027 0.6307348013
-5.786611557 5.01583147 0.7985607982
-5.78541851 5.034373283 0.9625341296
-9.021848679 10.93945217 1.16591084
-8.67296505 10.30196667 1.537120342
-8.674098015 10.35161495 1.915671229
-8.598845482 10.25774574 2.281382561
-8.688186646 10.5205307 3.090030432
-8.992238045 11.13379288 3.635615587
-20.50097084 32.7481041 10.30999184
-20.57610703 33.06355667 11.75400162
-5.789780617 5.015398979 0.4660435915
-5.788314342 5.033649445 0.6308841705
-5.773212433 5.025465012 0.7975978851
-5.763305187 5.028262138 0.9621639848
-20.04572296 31.23221016 1.292618632
-8.610499382 10.26564312 1.532701731
-8.68585968 10.45212555 1.920834064
-8.652215004 10.43483639 2.29950738
-8.710330963 10.64305115 3.109555006
-8.926280975 11.09644032 3.619476795
-20.49064064 32.99908447 10.35838127
-20.570467 33.32708359 11.8142786
-5.769668579 5.012818813 0.466811806
-5.759519577 5.015339851 0.6330152154
-5.753073692 5.0227952 0.7975323796
-5.740307331 5.020292282 0.9618570805
-8.588294983 10.30281448 1.531691194
-8.650892258 10.51254177 2.305043936
-8.902381897 11.0343647 2.775757313
-8.731683731 10.76585102 3.129034042
-8.846971512 11.03282452 3.596969843
-20.47877693 33.25039291 10.40668297
-20.56676483 33.59779739 11.87670803
-5.755311966 5.020580769 0.4659778774
-5.745156288 5.023099422 0.6321809292
-5.738686562 5.030563831 0.7966967225
-5.728777885 5.033327103 0.9608443975
-8.933601379 11.02839661 1.1599828
-8.568728447 10.34522724 1.530910611
-8.557677269 10.41831875 2.289061546
-8.587741852 10.52505016 2.686602116
-8.702791214 10.79486942 3.129179955
-8.724687576 10.88565731 3.554067373
-20.49310303 33.55532455 10.470191
-20.5587368 33.86377716 11.93735886
-5.734309673 5.016099453 0.4670177996
-5.725810528 5.019917488 0.6325790882
-5.711989403 5.015427589 0.797539413
-5.712471485 5.037516594 0.9601262212
-8.541418076 10.37350273 1.529477477
-8.677023888 10.67460346 1.929473281
-8.577311516 10.53636932 2.299614429
-8.508249283 10.45538425 2.670250416
-8.720992088 10.91012764 3.147261381
-8.719586372 10.96152973 3.566077709
-20.51125908 33.85771942 10.5339241
-20.55397987 34.12534332 11.99769402
-5.71126318 5.005907536 0.4689074755
-5.714031696 5.030685902 0.631388247
-5.692712784 5.012106419 0.7975247502
-5.694074154 5.035963058 0.9596299529
-8.493237495 10.35841179 1.526221752
-8.63907814 10.68124962 1.926698089
-8.557365417 10.57625294 2.300603628
-8.612638474 10.73385429 2.711285353
-8.743913651 11.03610802 3.167441368
-8.652298927 10.91317558 3.547999859
-20.51700211 34.13990784 10.59164238
-20.53723145 34.36672211 12.05122089
-5.693912506 5.00609827 0.4691915512
-5.694944859 5.029500008 0.6315482855
-5.675564766 5.014371395 0.7970818281
-5.671268463 5.027634144 0.9593352675
-8.518356323 10.48571396 1.150857091
-8.447992325 10.34841537 1.523213625
-8.596674919 10.68334198 1.923378825
-8.437474251 10.42373085 2.277789831
-8.461235046 10.5205822 2.671746969
-8.630443573 10.90237713 3.134405136
-8.641384125 10.97855473 3.557436705
-20.4845314 34.36507416 10.63169384
-20.55041504 34.68515778 12.12839222
-5.675151348 5.006964207 0.4693941772
-5.66404295 5.007478714 0.6340655684
-5.657710075 5.016940594 0.7965981364
-5.657995224 5.039068222 0.9583367705
-8.424293518 10.39041042 1.148242831
-8.450214386 10.43749619 1.524362922
-8.55444622 10.68969059 1.920261025
-8.373533249 10.38538837 2.268794298
-8.671914101 11.02015114 2.748059988
-8.633966446 11.00045109 3.148292065
-20.42536926 34.3820076 9.241205215
-20.48664474 34.67660141 10.69494343
-20.54362869 34.9831543 12.19727325
-5.660098076 5.014767647 0.4685211778
-5.647147655 5.01174736 0.6335927844
-5.642424107 5.022605419 0.7958956361
-5.639882565 5.039433956 0.9577434659
-8.391360283 10.4119339 1.146244407
-8.411628723 10.44852448 1.522022963
-8.373989105 10.47249508 2.275263548
-8.636660576 11.0428791 2.746485233
-8.623559952 11.07232189 3.156810999
-8.543045998 10.96358585 3.540543556
-20.47633743 34.96780396 10.75217819
-20.47352028 35.15768814 12.22580814
-5.641160488 5.01335907 0.4690366387
-5.627308369 5.00851202 0.6339636445
-5.62179327 5.039722919 0.9571518302
-8.344733238 10.39979553 1.517199278
-8.316566467 10.39503002 1.888716698
-8.297609329 10.40445709 2.262904882
-8.558671951 10.97612667 2.73069334
-20.3442955 34.63594818 7.902317047
-8.526237488 11.0183382 3.547402382
-20.47097778 35.25808716 10.81014347
-5.617713451 5.003064156 0.4709044993
-5.61024332 5.010499954 0.6337350607
-5.595468998 5.001776218 0.7968534231
-5.600106239 5.032806873 0.9568088651
-8.449444771 10.69213486 1.143488765
-8.310700417 10.4149189 1.515201092
-8.339912415 10.52417278 1.896083593
-8.289383888 10.47113132 2.267054796
-8.505908012 10.95857143 2.722939253
-8.515918732 11.03449917 3.137799501
-8.491840363 11.03802299 3.545781851
-20.46976852 35.56095886 10.87144184
-5.602488995 5.008532047 0.4703451395
-5.594995499 5.015964985 0.6331050992
-5.580255032 5.0072155 0.7961559296
-5.576693535 5.022220135 0.9565945864
-8.325690269 10.53052711 1.140753388
-8.264978409 10.40669537 1.512193799
-8.266306877 10.46080971 1.887522578
-8.30195713 10.58061218 2.276376486
-8.509379387 11.05438328 2.733473063
-8.478862762 11.04878044 3.135044575
-8.434221268 11.01015949 3.532744408
-20.4658165 35.86251831 10.9321413
-20.52379227 36.18740082 12.47834206
-5.607428551 5.031193256 0.3009855449
-5.583665371 5.006877422 0.4708680511
-5.570770264 5.003610134 0.6344897747
-5.56055069 5.003680706 0.796118319
-5.559632778 5.024040222 0.9559491277
-8.290318489 10.54371166 1.138793468
-8.287846565 10.53607941 1.515130877
-8.233850479 10.47930431 1.885738134
-8.294527054 10.6510458 2.280904293
-8.42267704 10.96717548 2.714595318
-8.451237679 11.08239841 3.136181593
-8.35727787 10.9415369 3.510008335
-20.45493507 36.15400314 10.98979282
-20.51106262 36.47920227 12.54536343
-5.587669373 5.027804852 0.3021900058
-5.572001457 5.019302368 0.4692247808
-5.550217628 4.998254776 0.635073781
-5.544453144 5.007204533 0.7955541015
-5.544357777 5.029373646 0.9551789165
-8.248727798 10.54420757 1.136784315
-8.233929634 10.51155186 1.511419773
-8.1951828 10.48515034 1.882926226
-8.293631554 10.73584557 2.287133217
-8.371179581 10.95073795 2.707151175
-8.644786835 11.57523155 3.228902102
-8.389895439 11.09990215 3.54174304
-20.44640732 36.45460892 11.04979038
-20.50719833 36.79393387 12.61952305
