# .PCD v0.7 - Point Cloud Data file format
VERSION 0.7
FIELDS x y z
SIZE 4 4 4
TYPE F F F
COUNT 1 1 1
WIDTH 1268
HEIGHT 1
VIEWPOINT 0 0 0 1 0 0 0
POINTS 1268
DATA ascii
30.13370514 29.86092567 2.979046106
31.17022896 30.58122635 6.236270428
44.36982346 41.64201355 12.65716839
32.23225021 31.55618858 1.444870234
30.2992363 29.80949974 2.978051901
30.21144867 29.56851196 6.075309753
44.597435 41.56416702 12.67272568
32.5490036 31.58888245 1.440784693
32.99126816 31.88200951 3.115539312
32.69709015 31.53875732 4.756724358
45.50629807 42.01410675 12.84540939
31.29318619 30.23262978 3.010879993
30.34404945 29.25922394 6.053534985
35.07644653 33.13697052 8.523251534
45.43450546 41.66655731 12.78688812
30.95399857 29.82963181 1.413798928
30.25437927 28.99534607 6.022042751
35.10014725 32.9304924 8.50062561
31.08072853 29.73120689 1.408918977
31.89629173 30.32224655 3.022229671
30.71952057 29.26822662 4.512399673
30.41636848 28.93167496 6.026427269
35.1051178 32.72082138 8.476000786
33.14828491 31.23918915 1.421061754
32.25852585 30.42407227 3.031610966
31.15992928 29.43081284 4.541328907
30.54451942 28.83947563 6.025927544
35.07787323 32.47473145 8.444152832
33.22907639 31.09101868 1.415495157
31.36718941 29.39885139 4.546981335
31.43667984 29.36950302 6.135598183
35.17462158 32.31987 8.434813499
44.07422256 39.43184662 12.30531788
33.39294815 31.01094246 1.410666585
35.99621201 33.0392189 3.209363937
31.70249939 29.38357544 6.154542923
35.23759079 32.14904404 8.420547485
43.89481354 39.02954483 12.22689629
33.48933029 30.88616371 1.405599117
31.82133293 29.28772163 6.153324127
44.09749222 38.93588638 12.23850632
31.94484329 29.1852684 6.151872635
35.67570496 32.07939148 8.453714371
44.30666733 38.83307648 12.24978924
34.00109482 30.70301628 4.745532513
36.9475708 32.94856644 6.843298912
35.65672302 31.84348679 8.424420357
35.93235779 31.84018326 8.45032692
45.0588913 38.89953613 12.35171413
35.78128052 31.86920738 1.399551749
38.76456833 34.12265778 3.298199177
34.77087784 30.89417648 4.790132046
35.37654114 31.2890377 6.581346035
36.11252594 31.77163696 8.459668159
43.73644638 37.61528397 12.01095104
35.74723053 31.62123108 1.393056035
34.63386917 30.58423233 4.762460232
35.4475975 31.12761116 6.571162224
36.01725006 31.48904991 8.418010712
43.88577271 37.46938324 12.00953484
35.7877388 31.43277359 1.387181163
34.94287109 30.69889069 3.078591824
35.58726883 31.01944542 6.57071209
36.08586121 31.32361412 8.405700684
44.03776932 37.32528687 12.00886345
36.40376663 31.68911552 1.385476232
35.05913162 30.57485962 3.074017763
35.65087891 30.85268974 6.559711933
36.57541656 31.4798069 8.470978737
44.44929123 37.37833405 12.06767941
36.07103729 31.21302414 1.377004504
34.91457748 30.25140953 3.056206942
53.86489105 44.2293129 14.17916775
36.14412689 31.061306 1.371777654
34.9752121 30.0863266 3.048974037
36.09677124 30.84901237 4.841296196
54.04370499 44.05291367 14.17803669
36.08940506 30.80246735 1.365433097
53.02142334 42.99712753 13.90697765
36.08137512 30.58037186 1.359473109
36.45916367 30.69987297 4.846103191
37.39922714 31.31149101 6.723414898
53.38279343 42.96148682 13.94823551
36.38350296 30.59038162 1.35556519
36.24098206 30.39823914 3.08175993
36.5402832 30.5445385 4.83880806
46.02761841 37.35372925 10.05913734
53.3616333 42.62760544 13.90124989
36.73764801 30.63667679 1.351956487
36.43683243 30.32869911 3.081244469
37.5324173 31.04806709 4.915581226
36.91004562 30.55776405 1.347485662
37.55140305 30.85397148 4.903128624
44.51515961 35.7433548 9.730638504
44.83657455 35.88568115 11.91803074
37.74017715 30.95747757 1.346962094
37.65030289 30.71858788 4.898174763
44.63014221 35.5857811 9.724880219
44.07312012 35.09570694 11.71612358
37.84756851 30.82667923 1.342039108
38.37265015 30.9738884 1.338948965
45.30850601 35.46203613 11.92410278
38.40066528 30.7732563 1.333298564
45.14560699 35.20814514 9.735908508
45.27119827 35.1958313 11.88494301
46.72082138 36.05944061 9.987639427
43.5761261 33.88820267 3.355664015
52.17699432 39.47979736 13.33889961
42.52425385 33.00478363 1.337819934
52.34641266 39.32652283 13.34180069
42.8407402 32.99803162 1.333600283
52.46992111 39.14145279 13.33478069
44.26747894 33.74055099 1.334505081
53.20988083 38.79093933 13.38956928
51.98944855 37.43725586 13.0587225
45.66056824 33.46408463 1.310314894
44.93757629 32.90658951 3.333706856
52.25469589 37.33640671 13.08218956
45.43286514 32.89912796 5.390068531
52.32831573 37.10993576 13.06460762
49.17729568 34.90597153 10.12289524
52.57980728 36.9984436 13.08528137
45.70623016 32.75928879 1.292476535
45.40378952 32.4864502 3.323408365
52.79800034 36.86444855 13.09889698
46.00205231 32.70656204 1.287715912
52.83638382 36.61554718 13.07436562
53.9667511 37.05448532 13.28159332
49.00241089 33.78517532 9.992110252
49.80786896 33.6490097 1.266522169
51.04797745 34.05000305 10.23915291
49.81355286 33.40988159 1.260916352
49.85452652 32.90161514 1.248806715
49.61167908 32.50481415 1.242429137
50.10728836 32.54729462 1.238067865
50.17238998 32.33401871 1.232601523
52.83602142 33.81591797 3.516792059
55.54848862 35.12704086 10.83575153
50.22083664 32.12399673 1.227421761
50.37091446 31.96057892 1.22224474
50.87107468 31.77108765 1.212940097
56.38068771 34.71218109 6.030999184
50.96090317 31.57162094 1.207712889
50.4214325 31.02076721 1.201345682
50.78150558 30.98655701 1.197009325
51.08583069 30.90704536 1.192305326
51.24809265 30.76063919 1.187634826
52.31409454 31.1027317 1.184354544
53.82884216 31.66461563 1.181312919
52.28067398 30.51519012 3.378653765
52.96007156 30.6245842 3.397184372
53.87631989 30.93448639 1.165995121
60.49873734 34.2323761 6.217645645
52.8483429 30.07929993 3.374978542
60.6742897 33.59274673 11.28148842
52.24875259 29.27867699 3.333239555
52.32363892 29.06052589 3.32717967
54.2555542 29.7834816 3.395431042
56.54646301 30.25541115 1.128604889
59.53242874 30.1250782 1.100849748
59.69790268 29.9479599 1.096337914
60.41032791 30.00604248 1.091550469
65.15769958 31.57213402 11.65045643
68.92401123 28.61527443 1.005819082
71.38213348 28.11394882 0.9822454453
71.63367462 27.92405891 0.9780145288
71.74437714 27.66802979 0.9738513827
71.9164505 27.43347931 0.9696309566
73.11103821 26.09574699 0.9452415705
60.69704056 21.48944283 12.84852123
74.68132019 25.72431374 0.9314772487
60.0280838 20.57569695 12.6806097
60.41326904 19.74386597 12.69143009
61.12868118 16.38472366 3.231636286
62.78329468 16.33950996 0.9026856422
62.64174652 16.06368828 0.9012584686
62.61616135 15.81543064 0.8995331526
60.00979233 15.03900528 12.37317467
62.72632599 15.59786987 0.8974400759
62.99209595 15.41384602 0.8949069381
63.20794678 15.22971249 0.892644465
63.79756927 15.11113167 0.8891617656
59.70445633 13.63733292 12.26090908
66.25335693 10.32581329 13.26012039
26.97061157 4.161747456 7.500665665
26.95624352 4.118284702 0.9917250872
26.96263885 4.106416702 2.061223984
26.94321632 4.097218513 3.131751299
26.96824646 4.087363243 4.210306168
26.91538048 4.074717522 5.287569523
26.89979362 4.060680866 6.377772808
26.9018631 4.04850769 7.483720303
26.9746933 4.018221378 0.9915335774
26.96710968 4.00510788 2.060874701
26.96010399 3.992105484 3.131981373
27.03006363 3.992254734 4.215401173
52.3365097 -2.959671736 0.9330586791
76.77453613 -17.82081795 3.896792889
68.73873901 -23.40921021 3.826868773
69.08925629 -23.79450607 3.848720789
4.394920826 -91.35017395 5.905443668
3.083828926 -86.81617737 5.717051506
-8.51764679 -114.5692444 7.932685375
-8.926293373 -114.6813431 7.96288538
-5.064978123 -25.61158562 1.762771368
-5.148774624 -25.46815109 1.764436126
-5.126387119 -25.79026413 2.706752062
-5.009743214 -24.61988449 3.532831192
-5.229863167 -25.29852295 1.765385509
-5.21450758 -25.78044891 2.711420059
-5.102940083 -24.68155479 3.544227839
-5.0886693 -25.12387466 4.507134438
-5.021395683 -24.78160286 5.378694534
-5.345374107 -25.70739746 1.780817747
-5.295730591 -25.66876411 2.709930182
-5.201291561 -24.88226318 3.568715572
-5.17487669 -25.11783981 4.511921406
-5.120897293 -25.00600243 5.421851635
-5.059333801 -19.46956825 0.9152530432
-5.428981304 -25.6391983 1.784115553
-5.3828125 -25.58436775 2.710349321
-5.281867504 -24.80651855 3.566785812
-5.213499069 -24.40915298 4.424446583
-5.221504211 -25.15486526 5.452847004
-5.091047287 -18.97363472 0.9235461354
-5.534379005 -25.80163383 1.793650985
-5.469181538 -25.49770164 2.710614204
-5.376404762 -24.80527687 3.572582006
-5.302301884 -24.41028976 4.430384636
-5.294294834 -24.88808823 5.414429188
-5.103178501 -18.28441048 0.9333276153
-5.620954037 -25.65435791 1.795419812
-5.571460247 -25.62171936 2.723762274
-5.511267185 -25.38963699 3.63458395
-5.408592224 -24.58476257 4.459507942
-5.392844677 -24.9988842 5.43919611
-5.179400921 -18.38632584 0.9361216426
-5.718149662 -25.75863838 1.803240061
-5.672355175 -25.71748161 2.735247135
-5.548287868 -24.69932175 3.573702097
-5.498116493 -24.64291954 4.472805023
-5.497312069 -25.17616463 5.475226402
-5.21322155 -18.01191139 0.9429088235
-5.838181496 -26.06332397 1.816705346
-5.626792431 -24.61655617 3.571103334
-5.587976933 -24.64502525 4.479050636
-5.601166248 -25.32942772 5.507360935
-5.026554585 -15.05233097 0.4112493694
-5.321088791 -18.45186996 0.9429420829
-5.967538357 -26.44713593 1.832420945
-5.843064785 -25.53403091 2.735201836
-5.722630501 -24.6878376 3.583735228
-5.680067539 -24.6724968 4.48870039
-5.677186966 -25.1363163 5.481339931
-5.076021194 -14.98540688 0.4169803858
-5.431857109 -18.88931084 0.943161726
-6.130763054 -27.1627903 1.85725534
-5.814704418 -24.71117401 3.591766119
-5.768884182 -24.66013336 4.493118763
-5.754961014 -24.97838402 5.461204529
-5.134743214 -14.98563576 0.419944793
-5.58292675 -19.69432068 0.9407031536
-6.334631443 -28.24375725 1.892321229
-5.908443928 -24.70202446 3.596960783
-5.849249363 -24.55664253 4.485453606
-5.903244972 -25.60987282 5.574282169
-5.194532871 -15.02170086 0.4212319255
-5.473147869 -17.95248985 0.9577640295
-6.454722881 -28.36629868 1.901880622
-6.022242069 -24.94459915 3.62650156
-5.949268341 -24.61823273 4.50008297
-5.970544338 -25.33341789 5.534264088
-5.250933647 -15.04989433 0.4227162302
-5.354053497 -16.2375412 0.9739630222
-6.460364342 -27.48128128 1.88310647
-6.116148949 -24.97278786 3.635178804
-6.066313744 -24.9368515 4.548475266
-6.058372498 -25.28649139 5.533016682
-5.307848454 -15.05574036 0.425288856
-5.756187916 -19.3280468 0.9548889399
-6.714446545 -28.90974426 1.928583741
-6.165634632 -24.61705971 3.605898857
-6.15498209 -24.91327477 4.551617622
-6.137779713 -25.20445824 5.525511742
-5.370850563 -15.13712215 0.4245339036
-5.688808918 -18.12202263 0.9671567678
-6.742454052 -28.2629509 1.916251063
-6.271261692 -24.76148415 3.626017809
-6.243196487 -24.92933273 4.559782505
-6.221838951 -25.12755585 5.519227505
-5.432146072 -15.15212917 0.4268652201
-5.786714554 -18.35223198 0.9693912268
-6.975590229 -29.35104752 1.953190327
-6.35388422 -24.68985367 3.624917746
-6.323018074 -24.78441429 4.547031403
-6.239003658 -24.39503479 5.401801586
-5.494699955 -15.19897175 0.4277228117
-5.84796524 -18.29652786 0.97341609
-6.988371372 -28.55636597 1.936801314
-6.43807888 -24.63575935 3.625550508
-6.418380737 -24.82496262 4.558871746
-6.435463905 -25.35260773 5.571578503
-5.556340218 -15.23566341 0.4290109873
-5.930331707 -18.41128159 0.9763271213
-7.18347311 -29.30194092 1.964169741
-6.541855335 -24.74939346 3.642818213
-6.548831463 -25.16245842 4.610776424
-6.531984329 -25.38444138 5.583993912
-5.621086597 -15.27175808 0.4304700196
-5.968110085 -18.17462158 0.9814651012
-7.282506943 -29.23916245 1.968561172
-17.12384605 -109.0496979 8.140163422
-6.661598206 -24.94896126 3.669018984
-6.613374233 -24.93253708 4.58631897
-6.633407593 -25.45508194 5.603112698
-5.671820164 -15.22280788 0.4352986515
-6.144469261 -18.99264145 0.9801580906
-7.402771473 -29.30226135 1.976902366
-6.712929249 -24.62922859 3.64331007
-6.68887043 -24.76682472 4.570798397
-6.731050968 -25.49009514 5.616230488
-6.662796021 -25.28600502 6.532767296
-5.714797974 -15.14042568 0.4413364828
-6.238127232 -19.16166687 0.9829479456
-7.480170727 -29.11857414 1.977447033
-6.8065238 -24.65290833 3.651776552
-6.935965061 -26.02567673 4.747566223
-6.901446819 -26.0998745 5.727944851
-5.803183079 -15.36225891 0.4350385368
-6.280010223 -18.95198059 0.9879385829
-7.664058685 -29.68672943 2.000370026
-18.28624725 -108.9960175 8.210067749
-6.89559269 -24.67488861 3.659808397
-6.975198746 -25.59618187 4.696203709
-5.86899662 -15.39736176 0.4365531504
-6.373916626 -19.11442566 0.990819633
-7.761513233 -29.6065197 2.004320383
-7.019608974 -24.88459206 3.687337637
-7.054084301 -25.4830265 4.687683582
-5.913994312 -15.3100729 0.4428928494
-6.462291241 -19.20668221 0.9943214655
-7.885346413 -29.67562675 2.013025999
-7.103699207 -24.83027649 3.688138247
-7.160169125 -25.53782654 4.70237875
-5.976787567 -15.34317493 0.4443352222
-6.487294197 -18.89764023 0.9997016788
-8.004680634 -29.74700546 2.021524668
-7.182632446 -24.74220085 3.685541153
-7.267950535 -25.63409424 4.72246933
-6.034919262 -15.34444332 0.4470614195
-6.591071606 -19.11245346 1.002409101
-8.095116615 -29.62220955 2.024127483
-21.2759552 -118.4355392 8.929774284
-7.365589619 -25.65540123 4.732403278
-6.091191769 -15.3336668 0.4502623081
-6.820630074 -20.11301613 1.001515269
-8.235880852 -29.82909203 2.036802292
-6.903420925 -20.16056633 1.00528729
-8.375962257 -30.02153397 2.049133778
-6.214456558 -15.37656879 0.4540731311
-8.469400406 -29.91535568 2.052331686
-6.276197433 -15.39668751 0.4560313821
-7.024508476 -19.98451233 1.014001131
-8.569311142 -29.85229683 2.056840897
-6.334334373 -15.39491272 0.4588499665
-6.987548828 -19.33550835 1.020511508
-8.651895523 -29.6883831 2.058177471
-6.399479389 -15.43228626 0.4601270258
-7.163935661 -19.94631958 1.021869063
-8.771355629 -29.74491882 2.066411257
-6.465277672 -15.48761177 0.4605721831
-7.220938683 -19.86715508 1.025908232
-8.877648354 -29.75468445 2.072875023
-6.530702591 -15.52250385 0.4619593322
-8.982640266 -29.75620842 2.079092026
-6.60187149 -15.57035637 0.4629874229
-7.351977348 -19.74766541 1.034365654
-9.119215965 -29.86945915 2.089567661
-6.667153835 -15.60078716 0.4645575881
-7.272305012 -18.91808701 1.04095161
-9.233632088 -29.85831261 2.096082687
-6.704308987 -15.48581409 0.47170645
-7.454841614 -19.48992348 1.043118596
-9.347521782 -29.87330055 2.103132248
-6.779343605 -15.56483459 0.4714035988
-7.54293251 -19.56236076 1.046801209
-9.451719284 -29.83683395 2.108516455
-6.848222256 -15.6102314 0.4723984301
-7.777945042 -20.36184311 1.048760653
-9.57043457 -29.87454033 2.116350174
-6.887515545 -15.52478981 0.4782177806
-7.677540779 -19.53123665 1.054255009
-9.699561119 -30.01784515 2.127060175
-6.97182703 -15.62781143 0.4771704376
-7.748206615 -19.49624252 1.058402658
-9.842297554 -30.1396656 2.13812542
-7.013114452 -15.5395031 0.4831939936
-7.825894833 -19.51262474 1.062248707
-10.26664925 -31.60920906 2.194643021
-7.05309248 -15.46148968 0.488663286
-7.900377274 -19.51307297 1.066128731
-10.40736198 -31.74287224 2.205854654
-7.124310493 -15.51352882 0.4893972278
-7.972224236 -19.51793289 1.069810152
-10.57579136 -31.97241783 2.220762968
-7.172061443 -15.47229862 0.4934626818
-8.599370956 -21.9990654 1.070498228
-10.73328972 -32.17121506 2.234372854
-7.259302616 -15.59203148 0.4917054176
-8.69284153 -22.04162788 1.074810505
-10.87064362 -32.24509811 2.244132757
-7.30411768 -15.52442741 0.4968593121
-8.79114151 -22.10330963 1.079122782
-11.02448273 -32.38860703 2.256362915
-7.35675478 -15.49172878 0.5007091165
-8.487623215 -20.44296646 1.084696174
-11.14942932 -32.40090942 2.264088631
-7.424604416 -15.51067543 0.5027937889
-9.005859375 -22.29549789 1.087788701
-11.29498005 -32.50034714 2.274902582
-7.498278618 -15.56499386 0.5034646988
-9.098389626 -22.32477379 1.092202663
-11.44854069 -32.60361099 2.286284447
-5.329500675 -6.425378799 0.3061290085
-7.550369263 -15.5420723 0.5068007112
-9.179294586 -22.30512619 1.096636653
-11.58330917 -32.67598724 2.295893669
-7.618311882 -15.57063198 0.5084066391
-9.066275597 -21.50491142 1.101029634
-11.67655754 -32.5503006 2.298824549
-6.337366581 -10.21168995 0.3014193177
-7.708124161 -15.68416309 0.5069765449
-9.287605286 -22.05358887 1.105439901
-11.75364304 -32.36228943 2.299473524
-7.777347565 -15.71403122 0.508554697
-9.35219574 -21.9732132 1.10979259
-19.92323494 -64.31214142 3.466139078
-7.817887306 -15.62103367 0.5146216154
-9.383645058 -21.76683235 1.114039779
-20.14205551 -64.22112274 3.477378845
-7.892337322 -15.66975689 0.5155221224
-9.593486786 -22.24324417 1.118764639
-20.37926865 -64.15544128 3.490275621
-8.016658783 -15.91390514 0.5094367266
-9.679767609 -22.24312019 1.123195887
-8.08835125 -15.94639301 0.5109539032
-9.479705811 -21.18476677 1.126368284
-8.150217056 -15.94197559 0.5137599111
-9.882230759 -22.34990883 1.132218361
-21.02643204 -63.89989471 3.523933172
-8.17063427 -15.78911018 0.5217027664
-9.97180748 -22.35834312 1.136694789
-21.2617321 -63.8726387 3.537583351
-8.225485802 -15.7613039 0.5252771974
-10.0631485 -22.37220955 1.141187549
-8.30229187 -15.81016159 0.5262050033
-10.13597012 -22.32034683 1.145559788
-12.98852921 -32.7794075 2.382775545
-8.420841217 -16.00071335 0.5222984552
-10.22575378 -22.32780457 1.150043607
-13.11903095 -32.79201126 2.39095211
-8.524522781 -16.12458229 0.5208473206
-10.32186127 -22.35603142 1.154582858
-13.26840878 -32.8465538 2.401162386
-8.533941269 -15.95090294 0.5292421579
-10.40686607 -22.34552383 1.159039378
-8.614037514 -16.00416374 0.5300574899
-10.50628853 -22.38258171 1.163625956
-8.666493416 -15.95486927 0.5344566107
-10.63227558 -22.5053196 1.168480992
-8.723999023 -15.93305206 0.5377849936
-10.75445461 -22.59753227 1.173520088
-8.780833244 -15.90913105 0.541171968
-10.89955616 -22.77443695 1.178655267
-8.805449486 -15.7840538 0.5478929877
-11.00555611 -22.82285118 1.183411837
-8.848250389 -15.71799564 0.552626431
-11.10160351 -22.83843613 1.188069701
-8.906131744 -15.69936085 0.5557794571
-11.14626312 -22.70847702 1.191941023
-8.679641724 -14.82705116 0.5866587758
-11.25341797 -22.75768471 1.196730494
-9.140129089 -16.026577 0.5500839353
-11.38806629 -22.88806152 1.201891422
-9.238036156 -16.12247658 0.5495560169
-11.50909901 -22.97417259 1.206910849
-9.270220757 -16.02301598 0.5553391576
-11.65973663 -23.14495659 1.212364316
-9.439697266 -16.31370354 0.5487194657
-11.74672985 -23.12580681 1.216965556
-9.488446236 -16.26091957 0.5530018806
-11.85403538 -23.16491127 1.221860886
-9.535912514 -16.21470451 0.5569256544
-11.94778919 -23.16393471 1.226565957
-9.143019676 -14.91603661 0.6006325483
-12.05502987 -23.20028496 1.231481075
-9.717333794 -16.3263607 0.5588194132
-12.1627655 -23.22337723 1.236578107
-9.771147728 -16.28779602 0.562605381
-12.29196358 -23.30427361 1.242031455
-9.856604576 -16.33533859 0.5636960268
-12.40935326 -23.36357307 1.247154832
-9.931985855 -16.35439491 0.5656774044
-12.45416164 -23.23828316 1.250914335
-9.996825218 -16.35368156 0.5681407452
-12.50947952 -23.14292717 1.254826427
-10.12284088 -16.51342964 0.5656752586
-12.53451729 -22.96891212 1.258187175
-10.18834209 -16.51203156 0.5681726336
-12.60636425 -22.92015648 1.262343168
-10.28776932 -16.56159973 0.5696323514
-12.72340679 -22.93938828 1.267908573
-10.3236208 -16.48329926 0.5744506717
-12.81684208 -22.94594765 1.272452712
-10.39144897 -16.48672676 0.5767837167
-12.83821964 -22.75703239 1.275791407
-10.47130489 -16.51096535 0.5786172748
-13.03173923 -23.0029583 1.282380223
-10.10392284 -15.4283762 0.6134359241
-13.37577915 -23.61699104 1.291956425
-10.77401161 -16.89767456 0.5723935962
-13.49433899 -23.66389275 1.297232985
-13.5023489 -23.44019127 1.300309062
-15.37952614 -28.54953575 4.67600441
-10.268116 -15.34395218 0.6230866909
-13.92212582 -24.21236038 1.311699033
-15.77267551 -29.09928513 3.614850044
-15.40639496 -28.32137108 4.65891552
-10.93178082 -16.76327515 0.58399266
-14.02892017 -24.22195244 1.316826701
-15.86043453 -29.01530266 3.61709094
-15.48044205 -28.22599602 4.657412052
-10.61490726 -15.8467598 0.6132055521
-12.67750263 -20.78513527 1.291527271
-15.63073158 -28.30082512 4.677288532
-10.98207855 -16.53355598 0.5959023833
-14.24936199 -24.25452995 1.327241182
-16.18529892 -29.33704376 4.815416336
-11.02911568 -16.46764183 0.6004535556
-12.8575716 -20.77769089 1.300429225
-15.9380722 -28.31750107 3.586317539
-15.97409248 -28.5303421 4.727794647
-14.13662243 -23.49496078 1.330736279
-25.12812424 -49.20150757 3.471965313
-16.06227112 -28.31158257 3.595532179
-16.02623367 -28.35405159 4.717571259
-10.72336292 -15.44933414 0.6344737411
-14.19097233 -23.38813782 1.334651232
-25.29701805 -49.11255646 3.480776072
-16.15292931 -28.24152946 3.598831892
-15.89474106 -27.76961136 4.656106472
-10.76726055 -15.39493656 0.6383737326
-13.16733551 -20.86680412 1.314493537
-15.75170135 -27.06310081 3.506290674
-15.9501152 -27.62356377 4.648808956
-10.98606873 -15.73734665 0.6309504509
-14.47670364 -23.5959549 1.346123099
-15.88133049 -27.10582542 3.518528223
-16.13184738 -27.77974319 4.678637505
-16.11262321 -27.84494781 5.798656464
-10.87995052 -15.35754776 0.643878758
-14.93288517 -24.3774929 1.359130025
-16.34230614 -27.77060127 2.486644745
-15.90088558 -26.88724709 3.508640051
-16.23403931 -27.75344658 4.685803413
-16.48405457 -28.42611694 5.906046391
-10.91907597 -15.29364395 0.6479967833
-15.03587151 -24.37018585 1.364219189
-16.43312263 -27.70536995 2.491056681
-16.12380219 -27.12332726 3.538217306
-16.37454987 -27.79883766 4.702566147
-16.49506569 -28.17570496 5.878026485
-11.00597668 -15.32636261 0.6495252848
-15.17827892 -24.44783974 1.370221615
-16.6314621 -27.87615967 2.507004023
-16.23380089 -27.10591316 3.54585743
-16.46879959 -27.7404232 4.706360817
-16.23201752 -27.32162857 5.75039959
-11.05683517 -15.28076363 0.6532216668
-15.29204655 -24.45021439 1.375708342
-16.7040844 -27.75685692 2.509194851
-16.34622765 -27.08036613 3.553284407
-16.4967289 -27.52398682 4.690776825
-16.29017639 -27.17491341 5.73960495
-11.07738209 -15.17845249 0.6583432555
-15.40496826 -24.46141052 1.381044984
-16.41603661 -26.97525597 3.553281546
-16.57240295 -27.4141674 4.688605785
-16.86483383 -28.15289497 5.915172577
-11.09452438 -15.07751369 0.6632804275
-15.57205868 -24.58598709 1.387677908
-16.52495956 -26.95487976 3.560744286
-16.68699265 -27.40195656 4.698268414
-16.91689301 -28.01252365 5.90455246
-11.40694523 -15.58646011 0.6517160535
-15.69430637 -24.62522697 1.393128276
-16.52786064 -26.72181702 3.5489223
-16.74096489 -27.27296066 4.6925354
-17.02184868 -27.97360611 5.911468983
-11.17418575 -14.96630096 0.6707211733
-15.797966 -24.6131382 1.398269892
-27.23777199 -48.80395126 3.597085714
-16.85196304 -27.15459633 3.596713543
-16.87657738 -27.30492973 4.707921028
-17.21627045 -28.13698959 5.951568127
-11.29096317 -15.05857658 0.6706025004
-15.90517616 -24.60783386 1.403498292
-17.04376793 -27.30328369 3.619470358
-16.9990921 -27.32074928 4.720762253
-11.39791393 -15.12868881 0.6711004376
-16.02487183 -24.61606216 1.40916574
-17.09039497 -27.13641739 3.614559889
-17.21980858 -27.51373672 4.757635117
-11.48664093 -15.16740036 0.672336638
-15.494277 -23.32125473 1.39852488
-17.34921837 -27.41789627 3.649476767
-17.43863487 -27.6983223 4.793668747
-11.51022911 -15.08195782 0.6767551303
-16.25964928 -24.65369034 1.420016885
-17.40501595 -27.29454041 3.647567034
-17.60428429 -27.79574394 4.817465305
-11.51175213 -14.94696236 0.682564795
-16.42331314 -24.75724602 1.426685095
-17.38956451 -27.01696777 3.632122993
-17.62162781 -27.59156799 4.802214622
-11.69598198 -15.1651926 0.6791908741
-16.42468643 -24.52787018 1.429366946
-17.48094559 -26.94405365 3.635660648
-17.69829559 -27.48387146 4.800631523
-11.91018963 -15.44418621 0.6741803885
-16.60435677 -24.64938927 1.436584473
-17.79811668 -27.31715965 3.679984331
-16.73927879 -24.69230652 1.442547917
-17.98078728 -27.43172264 3.700411081
-12.35398006 -16.0159874 0.6640273929
-16.52404404 -24.06261444 1.439397216
-18.06120491 -27.34514236 3.702440739
-12.47261715 -16.09827805 0.664285183
-16.60445786 -24.00461388 1.44388783
-17.09989548 -24.72892952 1.459335923
-12.40267944 -15.68490505 0.6795120239
-17.25329781 -24.8012104 1.465824723
-11.90170097 -14.62166309 0.7086313367
-17.3667984 -24.80827141 1.471141458
-12.10913181 -14.8799448 0.7042042017
-17.49454498 -24.82998085 1.47696507
-12.93025208 -16.24270821 0.6724048257
-17.61875343 -24.84410477 1.482699275
-13.28686714 -16.73794174 0.6626209617
-16.86162758 -23.26334381 1.464403152
-13.91351891 -17.71417618 0.6409913301
-17.85201836 -24.83149338 1.49388504
-14.13548946 -17.95652008 0.6376236081
-18.03278351 -24.94334602 1.501193047
-14.2070713 -17.92985344 0.6408788562
-18.17897034 -24.99163055 1.507563114
-13.53482342 -16.59838486 0.6758779883
-18.3028717 -24.99926376 1.513322949
-14.16718388 -17.55184364 0.6553103328
-19.11163139 -26.18362236 1.538434744
-14.02502441 -17.16048241 0.6672266722
-18.95876503 -25.70361328 1.536490798
-14.15171051 -17.23238945 0.6679952145
-18.75726128 -25.14735222 1.533085823
-14.31365585 -17.36213875 0.6674097776
-19.24144745 -25.76035309 1.549152493
-14.23170567 -17.08061028 0.6765426993
-19.38337517 -25.78772354 1.555511832
-14.4004755 -17.21966171 0.6757481098
-19.51641273 -25.79900169 1.561622143
-14.50709343 -17.25345993 0.6774382591
-19.564888 -25.66933823 1.565288186
-13.80391407 -15.96098804 0.709825635
-19.81659889 -25.87438011 1.574849486
-14.07968044 -16.27748299 0.7048443556
-19.86063766 -25.73716545 1.578376174
-14.11732006 -16.20491409 0.708843112
-20.4238739 -26.4399395 1.597134233
-14.22989178 -16.25263977 0.7100853324
-14.75880241 -16.95950508 0.6964434385
-19.10902596 -23.92726898 1.562644362
-14.14973927 -15.86364365 0.7234811187
-20.57717323 -26.05343246 1.608372927
-14.08806515 -15.63267517 0.7310221195
-20.63119316 -25.93129349 1.612170339
-14.82005024 -16.64079475 0.7108981013
-20.70438766 -25.82963943 1.616634488
-15.17763329 -17.05728149 0.7040884495
-20.91715431 -25.95396233 1.62518692
-14.47952843 -15.85579109 0.7328420281
-21.76222229 -27.04298973 1.652904987
-11.78697205 -11.61844826 0.3026826978
-15.21216011 -16.83876228 0.7136970162
-22.02887344 -27.23626328 1.663215995
-15.20079231 -16.68803406 0.719350338
-22.06492043 -27.07808876 1.666523337
-8.272661209 -6.180824757 0.3497804999
-16.37765121 -18.31158066 0.6868002415
-22.2234478 -27.10454178 1.673560858
-16.41207123 -18.21860313 0.6913725734
-22.00365829 -26.56798935 1.668972731
-15.24228859 -16.35664368 0.7334880233
-21.16494751 -25.12660408 1.645202756
-16.73836136 -18.410326 0.6924631596
-21.19345665 -24.97400093 1.648077846
-16.81921005 -18.38389969 0.695607543
-20.44740105 -23.69844627 1.626853585
-35.03295898 -45.2076683 4.03111887
-34.88158417 -45.10264969 5.97464323
-17.06562614 -18.58785439 0.6940726638
-20.57407951 -23.6982708 1.632665753
-35.00761414 -45.07606506 7.953386784
-17.2287178 -18.66913033 0.6951304078
-20.51268959 -23.41922188 1.632684708
-35.0780983 -44.93437958 9.933569908
-17.38565826 -18.73967552 0.6964288354
-20.6061821 -23.36323357 1.637529373
-17.58390999 -18.86633301 0.6965991259
-23.9332428 -27.85809517 1.744334459
-17.71701813 -18.9359436 0.6972972155
-21.20495796 -23.86247253 1.659865856
-26.1068573 -31.02629662 4.554251671
-17.74040985 -18.82311821 0.7022189498
-24.06682396 -27.65413857 1.752475262
-26.54197884 -31.40076256 4.609463692
-12.02850151 -10.79338264 0.3600220084
-18.10077286 -19.17451286 0.6978077888
-21.32782555 -23.6702652 1.667387962
-26.72190285 -31.41339874 4.625641346
-26.4994297 -31.19403839 5.99132061
-18.17057991 -19.11619377 0.7017749548
-21.48652267 -23.70795822 1.674237251
-26.76666641 -31.23799515 4.621324539
-26.81088257 -31.37734985 6.038630009
-12.84053135 -11.72136211 0.3018690348
-18.22716522 -19.04733086 0.7057985663
-25.10209656 -28.42851257 1.791905284
-27.05099678 -31.30340195 3.247946024
-26.74462891 -31.04940987 6.006846428
-18.3693924 -19.09383965 0.7075376511
-24.39635277 -27.26411819 1.77133441
-27.07428932 -31.10011101 3.245772839
-27.30723953 -31.49331474 4.68024683
-26.76205826 -30.8391819 5.992971897
-18.25554466 -18.79709435 0.7159794569
-25.45446014 -28.47556496 1.807437301
-26.96251297 -30.79142952 4.617597103
-26.75236893 -30.59409332 5.97359705
-18.40341949 -18.84360123 0.7178242803
-24.50560188 -27.00248337 1.778854132
-27.04547501 -30.67205811 4.619317055
-26.84976006 -30.48391533 5.975953579
-18.39709473 -18.69291115 0.7233399153
-24.62932587 -26.95396996 1.784928322
-28.07642555 -31.8032074 4.761804581
-27.22328949 -30.75396156 6.036693573
-12.96235561 -11.42264557 0.3219090402
-17.92627144 -17.93034172 0.7406200767
-24.78455353 -26.95630074 1.791925192
-27.34388351 -30.59850502 4.64206171
-27.08549309 -30.33017921 5.990214348
-13.0309 -11.42292118 0.3220702112
-18.76513672 -18.88219261 0.7250734568
-25.10714531 -27.1749649 1.80438149
-27.06947708 -30.01081276 4.59094429
-13.01763439 -11.32209778 0.3285891116
-18.8599987 -18.86950684 0.727799654
-25.17548752 -27.0715313 1.808462501
-27.13292694 -29.88138962 4.590589523
-19.0941658 -19.03440285 0.7271997929
-25.52753448 -27.32196617 1.821926951
-27.27910233 -29.84858704 4.601966858
-18.90859413 -18.65641785 0.7368535995
-25.37737083 -26.92892075 1.818925023
-27.52694511 -29.94554901 4.628264427
-19.44529915 -19.19323158 0.7295390964
-25.43948936 -26.80846596 1.822867036
-27.55075264 -29.75436783 4.62166357
-19.65382004 -19.31100273 0.7300359011
-27.25390816 -28.88596535 1.884679914
-28.13541031 -30.27449036 4.697050571
-13.5013504 -11.49246979 0.3184201419
-19.82424164 -19.37176323 0.7317314148
-27.41769791 -28.87766838 1.892110229
-19.88571739 -19.2964325 0.7358958721
-26.89757919 -28.01260757 1.876932383
-20.06481552 -19.37245178 0.7371962667
-27.98610306 -29.14279366 1.915092111
-9.587054253 -6.464649677 0.3003290296
-13.04908562 -10.67854118 0.3698987067
-19.20311737 -18.18861961 0.7607705593
-28.03484344 -28.98911285 1.918707371
-13.78754902 -11.48591328 0.3190056682
-19.40223885 -18.29399109 0.7614243031
-28.19494057 -28.97106171 1.926030636
-13.86909676 -11.49609947 0.3183629811
-20.35402107 -19.29201698 0.7466085553
-29.02562523 -29.75745773 1.955838442
-19.45788956 -18.08358002 0.7702541947
-29.66322708 -30.29023361 1.979364038
-19.65261459 -18.17315102 0.7713305354
-30.10341644 -30.59123421 1.99621284
-19.87599945 -18.30092812 0.7716503739
-30.71353531 -31.07516289 2.018943548
-19.91284943 -18.20890427 0.7757332325
-30.09872437 -30.13281631 2.000183582
-19.97411537 -18.14559555 0.779307425
-30.49417496 -30.37273598 2.015572548
-21.10436821 -19.30956841 0.7623594403
-31.59211731 -31.41609573 2.054873228
-20.70783806 -18.71595955 0.7748495936
-32.04173279 -31.7029686 2.072223663
-21.1137104 -19.0381279 0.7721227407
-32.06000137 -31.49510765 2.074890137
-19.88440895 -17.51689339 0.7995529175
-26.50961113 -25.01659584 1.88705492
-20.12598038 -17.65783882 0.7996852398
-26.58648872 -24.92117882 1.891296268
-32.39719772 -31.19414711 2.092452526
-14.81873703 -11.53324604 0.3146154583
-20.71484566 -18.0478344 0.7983368635
-27.61206627 -25.69249725 1.929752827
-9.778435707 -5.932559967 0.3427164555
-14.8997879 -11.53511143 0.3142592907
-21.14255905 -18.38321686 0.7955215573
-26.94420815 -24.77537918 1.90834713
-14.96066856 -11.51454163 0.3153020442
-21.21507835 -18.32755089 0.7989172339
-27.99985504 -25.7442379 1.946372986
-15.09716129 -11.57069969 0.3114595413
-21.29693604 -18.28188133 0.8021423221
-15.16922379 -11.56097984 0.3117752373
-22.06481361 -18.96328926 0.7942902446
-28.26683044 -25.66021156 1.95882678
-15.15911293 -11.46370411 0.3176121712
-33.70313263 -31.52638054 5.254850388
-15.16085148 -11.37968159 0.3225947618
-22.27433777 -18.90900803 0.8003075123
-33.95632553 -31.56970596 5.279963493
-15.19326687 -11.32409382 0.3257427514
-20.41157722 -16.81953621 0.8342370987
-35.08727264 -32.26002502 2.201426744
-34.76160431 -32.13123322 3.779795885
-34.07757568 -31.47122574 5.286948681
-22.68288803 -19.05272865 0.8034825325
-35.30907822 -32.47537231 3.822775841
-34.77490997 -31.97823906 5.372659206
-15.69826412 -11.67569733 0.3026812971
-22.25987434 -18.47716331 0.8145699501
-34.96495819 -31.66210556 2.201114178
-34.91944885 -31.82531548 3.785368204
-15.73223782 -11.62325287 0.305580169
-22.86058235 -18.95874214 0.8100727797
-35.04202271 -31.51476479 2.205707788
-34.4809494 -31.20492554 5.312963486
-10.47817516 -6.178774834 0.302005291
-22.81479073 -18.77417183 0.8153401017
-35.0848465 -31.33302498 2.209085226
-35.19143677 -31.65023994 3.80093646
-34.86468506 -31.37582207 5.355647564
-15.77703094 -11.4954071 0.312782675
-23.78026772 -19.6141758 0.805868566
-35.44556808 -31.47444344 2.223626137
-35.84423065 -32.08934402 3.852710724
-35.0160408 -31.30531883 5.366737366
-15.88081932 -11.51352501 0.3111450374
-23.50877762 -19.19901276 0.8144494891
-35.55821228 -31.3626976 2.229446173
-35.02206421 -31.02688026 3.779012203
-35.10578537 -31.171772 5.369510174
-10.5178299 -6.072172165 0.3096311688
-15.95797443 -11.50428963 0.3112233877
-24.21443176 -19.76338196 0.8091334701
-34.99524307 -30.77754784 3.773044825
-35.28335953 -31.12700844 5.384162426
-16.14821434 -11.60204029 0.3044449985
-22.89676857 -18.3146286 0.832039535
-36.19172668 -31.75199509 3.870800734
-35.24002457 -30.86030197 5.369094849
-25.05881119 -20.30067444 0.8072547317
-36.53465271 -31.65662193 2.269453049
-35.26161575 -30.66023445 5.362856865
-16.32802963 -11.6045351 0.303145051
-25.07103729 -20.16539001 0.8118784428
-35.39112854 -30.55690956 5.370702267
-25.19313622 -20.13746834 0.8150129914
-35.59735489 -30.53947067 5.389270306
-16.44151115 -11.53641701 0.3062266409
-25.08769226 -19.88977432 0.8210890293
-35.64257812 -30.36410141 5.386343002
-16.43849754 -11.44725704 0.3112717867
-25.10001945 -19.74987602 0.8258039951
-36.30986404 -30.79050064 5.466264248
-25.23566818 -19.73511505 0.8287016749
-36.49320984 -30.73409462 5.481190205
-15.56534576 -10.45467472 0.3734238446
-26.17329025 -20.47556114 0.8217661977
-16.53766441 -11.28447437 0.3196172416
-26.42284012 -20.56049156 0.823472023
-26.46526146 -20.45056915 0.8276861906
-16.9499073 -11.49557114 0.3045817018
-26.66590691 -20.48711777 0.830024004
-17.00775337 -11.46226692 0.3059254289
-26.85156059 -20.5157795 0.8323305249
-17.0463047 -11.41123962 0.3083875775
-27.03398895 -20.53262329 0.8349316716
-27.25912666 -20.57919502 0.8373156786
-27.44099426 -20.59249687 0.8399757147
-27.55531311 -20.53673553 0.8436074853
-27.70176888 -20.51642609 0.8466658592
-27.95128822 -20.59335518 0.8484415412
-16.7960453 -10.68643951 0.3498674035
-27.97481346 -20.46334648 0.8527744412
-27.9584446 -20.29936409 0.8574640751
-29.04020882 -21.08160973 0.8514115214
-29.11742973 -20.98545647 0.8555291891
-29.22251701 -20.92067528 0.8591321111
-43.1431694 -32.99460602 4.368441582
-29.37104416 -20.88441086 0.8625538349
-17.47035408 -10.7618866 0.3387667835
-29.37315369 -20.73258591 0.8670678139
-43.82706833 -33.08220673 4.417123795
-17.47859764 -10.68649197 0.3425774276
-29.4523201 -20.6532402 0.8706306219
-43.12816238 -32.26888657 4.356173992
-43.89980316 -32.96917725 6.273762703
-17.72100067 -10.80420208 0.3337314725
-29.69238472 -20.69884491 0.8730051517
-43.6427002 -32.46162796 4.39479351
-44.0084877 -32.81953049 6.27857399
-29.07480049 -20.03286934 0.8829166889
-43.25996017 -31.90927887 4.359787464
-44.06140518 -32.62387085 6.276305199
-11.48263264 -5.564743996 0.3152249157
-29.37575531 -20.12906075 0.8847087622
-43.15745163 -31.58076096 4.347655296
-43.12208176 -31.60313988 6.147257805
-17.87368393 -10.68039703 0.3382444382
-29.39596176 -19.99609756 0.8888443708
-43.29213333 -31.45935822 4.355154514
-43.41730118 -31.61217308 6.17614603
-31.56635094 -21.58641434 0.875762701
-43.18731308 -31.14428902 4.343089104
-43.61244583 -31.53822899 6.192286015
-30.70922089 -20.73674011 0.8872582316
-44.49131012 -31.75810814 2.608531237
-43.36731339 -31.06008339 4.35432291
-43.90071106 -31.53803825 6.220223427
-14.94358158 -8.121182442 0.5035259724
-32.28823853 -21.82908249 0.8795455694
-43.22166061 -30.70452499 4.338829517
-44.03010941 -31.39761925 6.227592945
-14.98124123 -8.086284637 0.50478369
-30.98529243 -20.64534569 0.8938996196
-43.28775787 -30.53063393 4.340812206
-44.66226578 -31.66637802 6.298917294
-31.32852936 -20.75827599 0.8957108855
-43.95619965 -30.82965469 4.391824245
-44.90391922 -31.62252808 6.320819855
-18.15453529 -10.40240955 0.3485678136
-31.42658806 -20.67101479 0.8995610476
-44.30281067 -30.87174606 4.416593075
-45.02965546 -31.4867897 6.328109264
-18.22556305 -10.37570858 0.3489293456
-31.48255539 -20.55897903 0.9034742117
-44.27672577 -30.61168671 4.410901546
-45.09130859 -31.2896862 6.32695055
-18.25362206 -10.31600094 0.3514677286
-44.48450851 -30.54409027 4.424384594
-18.20648193 -10.19964504 0.357776314
-31.92181396 -20.58298111 0.9090150595
-44.8352356 -30.58421707 4.449445248
-32.15273666 -20.60885429 0.9115304947
-19.4475441 -10.96309853 0.3035051823
-32.5418396 -20.74312973 0.9132658839
-19.00008774 -10.54669571 0.3298564851
-32.62727356 -20.64151001 0.9171900749
-34.01122665 -21.50098419 0.9129191637
-33.60686111 -21.05112839 0.9194936156
-35.71923828 -22.05391121 0.921051085
-51.59015274 -33.63514328 4.966273308
-35.63971329 -21.82043266 0.9261172414
-51.81054306 -33.52529907 4.980144024
-35.81556702 -21.79310417 0.9291098118
-51.73207855 -33.22839737 4.970395088
-35.25129318 -21.23206711 0.9363562465
-51.94876862 -33.12817001 4.984169006
-18.42117119 -9.40568924 0.3919247389
-36.23282242 -21.74716187 0.9356456399
-52.67626572 -33.17059326 2.941618204
-51.73970795 -32.73007965 4.963839531
-18.88061142 -9.644170761 0.3737025857
-36.1143074 -21.48917007 0.9407394528
-51.84024429 -32.54967499 4.968346119
-18.98500443 -9.63673687 0.3723409176
-36.2847023 -21.43845367 0.944167912
-52.17629623 -32.51856613 4.991519928
-19.20710945 -9.708123207 0.3654849529
-28.88067436 -16.26441765 0.9826231599
-52.58934784 -32.55026627 5.021003246
-18.6430378 -9.25063324 0.3952802718
-37.56216431 -21.96294212 0.9468067288
-70.66266632 -44.24040604 3.623069286
-53.03631592 -32.60180283 5.053161621
-102.9356918 -66.4395752 13.25996208
-17.89793015 -8.678759575 0.4331711829
-29.29931259 -16.28670883 0.9872153997
-53.15283966 -32.42817307 5.058939457
-18.58449173 -8.984816551 0.4080081582
-39.58186722 -22.77524567 0.9511994123
-103.3030014 -65.16943359 13.25417995
-20.04460716 -9.859549522 0.3446080983
-103.4496765 -64.76423645 13.25542831
-20.09878922 -9.812804222 0.3456909955
-38.9800415 -22.02822304 0.9622797966
-18.41264534 -8.64759922 0.4256345928
-38.92504501 -21.81809425 0.9667165875
-62.78807831 -37.17000198 3.336852789
-19.37361336 -9.185156822 0.3855083585
-38.94382095 -21.6475296 0.9710341692
-20.03755951 -9.526421547 0.3590555787
-39.45175934 -21.79504585 0.9733781815
-69.07421875 -40.80799866 6.296676159
-12.3787241 -4.645555973 0.3377173841
-16.21413994 -7.054194927 0.5329708457
-69.2057724 -40.56966019 6.302742004
-19.17081833 -8.82448864 0.4044515193
-63.31964111 -36.32760239 3.362997532
-63.89405441 -36.92253494 5.878173351
-16.94285583 -7.377295971 0.5060421228
-63.51369095 -36.15834427 3.371792555
-20.04488945 -9.208150864 0.3722730279
-63.64248657 -35.94855881 3.378103733
-63.78575516 -36.25573349 5.861573696
-20.06804657 -9.143310547 0.3745162785
-63.77058792 -35.73826218 3.384373665
-17.05975914 -7.258569241 0.5087535977
-43.03294754 -22.91470528 0.9873877764
-69.83760071 -39.10992432 3.615862846
-20.75712967 -9.401596069 0.3508648574
-43.20155334 -22.82809639 0.9911950231
-104.7977524 -60.17327118 13.24330807
-20.83247375 -9.364954948 0.3509018421
-20.90776253 -9.32791996 0.3509342074
-71.05779266 -39.14094162 6.414825439
-45.43821335 -23.56370163 0.9985710382
-45.35432816 -23.3099556 1.003309131
-72.06629944 -39.0772438 6.48553896
-22.21556854 -9.82219696 0.3055461943
-22.03560638 -9.633616447 0.3165334761
-45.78697968 -23.15869141 1.011101842
-21.33397484 -9.152966499 0.3493772745
-21.3479538 -9.079202652 0.3519434631
-47.60380554 -23.79712105 1.015811443
-105.1001434 -56.48968506 13.16110134
-60.08525085 -30.56269264 3.258178473
-105.1261749 -56.03563309 13.15016937
-21.16137314 -8.814211845 0.3659076393
-105.2615433 -55.64399338 13.15231133
-21.26529884 -8.791024208 0.364628464
-20.97725868 -8.555148125 0.3795103729
-48.41227341 -23.42367744 1.031701326
-21.01361465 -8.496213913 0.3809437752
-18.79826546 -7.239251137 0.4744330049
-18.80318832 -7.170284271 0.4768632352
-61.96962357 -30.01218796 3.336661577
-21.14612961 -8.327535629 0.3843175471
-21.15155029 -8.252329826 0.3869237304
-21.17977715 -8.189062119 0.3885838389
-106.2214279 -52.42029953 13.15695763
-21.67611313 -8.364429474 0.3714584112
-106.3608322 -52.03593063 13.16040421
-21.75644684 -8.325500488 0.3710660636
-51.18996429 -23.22315979 1.061793923
-106.3676987 -51.58434296 13.1484127
-21.77220154 -8.249835968 0.3733744323
-106.5501556 -51.22318649 13.15708542
-21.82008362 -8.194232941 0.3742432296
-106.7313766 -50.86134338 13.16568565
-106.9555817 -49.99811935 9.108580589
-20.2388134 -7.19265461 0.4443157017
-107.0428085 -49.5919342 9.109999657
-107.0974808 -49.66669083 13.17063427
-19.63602829 -6.832093239 0.4702609479
-107.218277 -49.22917175 9.118275642
-20.93538666 -7.376543522 0.4221675694
-58.00091553 -24.99528503 1.087947249
-83.95964813 -37.38144684 4.19338274
-107.2499771 -48.77528763 9.115207672
-20.94060516 -7.304801941 0.4244278073
-107.3851624 -48.41630936 9.120691299
-19.83733177 -6.719929695 0.4693312943
-107.4878845 -48.02018738 9.123437881
-21.00139236 -7.188846588 0.4268116355
-107.5927887 -47.62553406 9.126381874
-107.6049652 -47.67469406 13.16975784
-21.01268768 -7.116568565 0.4288854003
-107.7143097 -47.23910904 9.130638123
-107.7738037 -47.30919647 13.17765236
-21.19342041 -7.12496233 0.4243445098
-107.8089828 -46.84085846 9.132857323
-21.39811516 -7.142861843 0.4189112484
-107.9503937 -46.442379 9.13845253
-21.47533226 -7.102511883 0.4183389843
-108.0384445 -46.0421524 9.140223503
-24.13297081 -8.199810028 0.3202388585
-108.2015457 -45.67593765 9.14779377
-24.17554283 -8.132792473 0.3212872446
-108.3158722 -45.28828049 9.151642799
-21.87901497 -7.053446293 0.4101158679
-108.4068298 -44.89082336 9.153727531
-108.8002853 -44.62472153 9.179051399
-108.8182602 -44.66882706 13.21860695
-111.2492752 -43.88241577 9.347121239
-111.3494568 -43.48226166 9.349988937
-111.4666595 -43.08942413 9.354187012
-111.5245209 -43.14477158 13.46393585
-111.6194077 -42.71134186 9.361129761
-111.6775589 -42.76557922 13.470891
-111.7708664 -42.33261871 9.367999077
-111.7627716 -42.3593483 13.47017193
-111.8427811 -41.95153809 13.46894646
-111.9990463 -41.5522728 13.47599792
-112.0574036 -41.11510468 13.47197247
-25.41532898 -7.241780758 0.3155327737
-110.8619614 -39.00989914 1.256436229
-25.74517059 -7.271976471 0.3061382174
-110.9853821 -38.62989044 1.262573719
-74.93475342 -25.38666725 3.866376877
-110.7992249 -38.8841362 9.261768341
-111.1293182 -38.23628235 1.268959761
-75.11988831 -25.17116928 3.874060869
-110.5820084 -38.40061569 13.25516605
-25.89326096 -7.14559269 0.305495739
-110.7546234 -37.99496078 9.249471664
-110.6056824 -37.96252441 13.24794197
-25.78742027 -7.020144939 0.3114574254
-110.7957687 -37.58562851 9.248306274
-110.7293854 -37.58268356 13.25262833
-25.82053757 -6.944558144 0.3124658167
-65.10136414 -20.77193832 3.487288952
-110.8156586 -37.14842224 9.245347977
-110.8434601 -37.17815018 13.25583363
-24.64877892 -6.450174809 0.3558456004
-65.13879395 -20.54352379 3.489120722
-110.9515076 -36.77388 9.251432419
-110.9306335 -36.7857132 13.2565403
-24.66858482 -6.374622822 0.3571584523
-111.0521088 -36.387146 9.254868507
-111.0239258 -36.39564133 13.25801754
-25.40543365 -6.542728901 0.3333516419
-111.7563477 -35.89887619 1.303816795
-111.8545151 -35.9491272 5.301085949
-111.1532288 -36.00076294 9.258370399
-111.134613 -36.01187897 13.26154041
-25.44827843 -6.472220898 0.333876878
-111.8953171 -35.52516937 1.309380174
-111.8850403 -35.55883026 5.302833557
-111.260498 -35.61673355 9.262366295
-111.2375793 -35.64664078 13.26471043
-25.8361721 -6.516131401 0.3223683536
-111.9773712 -35.15339279 1.314500213
-111.9887543 -35.17245102 5.307424068
-111.3487854 -35.24743271 9.265152931
-111.3739014 -35.27169418 13.27127361
-25.73842239 -6.397883415 0.3277643025
-112.0819778 -34.74742889 1.320106626
-112.1100922 -34.79203033 5.312674046
-111.4704285 -34.86851883 9.27028656
-111.4919357 -34.89065933 13.27584743
-25.75355911 -6.312908649 0.3293009698
-112.2116928 -34.34982681 1.325682402
-112.2324295 -34.39102936 5.3179636
-111.5817566 -34.46531677 9.2744627
-111.5959167 -34.48405457 13.27848148
-25.83376122 -6.253131866 0.3284647465
-112.3339005 -33.9706459 1.330915928
-112.2939301 -33.99147797 5.320841789
-111.7029877 -34.0654068 9.279415131
-111.7073669 -34.10114288 13.28246975
-23.99087906 -5.584392071 0.393881917
-112.4487686 -33.61003876 1.335817933
-112.4530106 -33.62343216 5.327481747
-111.8258896 -33.7078476 9.284917831
-111.8345642 -33.72322464 13.28830147
-23.97598267 -5.505297184 0.3960362077
-112.568367 -33.23015213 1.340903044
-112.5345993 -33.23070145 5.331089973
-111.9307175 -33.32377243 9.288881302
-111.9339066 -33.3364563 13.2910738
-24.04591751 -5.448781967 0.3953388333
-112.6408081 -32.83557129 1.345809937
-112.6529388 -32.84968948 5.336100101
-112.0361404 -32.93989182 9.292913437
-112.0527344 -32.95598602 13.29611397
-24.12908745 -5.395959854 0.3941736221
-112.7539062 -32.45374298 1.350734234
-112.7699661 -32.46821213 5.341035366
-112.1401825 -32.55573273 9.296868324
-112.1417389 -32.56626129 13.29787827
-24.16237831 -5.327618122 0.3946982622
-112.9192657 -32.08774948 1.355706215
-112.8856735 -32.08632278 5.345894814
-112.2715149 -32.17991638 9.302905083
-112.263588 -32.18680191 13.30340481
-25.88066673 -5.756429195 0.337906599
-113.0335846 -31.70612335 1.360489249
-113.0000229 -31.70409775 5.350677013
-112.3537827 -31.7892437 9.30526638
-112.3822098 -31.80634308 13.30864239
-25.70617104 -5.620522499 0.3455785513
-47.03119278 -11.88519287 1.205373526
-113.1130447 -31.32145309 5.355383396
-112.470993 -31.40922546 9.310287476
-112.4976273 -31.42482567 13.31359196
-25.76827621 -5.550487995 0.3452604413
-46.85651016 -11.66988182 1.206671596
-47.61670685 -11.89281464 2.812817097
-112.5694885 -31.00293541 9.313735008
-112.6153641 -31.02326393 13.3184824
-25.75601196 -5.463100433 0.3473522961
-46.8676033 -11.50122643 1.208471894
-47.2364006 -11.61712646 2.798158884
-112.7107773 -30.62988281 9.320618629
-112.7280731 -30.64093018 13.32327747
-25.7057724 -5.369413853 0.350615114
-46.73905182 -11.30970764 1.209719062
-47.78947449 -11.60824585 2.819731236
-112.8316422 -30.25072861 9.325987816
-112.8413239 -30.25878716 13.32820892
-25.73132706 -5.293206215 0.3513733447
-46.74473572 -11.1487484 1.211353898
-113.5571518 -29.76772499 5.373666763
-112.9818802 -29.87984276 9.333589554
-112.9647446 -29.87942123 13.33434868
-25.822155 -5.234899521 0.3499141932
-46.59169388 -10.94438839 1.21254313
-47.71183014 -11.25352764 2.816882849
-25.93213654 -5.181286812 0.3477982581
-46.57480621 -10.77839947 1.214050293
-47.51475525 -11.03416824 2.8092978
-26.16666794 -5.156050682 0.3415803313
-46.68101883 -10.63771439 1.215930581
-47.47501373 -10.85866737 2.807812691
-48.12640762 -11.1422863 4.451680183
-113.3233109 -28.73745155 13.3518877
-26.16160202 -5.06609726 0.3433650136
-46.64945602 -10.46025658 1.217409015
-47.46366119 -10.68306732 2.807422161
-26.18611526 -4.988237381 0.3440581858
-46.59005737 -10.28414249 1.218702316
-47.30265808 -10.46904469 2.801208973
-27.08375931 -5.133732319 0.3156895041
-46.67334366 -10.14528275 1.220358729
-47.23748016 -10.28922462 2.798705339
-48.06090927 -10.60755157 4.442288399
-46.84927368 -10.02942753 1.222250938
-47.34406281 -10.15350151 2.802862883
-48.15105438 -10.46430779 4.447629452
-46.85015106 -9.861069679 1.223691702
-47.70626831 -10.08074665 2.816939116
-46.84077454 -9.698482513 1.225003123
-47.65493774 -9.896253586 2.814944029
-113.9278641 -26.3634758 9.372018814
-113.953537 -26.36699486 13.37818813
-46.89300919 -9.551076889 1.226463079
-47.97600174 -9.810267448 2.827402353
-114.094429 -25.99078369 13.38699341
