# .PCD v0.7 - Point Cloud Data file format
VERSION 0.7
FIELDS x y z
SIZE 4 4 4
TYPE F F F
COUNT 1 1 1
WIDTH 1333
HEIGHT 1
VIEWPOINT 0 0 0 1 0 0 0
POINTS 1333
DATA ascii
7.110660076 14.53375816 2.300128222
5.549634933 11.14293098 2.436148405
5.350595474 10.70358372 2.831349611
5.323153973 10.64208889 3.278418541
5.573506832 11.17749977 3.879959822
7.387596607 15.01930618 0.5076880455
7.165817738 14.51919651 2.301185608
7.023077488 14.20946026 2.85918498
5.401305199 10.71272659 2.836216211
5.356986523 10.6155777 3.276623726
5.597567558 11.12552166 3.871490002
7.488924503 15.0912199 0.5061583519
15.11784458 31.36347008 1.463683009
7.19910574 14.45087719 2.297115564
7.092476845 14.21426296 2.863571882
5.441567421 10.69389248 2.836357117
5.396350861 10.59065056 3.275616884
5.594842911 11.00632763 3.846283197
7.50540638 14.98181438 0.5078229904
15.24051094 31.3322525 1.464542389
7.251610279 14.4239254 2.2971313
7.179758549 14.26305866 2.873880148
5.468241215 10.64636135 2.831448793
7.215127945 14.32670879 4.090020657
5.316413403 10.31267452 3.672976017
7.593505859 15.02411556 0.5068194866
15.37432384 31.32403183 1.465910673
7.31259203 14.41477203 2.298927307
7.255493641 14.28635216 2.880741835
5.518487453 10.64867687 2.835390806
7.096016407 13.94211292 4.012135983
5.317360878 10.21509266 3.652741909
7.63691473 14.97228718 0.5074784756
15.53254318 31.36572075 1.468358874
7.300449848 14.2449398 2.878725767
5.550805092 10.61342621 2.83270359
7.170426846 13.96512508 4.022723675
5.369346619 10.22465801 3.660140276
7.599717617 14.7548399 0.5110672116
15.66028976 31.35726357 1.46969831
7.374686241 14.27071953 2.885838985
5.580356121 10.57276058 2.829073191
7.23906374 13.97544384 4.03062582
5.601088524 10.60803604 3.764016867
7.640167713 14.70620728 0.5116935968
15.79552937 31.34915352 1.471152067
7.439572334 14.26993179 2.889514208
5.620750427 10.55959797 2.830178738
7.522280216 14.42898846 4.135091305
5.954219818 11.22680759 3.929524899
7.693717957 14.67765331 0.5119567513
7.389267921 14.0358305 2.860852957
5.779571533 10.78073502 2.873328447
7.387295246 14.02284718 4.052214146
5.470536709 10.14470673 3.654273748
7.733787537 14.62206936 0.5127022862
7.372874737 13.87330151 2.842069149
6.001720905 11.12459755 2.938613892
7.382848263 13.88473415 4.02781868
5.49044323 10.08907318 3.644930601
7.790624142 14.60034466 0.5128522515
7.340268612 13.68093109 2.819089651
6.057612419 11.13189507 2.9438622
7.49053669 13.97119904 4.052681446
5.456561565 9.927313805 3.607954025
7.807614803 14.49992943 0.5144016743
6.100214958 11.11253452 2.944375277
7.704678535 14.26532078 4.123349667
5.485169888 9.890958786 3.603600979
7.843122482 14.43697643 0.51529181
7.56366396 13.87461758 2.853649139
5.793487549 10.41100883 2.822233915
7.785816193 14.29437637 4.135921478
7.900359154 14.42333031 0.5153217316
7.60766077 13.83411217 2.851927996
7.606411457 13.83120823 3.442097902
7.841191769 14.27907658 4.13848114
8.03222084 14.54647732 0.5129113197
47.42865372 90.23119354 9.949957848
7.629464626 13.75123405 2.844283581
7.95448637 14.3683815 4.164541245
8.110242844 14.5643959 0.512372911
7.718141556 13.79665184 2.854683161
8.103172302 14.52310467 4.205241203
8.140810013 14.49180222 0.5134487748
17.47462273 32.14095688 1.504060149
8.176773071 14.53303146 4.214000225
8.215331078 14.50884342 0.5129426122
8.237692833 14.52501774 4.21851778
8.30221653 14.54172611 0.5121456385
8.297598839 14.50841713 4.221517563
8.414358139 14.62664127 0.5104323626
17.53335571 31.44261932 1.494673252
8.452208519 14.56734848 0.5112851858
17.64697838 31.38303185 1.495378971
8.563087463 14.64109707 0.5097643733
17.77968788 31.358078 1.496869564
8.606404305 14.58514023 0.5105549097
17.90251541 31.30149841 1.497795224
8.76402092 14.73993778 0.5075871944
18.04304123 31.28945732 1.499627471
8.85200882 14.76845551 0.5068807602
18.19056702 31.28902054 1.501747251
8.903683662 14.73225498 0.5073369145
18.31851768 31.25318718 1.503111482
8.89078331 14.58990955 0.5097103119
18.46907616 31.28226089 1.505730748
9.021199226 14.69710541 0.5076106787
18.65426826 31.3440094 1.509335518
9.095734596 14.70008183 0.5073741674
18.81391716 31.3599453 1.511952996
9.158247948 14.68203735 0.5075184703
20.07439041 33.24725723 1.556755304
9.185071945 14.60352421 0.5087537766
20.0842495 32.99297333 1.553472877
9.326283455 14.71731758 0.5065334439
20.08950233 32.73389053 1.550079942
9.3694067 14.66582775 0.5072897077
20.08738327 32.47868729 1.546647549
9.442755699 14.67058849 0.5070451498
20.11029625 32.25456619 1.544045329
9.493927002 14.63241959 0.5075691342
20.12773514 32.0238533 1.541294217
10.39383316 16.09513855 3.275902748
9.575360298 14.64346409 0.5072094202
20.24029922 31.95006371 1.542146206
52.35217667 84.06456757 9.730282784
10.40802574 15.98622227 3.265723228
9.65382576 14.64903069 0.5069515109
20.34203911 31.85889626 1.542622447
10.40901756 15.85718441 3.25257206
11.03308201 16.86514664 4.145690918
9.72926712 14.64914989 0.5067951083
10.65703773 16.12774849 2.588731766
10.49136543 15.85955906 3.258767843
11.12186527 16.87020302 4.154457092
9.895477295 14.7927227 0.5040501952
20.28197289 31.25955391 1.533961296
10.7491312 16.14276886 2.594778299
10.63632393 15.96059227 3.27960968
11.21292782 16.87819099 4.163868427
10.8232708 16.2572155 4.776982784
9.905158997 14.6872015 0.5058084726
20.33605385 31.09749413 1.53281641
10.81260204 16.11196327 2.596011162
10.4797678 15.58516407 3.230004072
11.23003387 16.76910019 4.151085377
10.92473984 16.28575325 4.792942047
9.918540001 14.58854389 0.5074478984
20.46347427 31.06363678 1.534543395
10.85665321 16.05072403 2.59403491
10.75453854 15.89472294 3.281609535
11.27633095 16.70667076 4.147190571
10.86459446 16.06096077 4.749856949
10.64299393 15.71879196 5.390503407
9.970938683 14.5572567 0.5078802705
20.6235714 31.06768608 1.537322044
10.90611172 16.004673 2.593468904
10.61482811 15.5503664 3.236466646
11.29467201 16.60792542 4.135975838
10.91608524 16.01841164 4.748819828
10.14035416 14.7001009 0.5051571131
20.77739906 31.06095695 1.539883614
11.09510326 16.16701126 2.61547184
10.50315094 15.25377083 3.198263407
10.49979973 15.2522974 3.884223223
10.98851204 16.00177383 4.754380226
10.26377869 14.77001381 0.5037556887
20.92375374 31.04183578 1.542187929
11.15219688 16.12494278 2.615669489
10.49502563 15.11918259 3.184138536
10.52654171 15.17108917 3.876178026
11.13730049 16.10138512 4.787367344
10.35146999 14.78417015 0.5033667088
21.09006119 31.05212021 1.545223236
10.95787334 15.70195389 2.574892282
10.56808281 15.10906696 3.18864274
10.68552876 15.29096603 3.906870604
11.04802704 15.83820248 4.735019207
10.40394688 14.74462414 0.5039544106
21.24562073 31.044981 1.547883034
10.96370029 15.58573341 2.567037106
10.64009094 15.09698296 3.192907572
10.74161625 15.25371075 3.907414913
11.07549953 15.75396347 4.724766731
10.46072578 14.71154213 0.5044289827
21.40695763 31.04544067 1.550760984
11.01097965 15.53256035 2.565989017
10.65691376 15.00216007 3.18475771
11.61521816 16.43681717 4.144257069
11.08723545 15.64690399 4.709110737
10.50957012 14.66665363 0.5051217675
11.2853756 15.81606388 2.601490498
10.65766335 14.88438416 3.173131704
11.51840019 16.16391373 4.099752426
11.51884365 16.16290283 4.841439247
10.5672226 14.63484859 0.5055810809
11.390481 15.84584045 2.609606504
10.69789696 14.82587147 3.170456886
10.54821968 14.61010265 3.805838346
11.05149078 15.34877396 4.657713413
10.6507864 14.64076233 0.5053594112
11.36306763 15.68118954 2.596583843
10.90500546 15.01117897 3.204838991
10.55618382 14.50653839 3.793365955
11.00232697 15.15648842 4.62157917
10.69658852 14.59713936 0.506046474
11.48000145 15.73367691 2.607019186
11.06173229 15.13212585 3.228988409
11.59255028 15.90020752 4.073266029
11.06957531 15.14107513 4.627159595
10.77189541 14.59607601 0.5059638619
60.8576355 86.64898682 2.919037104
11.59513283 15.78229809 2.617109299
10.81040764 14.6519289 3.162162066
11.38756084 15.48723412 4.000424862
11.15027618 15.14472961 4.637387753
10.90715599 14.79404259 5.251523972
10.83395863 14.56985855 0.5063365698
11.67934036 15.77935028 2.621861458
11.11702824 14.97509289 3.217987061
11.59604263 15.66430092 4.043642998
11.27666187 15.20716 4.662349224
10.94571877 14.73373413 5.245744228
10.92940426 14.59078026 0.5058558583
11.61211872 15.5611496 2.602932453
11.20182037 14.97847176 3.225062847
10.96425247 14.64083767 3.850957155
11.36908245 15.21400738 4.674594402
11.02103615 14.72586823 5.254983425
11.04057312 14.62723351 0.5050911903
50.29566193 69.85900116 5.566290379
9.035116196 11.80876827 2.193321705
9.363688469 12.27516747 2.815637589
11.60826015 15.43313217 4.015681267
11.416852 15.16320324 4.67250967
11.02762127 14.62082195 5.236475468
11.14090538 14.65884018 0.5044273138
11.92255402 15.74964619 1.199566364
11.92827225 15.75673008 1.916067123
9.148929596 11.87922859 2.204931259
9.149486542 11.87943459 2.76012373
11.67808628 15.41717148 4.02074337
11.64434338 15.36956692 4.73229599
11.10728741 14.61885643 5.247551441
11.21972179 14.65392494 0.5044267774
11.97997189 15.7132988 1.200276613
11.96811676 15.69609165 1.915266395
9.439915657 12.19361019 2.813910961
9.036200523 11.63319778 3.277776003
9.295536041 11.99271011 3.921975374
11.25714397 14.5972271 0.5053771138
9.207275391 11.77811909 2.201615095
9.467832565 12.13659096 2.810702324
9.176028252 11.73909664 3.305308104
8.717748642 11.10763359 3.714277744
11.37021637 14.63854885 0.5045418739
41.95475006 56.45988846 2.223922253
9.205438614 11.68327522 2.195121527
8.941536903 11.32670784 2.690091372
9.035656929 11.45527554 3.255530596
8.791701317 11.1216135 3.725605965
11.43829632 14.62330914 0.5047442913
9.199701309 11.58859634 2.188422918
9.009828568 11.33066368 2.69608283
8.987332344 11.30451393 3.231820583
9.407065392 11.87466621 3.917694569
11.52936649 14.63307953 0.5044906735
9.303592682 11.63806725 2.198125124
8.994303703 11.22114182 2.684379578
9.046058655 11.29538631 3.236792088
9.400978088 11.77412415 3.901583672
11.60508251 14.62157726 0.5046285391
9.406747818 11.68536758 2.207660675
9.09810257 11.27242184 2.69786644
9.160132408 11.35558319 3.256130934
8.890245438 10.99471569 3.718600512
8.998505592 11.14435482 4.304358006
11.66550827 14.58374786 0.5052469969
9.453828812 11.65247536 2.208412647
9.235813141 11.36782169 3.265581846
8.973855019 11.02017879 3.733058453
9.026039124 11.09435463 4.299412251
11.74701214 14.58482075 0.5051665902
50.35398483 65.48410034 5.39900589
9.429047585 11.53382969 2.199028015
9.695537567 11.88557434 2.805734634
9.006637573 10.98160934 3.194077015
9.035528183 11.02019405 3.740914822
12.05974007 15.01140785 5.459022999
11.82892418 14.5802803 0.5051891804
9.417816162 11.42967892 2.191471577
9.697715759 11.79654884 2.797566414
9.052569389 10.95648766 3.195879698
9.483908653 11.52211285 3.873949289
9.163100243 11.10257244 4.32143116
11.88655186 14.54366589 0.505800724
9.181300163 11.03368092 2.150561571
9.635267258 11.62430859 2.776165724
9.111672401 10.94840908 3.201195955
8.982699394 10.78132343 3.698191166
11.95877743 14.52579689 0.506074369
9.231271744 11.01265621 2.152369261
9.389775276 11.22213173 2.717764854
9.187747955 10.96191597 3.210983992
9.484389305 11.34574127 3.847555876
9.624036789 11.53147316 4.467896938
12.00248623 14.47661018 0.5069259405
42.84279251 53.99404144 2.216833591
9.233812332 10.9349308 2.147480249
9.755228043 11.60400105 2.784532309
9.198841095 10.89567852 3.204169512
8.86591053 10.46949959 3.636437178
12.06969452 14.45192337 0.5073319077
9.258904457 10.88233662 2.145688772
9.554625511 11.25945663 2.73538661
9.2628479 10.89311314 3.210783243
8.874919891 10.400033 3.627276659
9.713354111 11.46890831 4.470420361
12.12817955 14.41598606 0.5079473257
9.263968468 10.80471897 2.141011715
9.654648781 11.29926586 2.747713327
9.36981678 10.94444275 3.228573561
8.896940231 10.34757137 3.622383833
10.00728607 11.75279808 4.565863132
9.9272995 11.54673004 0.5603001118
9.175494194 10.61038971 2.122787476
9.502779007 11.02195549 2.709041357
9.318556786 10.79595757 3.205206156
9.053174973 10.46390438 3.660160065
9.703993797 11.28231621 4.436023712
9.975703239 11.51824856 0.5607936978
9.987922668 11.53434944 1.117376566
9.994520187 11.54792786 1.675839782
9.186775208 10.54263783 2.119192123
9.395062447 10.80310631 2.679606676
9.367690086 10.77425385 3.208010435
9.443581581 10.87006855 3.771665573
10.0421133 11.61765003 4.547469616
10.0127058 11.47558975 0.5615495443
10.04001331 11.51032448 1.118281245
10.02900505 11.50215244 1.675676346
9.182671547 10.45635796 2.113428831
9.415671349 10.74564457 2.676181316
9.193435669 10.47592354 3.153346539
9.285749435 10.59146023 3.709774733
12.45329475 14.38319206 0.5084238052
10.07716656 11.47331619 1.676741838
9.483679771 10.74557495 2.15162015
9.418457031 10.66663647 2.66925478
9.123149872 10.30911446 3.125809193
9.148394585 10.34148502 3.654851437
9.714263916 11.03853607 4.394925117
12.51926041 14.35510159 0.5089164376
28.04196739 33.29118347 3.253056526
9.468535423 10.64470482 2.14424777
9.405711174 10.56933689 2.659325361
9.186979294 10.30785084 3.132765532
9.29419136 10.44012165 3.688802958
9.881340027 11.15834999 4.442082882
12.59664726 14.3406105 0.5091648102
28.01457596 33.01618576 3.241997957
9.394463539 10.47343731 2.128546476
9.538959503 10.64975166 2.678446293
9.56132412 10.68237305 3.218657017
9.284683228 10.34872818 3.67424202
9.704839706 10.8596096 4.362359047
12.68303776 14.33652782 0.5092271566
28.1043644 32.88457489 3.24130702
9.593150139 10.63206387 2.151777029
9.403214455 10.4091053 2.644695044
9.433564186 10.44711208 3.176748514
9.898920059 11.01474285 4.420008183
12.74249268 14.30512905 0.5097929835
28.10766411 32.65018082 3.233153582
9.557017326 10.51168346 2.141843796
9.452607155 10.3884716 2.647294044
9.463274956 10.40678978 3.175396442
10.19130135 11.27863789 3.931731701
10.00624847 11.05943775 4.444835663
12.80581665 14.27279663 0.5103796124
28.25321579 32.59814835 3.237864733
9.605613708 10.48898602 2.143719912
9.807654381 10.73019314 2.709812164
9.366274834 10.21226788 3.141781569
9.904706001 10.85304928 3.831372976
10.01866245 10.99034786 4.434966087
12.86388969 14.23411274 0.5110864639
28.36318588 32.49186325 3.23911047
9.539424896 10.33096981 2.129461765
9.874932289 10.72774887 2.715704441
9.457108498 10.2413311 3.155493259
10.10755539 11.0118885 4.452963829
12.99466896 14.28028774 0.5102473497
64.37741852 74.35028839 2.870391846
28.24690056 32.12117767 3.220916271
9.949944496 10.73209858 2.182147264
9.989287376 10.7840147 2.731106043
9.532862663 10.25188637 3.165378332
9.465810776 10.17536736 3.674075365
10.13395691 10.96365547 4.449010372
13.060606 14.25530815 0.5107117891
28.2912941 31.94082832 3.216696024
10.09876347 10.82740688 2.198186159
9.871852875 10.56571293 2.701137543
9.658373833 10.3235817 3.188043118
9.518802643 10.16337585 3.679708242
10.05807877 10.79256535 4.407623291
13.14751911 14.248909 0.5108414888
28.49523544 31.95710564 3.226612806
10.14076996 10.79366684 2.199022293
9.910905838 10.53450298 2.701996326
9.580862999 10.1556282 3.159859896
10.07984066 10.73372459 3.838569403
10.16777325 10.84173393 4.43383646
13.24373722 14.25795555 0.5106924176
28.9076004 32.19900894 3.253907681
10.02215958 10.57998466 2.177847385
10.10056782 10.67185116 2.7315166
9.545835495 10.04207706 3.142842531
10.23149681 10.83048248 3.873414516
10.26713943 10.87384224 4.455525398
13.29525757 14.210145 0.5115870237
28.47236061 31.48374176 3.209388494
9.891059875 10.35053158 2.154873133
9.907517433 10.37133121 2.687468529
10.52435207 11.07970619 3.374697924
9.992407799 10.47643852 3.790065765
10.28077984 10.80737209 4.446595192
13.39434052 14.21604919 0.5115048885
44.20834351 49.00430298 2.203885794
28.66299438 31.47252083 3.217882395
9.98687458 10.38013649 2.16334343
9.964987755 10.35757542 2.691637516
10.64428139 11.13174343 3.394610643
10.07329941 10.48865414 3.803172112
10.37016869 10.8270092 4.46464777
13.47898579 14.20503139 0.5117362738
30.23269844 32.98857498 1.754353404
28.7396183 31.33218193 3.216743231
10.52168846 10.90132809 2.232049942
10.27726936 10.62943077 2.744324207
10.73711967 11.15213203 3.407809973
10.11786652 10.45941925 3.805393934
10.48700619 10.87669945 4.4923172
13.5369854 14.1638546 0.5125226974
29.12644577 31.5378933 3.241806984
10.63848019 10.94908714 2.243124008
10.21517277 10.47988605 2.725645781
10.72477341 11.05445004 3.395381212
9.823122025 10.05174351 3.706811666
10.55492306 10.87062931 4.502619267
13.59888268 14.1269083 0.5132362843
29.61548996 31.85238647 3.275360823
10.67692947 10.90900326 2.243469
10.30782032 10.50313377 2.73638773
10.75687122 11.00681114 3.393851519
9.834656715 9.988405228 3.699679852
10.5576849 10.79197216 4.490053177
13.71726418 14.15179157 0.5128256679
29.62713242 31.63675499 3.268788099
10.82248688 10.9866209 2.258396626
10.22981071 10.33805275 2.714936018
10.85518265 11.03210926 3.408361435
9.830036163 9.907700539 3.687877178
10.64253616 10.80419731 4.506319523
13.81434536 14.15246105 0.5128617287
65.67840576 70.7127533 2.87325573
29.91157722 31.72021675 3.285091877
10.66724205 10.73449898 2.232509136
10.42228031 10.4738636 2.744786501
10.92579937 11.02629375 3.416148901
10.44764233 10.5071373 3.859135389
13.88319397 14.12714577 0.5133738518
30.03171158 31.62309647 3.287677526
29.98134232 31.58733177 4.836028099
10.61909962 10.60812759 2.774949551
10.98239326 11.00898552 3.421021461
10.3840313 10.36294079 3.83019805
10.74091911 10.75328922 4.514587402
13.97098446 14.11668205 0.5136220455
29.92020226 31.28800774 3.271443844
11.26916981 11.22493935 2.304356575
10.58541775 10.49589348 2.762284517
10.54272366 10.4528017 3.306860447
10.65315819 10.57878876 3.898668051
14.05625629 14.10823536 0.5138348937
29.68540382 30.82423019 3.245145559
11.07784653 10.94031715 2.274049997
10.78552818 10.63474083 2.793205023
10.5840826 10.42221642 3.308505535
10.67476082 10.52632904 3.894680023
10.83310509 10.69919395 4.5214715
14.14710617 14.10521412 0.5139530897
54.82159424 57.26673889 2.517635345
29.89006996 30.83188248 3.255326271
29.88121033 30.83043098 4.784985542
10.77924824 10.54800797 2.785372972
10.59558773 10.35985661 3.303091288
10.74110126 10.51772213 3.903206825
10.88376808 10.67282486 4.525876522
14.21179962 14.0688076 0.5146879554
29.93849564 30.66230583 3.25229001
11.13042545 10.83589172 2.271878958
10.77522564 10.4643383 2.778044701
10.76758862 10.46335602 3.335299969
14.27364254 14.02924633 0.5154847503
31.14874077 31.71006012 3.344706774
10.79462719 10.41296959 3.333150625
14.33954334 13.9937582 0.5162118673
31.4309082 31.77687645 3.360689878
11.29316616 10.84277058 2.284214258
10.81050396 10.35114479 3.32843399
14.4316349 13.97987938 0.5165543556
31.21386719 31.31457329 3.335539579
31.00503349 31.11725998 6.458576202
10.78684425 10.2449007 3.314111948
14.53938103 13.98666286 0.5165213943
31.33554459 31.21559143 3.338515282
31.62512589 31.5217495 4.952466965
31.19625664 31.09152031 6.475388527
10.76063728 10.14085579 3.299749136
14.63613892 13.98146343 0.5167115927
31.42193985 31.08053398 3.338669062
54.68323898 54.77329254 7.967402935
10.78914642 10.09348297 3.298251867
14.69807434 13.94565868 0.5174585581
53.23616791 52.92656326 5.098790646
10.84468365 10.07742214 3.303478241
7.158235073 6.246586323 0.3040939867
11.21394253 10.37270927 3.380857706
7.136191368 6.17247963 0.3078718185
7.157704353 6.228308678 0.6579732895
55.39198303 54.34906769 7.997199535
7.146646976 6.133504868 0.3093346357
7.148240566 6.166882992 0.6591479778
7.139978409 6.080430984 0.311820358
7.153098106 6.124927521 0.6599648595
54.86306 53.06519699 7.887167931
7.444411278 6.428462982 2.493016481
7.424218655 6.413780212 2.864792824
7.152884483 6.044324875 0.313095063
7.156321526 6.081623077 0.6608079076
54.96110535 52.80540085 7.880613327
7.448731422 6.384492397 2.489011288
7.44385767 6.382431984 2.863761187
7.174249172 6.016537666 0.3138019145
7.159115314 6.035732269 0.6617026329
54.00400162 51.50406647 7.73743248
7.420120716 6.30626297 2.477296591
7.44367981 6.331893921 2.857257128
7.20127821 5.994213104 0.3141325414
7.174642086 6.002390385 0.6623715162
7.305103302 6.135277748 1.368812203
7.312736511 6.147677422 2.085124254
7.308664799 6.148840427 2.446872473
7.37691021 6.217427254 2.832367659
7.234033585 5.977287292 0.314088285
7.203035355 5.981459618 0.6628172994
7.336442947 6.111421108 1.014825583
7.329324245 6.107112885 1.369254589
7.332167149 6.114815712 1.725944281
7.327110291 6.112572193 2.083879948
7.303564548 6.095461369 2.805537939
7.258039951 5.951991081 0.3146167696
7.231119156 5.957773685 0.6633187532
7.349239826 6.074780941 1.015001059
7.363801479 6.091150284 1.370590806
7.362042904 6.092066288 1.727057695
7.357143402 6.092487335 2.085427999
7.341365814 6.080202103 2.444090366
7.336234093 6.078131676 2.808418036
7.341455936 6.088457108 3.181257248
7.284875393 5.929340363 0.3149598837
7.259652138 5.939250469 0.6637218595
7.38437748 6.074873924 2.449119091
7.36624527 6.060590267 2.810884476
7.366950989 6.064231873 3.182252884
7.333837032 5.929653645 0.3137689233
7.2951684 5.924809456 0.6640568376
54.35034943 50.01515579 5.070781231
7.444476604 6.082896709 2.457733393
7.453186512 6.09399128 2.828655243
7.388477325 5.932494164 0.3123292923
7.333881378 5.915565491 0.664296329
56.43692017 51.64098358 7.933436394
7.452973843 6.044788361 2.455023289
7.463206291 6.057290077 2.825650215
7.469706535 5.959366322 0.3092016578
7.394369125 5.923846722 0.6642253399
54.51859283 49.48194122 5.06480217
56.30034256 51.14932632 7.897348404
7.455252171 5.998701572 2.450726509
7.462754726 6.008637428 2.819540262
7.459427834 5.935843468 0.664090097
18.82399559 16.3802681 3.158536911
7.418065071 5.916618824 2.437702656
7.417302132 5.918915749 2.801280499
16.33448982 13.96677685 0.519213438
18.98655319 16.3878727 1.372105479
18.94130898 16.36690521 3.167146683
7.400812149 5.853504658 2.429200411
7.417658329 5.871919155 2.795559168
16.40260887 13.92444515 0.5201666951
18.9947834 16.27462006 1.371925831
18.99563026 16.28253555 2.267774105
19.00708199 16.3061676 3.169299603
19.02578163 16.33051109 4.079220295
7.400454998 5.803889751 2.42428112
7.416035652 5.821077347 2.789081097
16.50150108 13.90431309 0.5207348466
19.13634682 16.28175163 1.375863552
19.12065887 16.27492332 2.274278164
19.07267952 16.23918152 3.171164036
19.05297661 16.23497009 4.075045109
19.0182724 16.21144867 4.981962681
19.0732193 16.26886559 5.920562267
19.07470322 16.2844696 6.861845016
16.58633614 13.88147163 0.5213376284
19.36532974 16.38683891 3.201972485
19.25396156 16.30895424 5.022805691
19.12948227 16.20575523 5.92192173
19.11646652 16.20248985 6.857748985
16.71121597 13.88845444 0.5214193463
56.50851059 49.19502258 7.815305233
16.83076859 13.89503574 0.5215040445
20.96348763 17.53654289 1.430802941
56.81695938 49.13409042 7.837162971
16.93956184 13.88619804 0.5218829513
56.99038696 48.93585968 7.841470242
17.05001831 13.87808514 0.5222551823
21.01898384 17.32699585 1.431771278
57.06992722 48.65605164 7.834293842
17.25458717 13.95027733 0.5211933255
57.28692245 48.49594879 7.844220638
17.33825493 13.91726303 0.5220260024
60.95528412 51.29049683 8.27836895
17.46001434 13.91620255 0.5222922564
61.26665878 51.18874359 8.299045563
17.60797501 13.9363842 0.5221855044
17.67193794 13.88511658 0.5233632326
51.52993011 42.27428436 4.714446545
17.8465004 13.92560959 0.5229081511
51.39127731 41.85432816 4.696492195
17.93363762 13.89251423 0.5237740874
51.38575745 41.5477829 4.688799858
15.15056705 11.63831043 4.025752068
18.10584068 13.92869949 0.5234119892
51.37873077 41.2417984 4.681107044
15.2075901 11.59677887 4.029857635
18.2350769 13.92851925 0.5237057805
26.5795517 20.73418427 1.599233508
14.76342297 11.12849998 2.573312998
15.19876099 11.50135899 4.019990444
18.34949493 13.92077827 0.5241262913
26.61746407 20.61118317 1.600178838
14.80457592 11.08082771 2.574599266
15.05548286 11.30192566 3.982088566
14.98823071 11.25448608 4.664795399
18.56024933 13.98429394 0.5233037472
15.08532238 11.23955154 3.980668545
18.60795212 13.92143917 0.5247167945
52.5522995 41.00843048 4.742213726
14.9009285 10.9923954 2.578745127
15.29160786 11.32269001 4.016951561
18.7238903 13.90728951 0.5252877474
15.41342163 11.31392097 2.636453867
15.78518867 11.61580467 3.393556595
18.91703224 13.95302486 0.5248066783
15.29299927 11.13208866 2.618194818
15.48407173 11.28959656 3.338078737
15.20378876 11.08037186 3.983216047
18.98770332 13.90167999 0.5260508657
15.34566689 11.08732033 2.620722532
15.37777805 11.11955738 3.314911604
15.16122723 10.96172237 3.966826677
19.17368126 13.93939304 0.5257294774
56.91459274 43.20433044 5.041843414
15.5461092 11.15704155 2.640889406
15.5211935 11.14497852 3.332838058
15.19486618 10.89896965 3.966138601
19.36433601 13.97382736 0.5254938602
57.40942764 43.26865768 5.071899891
15.46058464 11.00049305 2.62680316
15.66810513 11.17197704 3.35130167
15.2324667 10.84360886 3.966700315
19.44695473 13.93502712 0.5265212059
15.50924873 10.95650673 2.629107237
15.42899036 10.90670681 3.306972742
15.27724743 10.79797363 3.96916461
19.54227066 13.90551281 0.5273912549
15.97045135 11.21822453 1.975852013
14.96629906 10.46317387 2.561319351
15.56930161 10.9285078 3.324422598
15.29405975 10.72681904 3.965495825
15.92872524 11.22172832 4.820876598
15.99655151 11.28162384 5.574933529
19.65555573 13.8782835 0.5282657146
16.02577019 11.16809464 1.978032827
15.06486702 10.45149231 2.569355965
15.58690643 10.8523922 3.321620464
15.32673836 10.66371441 3.96483016
15.94597244 11.14337349 4.815505505
16.01103592 11.20084953 5.567481995
19.73042679 13.82172585 0.5296621323
16.15929031 11.17629814 1.986034036
15.09020805 10.38437748 2.56875205
15.66926003 10.82503414 3.329381704
16.0035305 11.08310604 4.097438812
15.20047569 10.49351883 4.618023396
16.03447342 11.127141 5.562813282
15.91259098 10.8821497 0.5814903975
57.59262848 41.81832504 5.052176476
15.03531265 10.25789928 2.558735371
15.40715981 10.54902744 3.966782808
15.19919968 10.40632534 4.608638287
16.05447388 11.05109119 5.557221889
15.95553589 10.84083462 0.582486093
15.97857475 10.8653326 1.274943709
15.9623394 10.86524868 1.9680866
15.0697794 10.21450233 2.559961796
16.24396896 11.08859634 3.41223979
15.43401623 10.50256824 3.966802835
15.18029308 10.32286358 4.596633911
16.12224197 11.02789593 5.568066597
19.95274162 13.67560387 0.5333777666
16.01282883 10.81661224 1.970100045
15.1596756 10.19957733 2.567223072
15.76549721 10.65095711 3.329727173
15.48608208 10.45811844 3.970674276
15.22210789 10.27230453 4.598659992
16.12090302 10.94067287 5.556854248
20.04722023 13.63759232 0.5344558954
26.85651207 18.588974 1.606921196
16.13747978 10.8217392 1.977600932
15.41070461 10.30123138 2.593370438
15.78617668 10.58198929 3.327916622
15.50294113 10.38788509 3.967357635
15.27166557 10.22736549 4.6026721
15.92267799 10.7103014 5.487644196
20.18548965 13.6306591 0.5350008607
27.04429817 18.58168793 1.612782955
16.24453735 10.81329918 1.983810663
15.40267467 10.21368694 2.589154959
16.35805702 10.91128349 3.414677143
15.42516136 10.24947643 3.94473505
15.89766121 10.59934235 4.750412941
15.8570013 10.57842541 5.45785141
20.30769157 13.61129951 0.5357705951
27.10876083 18.48493004 1.614903569
25.32384491 17.22739983 2.649809122
15.50590038 10.20633984 2.597977638
16.17483521 10.69362545 3.380108595
15.32416344 10.09564018 3.917516232
15.94362259 10.5485363 4.75330019
15.8964386 10.52322483 5.459150791
20.40715599 13.57507229 0.5368408561
16.62505341 10.91255665 2.008472681
15.43240643 10.07262611 2.586204529
15.81417656 10.3520565 3.317335844
15.31710148 10.01017666 3.909605265
16.44913292 10.82530689 4.870296478
16.0607872 10.55714512 5.497140884
20.4968071 13.53141975 0.5380468965
25.25517464 16.91348076 2.639748812
15.40371227 9.971709251 2.579718113
15.78179455 10.24656582 3.307260275
15.3724556 9.969324112 3.914471626
16.43829536 10.73176861 4.858969688
16.19063759 10.56531334 5.524939537
20.57657242 13.48043156 0.5393868089
25.51321602 16.96274376 2.656210184
16.32022476 10.53381443 2.683064938
15.85603428 10.21659279 3.314257145
15.84109116 10.21842098 4.00326252
15.37635326 9.900341988 4.587965965
16.36528397 10.60405064 5.565769672
20.68580246 13.44959545 0.5403860807
25.72271729 16.9762516 2.669116259
16.18981934 10.35865402 2.664708138
16.03443336 10.25873947 3.337834358
15.64634132 10.00079346 3.957352638
15.44729519 9.870325089 4.597567558
16.63929367 10.71072674 5.635442734
20.7753067 13.40454865 0.5416378975
25.7009201 16.82865334 2.66513133
16.19275665 10.27728844 2.661880493
16.09583282 10.21861744 3.342792273
15.5557518 9.857601166 3.932734728
15.50853825 9.833259583 4.604800224
16.72713852 10.6860342 5.650770187
20.88950729 13.37598991 0.5426139235
25.78382492 16.75362778 2.668834209
16.20353699 10.20166588 2.660002708
16.00477791 10.07780361 3.323851585
15.59772968 9.8067379 3.935013533
15.78781509 9.945756912 4.665617943
21.0443058 13.37965965 0.5430215597
16.8622551 10.57134724 2.733074427
16.05746269 10.03204346 3.32752037
15.60183048 9.733990669 3.930011272
16.63451958 10.44698906 4.865754604
21.17530251 13.36089611 0.5438477993
16.6726265 10.35763931 2.708067894
16.01143265 9.919427872 3.315633059
15.54208851 9.614392281 3.911936045
16.67193794 10.38795185 4.866747379
21.61234665 13.5459013 0.5412083864
25.71806908 16.32313347 2.657366514
16.29153442 10.01791573 2.661158085
16.07845497 9.883482933 3.321647406
15.54395008 9.537129402 3.906338215
16.69125557 10.31675625 4.863377571
21.73264313 13.51683712 0.5422363877
16.41717529 10.01953506 2.672614574
16.08599091 9.807647705 3.318324089
15.58320999 9.485153198 3.908301353
16.77549553 10.28907967 4.875905514
22.38415718 13.83686543 0.5373460054
26.02218437 16.2654438 2.675117731
16.77396584 10.17288876 2.710567713
16.07499695 9.719854355 3.312143803
15.68317604 9.473302841 3.922439575
16.7339077 10.17762184 4.857839584
22.55266571 13.83524799 0.537940681
26.11009979 16.19322777 2.679372549
25.29670334 15.67384529 3.683135033
16.09011841 9.649675369 3.310121059
15.68430424 9.395908356 3.916853905
16.89977646 10.20329857 4.890268803
22.83216667 13.90446186 0.5373498797
35.06302261 21.85409355 1.86254847
26.3414135 16.20738029 2.693931103
25.31567764 15.56063843 3.68088913
16.43568802 9.794775009 3.359863758
15.70172024 9.325597763 3.914297104
17.06137466 10.22069645 4.921207905
23.00906563 13.89969444 0.5380542278
35.12358475 21.71977234 1.86495769
26.67424202 16.29174423 2.715938807
16.76976013 9.916304588 2.701163769
16.63586807 9.842904091 3.386762619
16.54046059 9.790283203 4.075339317
16.98606873 10.08780956 4.895195484
23.19117737 13.90838909 0.5384838581
25.83895493 15.6127367 1.580591083
25.89972878 15.66510963 2.657971144
25.05374146 15.14333344 3.642402172
25.07372093 15.16955948 4.69849062
16.73982239 9.841012955 4.109288692
16.95105553 9.98606205 4.879448891
23.3626709 13.9033947 0.5391864777
25.9086628 15.53667259 1.583150864
25.31391335 15.1725893 2.613867998
25.05381012 15.02069759 3.638228655
16.85022545 9.82017231 3.4116714
16.80012894 9.797509193 4.115328312
17.00831985 9.939658165 4.885671139
23.48612213 13.87272358 0.5402994752
25.26154137 15.0161438 2.608239889
17.05116463 9.855730057 2.725022316
16.459692 9.491454124 3.346638203
16.23323822 9.361346245 3.997664928
17.12157059 9.932644844 4.905772209
23.57996368 13.81716919 0.5418692827
26.7068615 15.80367374 2.710587502
17.04956245 9.771960258 2.722078085
16.4332962 9.399023056 3.338587046
25.49904251 15.09589386 5.821164608
23.79184723 13.84004688 0.5421085954
35.45868301 21.08783913 1.878317475
26.64603233 15.63678837 2.704338312
16.95614052 9.635602951 2.708906412
16.47895432 9.348018646 3.341562033
16.33213425 9.269694328 4.006318569
23.87638474 13.77163887 0.5439450741
25.51011848 14.80892944 2.620877981
17.02660751 9.593342781 2.714080572
16.52790833 9.294983864 3.344876766
25.89255333 15.09317684 5.881340027
24.0247879 13.74758339 0.545021534
25.56728935 14.71544647 2.623186827
17.13423157 9.577584267 2.723607063
16.55464363 9.232180595 3.344994307
26.05802345 15.06439495 5.904819965
24.17072868 13.71536255 0.5462790728
25.56166267 14.59002113 2.621109486
25.36268425 14.48319435 3.649289846
16.7472229 9.270200729 3.370733738
26.22087669 15.0391655 5.928217411
24.30308533 13.68560219 0.5474374294
74.67552185 43.96099091 3.090903521
21.95088577 12.29732704 2.360708475
25.49680901 14.44946861 3.660792112
16.8196888 9.234326363 3.377936363
26.23249245 14.92791462 5.922437668
24.95355606 13.95783043 0.5436851382
21.28639793 11.80205441 2.311824322
25.53450966 14.35135555 3.661272049
16.91252327 9.210289001 3.388292074
26.21930313 14.79596806 5.911482334
25.26528168 14.02427578 0.5433421731
21.4111557 11.77556992 2.319450855
25.41771317 14.16180897 3.644435644
16.98834038 9.175610542 3.396045685
26.29199409 14.71569061 5.91739893
25.4621582 14.02098274 0.5441586375
21.27263069 11.59368896 2.308273554
25.5109787 14.09737492 3.651272535
22.67754173 12.44410801 4.264443874
26.38483429 14.64711094 5.927300453
25.61782646 13.99237156 0.5454018712
21.2659111 11.4903183 2.306557894
25.42354965 13.92716122 3.637883425
22.6739254 12.33605194 4.258820057
25.74762344 13.947855 0.54691571
21.55252647 11.55697155 2.325809956
22.4319706 12.07779884 3.299388409
22.72473526 12.25999165 4.261589527
25.80624199 13.86190891 0.5491099358
21.63552284 11.50459862 2.330539703
22.50963974 12.01839542 3.305022717
22.46412086 12.00495434 4.21686697
25.92023659 13.80730534 0.5508064032
21.58654213 11.37680149 2.325886965
22.53181076 11.92707539 3.304487705
22.46040726 11.89914703 4.211486816
26.06204605 13.76779747 0.5522710085
75.82665253 41.82115173 3.141343117
21.53866959 11.25047588 2.321349621
22.73041534 11.93562031 3.32368207
22.53734589 11.83938026 4.218455315
26.18642807 13.71772766 0.5539166331
21.54593086 11.15581799 2.320770502
22.58375359 11.74932098 3.304397106
22.71223259 11.8394413 4.240584373
22.47098732 11.73565102 6.057433128
26.2732563 13.65216351 0.5557770729
21.82993126 11.22007561 2.339953184
22.97500992 11.86889458 3.345223665
22.7539711 11.76423168 4.242490292
22.55668068 11.6861372 6.06973505
22.78276634 11.6200676 0.5888573527
22.78712082 11.63516808 1.496791363
22.30691147 11.38853168 2.372851133
22.74154091 11.64087391 3.316530466
22.93996429 11.76349449 4.266084671
22.15758514 11.3627491 5.968316078
26.44721794 13.51423168 0.5596746206
22.83239174 11.55658531 1.498868465
22.37261772 11.31828976 2.376422167
22.77789307 11.55774212 3.317771673
22.56454468 11.45403194 4.20465517
22.80210114 11.59748936 5.169834614
22.2532959 11.31000042 5.98240757
26.53154755 13.43435287 0.5618759394
22.41143417 11.2383194 2.378162622
22.82134628 11.47337246 3.319703579
22.47995758 11.30629539 4.187425613
22.70993996 11.44455624 5.145924091
22.58947563 11.39267254 6.052979469
26.61419106 13.36523724 0.5638259649
22.40071678 11.13178825 2.376417398
22.79360199 11.36098576 3.314056635
22.69658089 11.32194233 4.215791225
22.79367065 11.39279652 5.156160831
22.45542526 11.22390079 6.014358997
22.35756493 11.18491268 6.924313068
26.69384575 13.2882576 0.5659534335
22.41388702 11.04346275 2.376443624
22.95363617 11.34426498 3.329119205
22.69848824 11.2213459 4.2117486
22.77160454 11.27895069 5.145879269
22.57819176 11.18917084 6.035228252
22.32010078 11.06483078 6.904705048
26.92721367 13.29201794 0.5668338537
22.64408493 11.06504631 2.391826153
22.81295586 11.16740894 3.310931683
22.75253296 11.1487093 4.215625286
22.79257393 11.18852043 5.143918037
22.9034481 11.26124001 6.103107452
22.31641197 10.96339703 6.89448595
27.07230186 13.24801445 0.5684732795
22.58473778 10.93323135 2.386719465
22.91280937 11.11836815 3.319402695
22.93446732 11.14314461 4.238792419
22.79922485 11.09074688 5.139295578
23.02142906 11.22164536 6.122833729
22.80410385 11.12145424 7.018651009
27.16591454 13.17648411 0.5705505013
22.54423904 10.81210136 2.3829813
22.98611259 11.05498695 3.3249681
22.87223244 11.00916481 4.22525835
22.43305397 10.7988081 5.06368494
23.04215813 11.13057995 6.120075703
27.29494095 13.12274075 0.5723645687
22.5705986 10.72612476 2.384005308
23.06809425 10.99581432 3.331522226
23.24794579 11.10225296 4.277556896
22.62565231 10.79946136 5.094710827
21.98386383 10.48100471 5.868043423
28.154562 13.44046879 0.5685168505
22.55574799 10.61922073 2.382144213
23.16057587 10.94163895 3.339262962
22.71050644 10.72490025 4.192865372
22.39388466 10.58115292 5.045040131
28.22159576 13.35699654 0.5707823634
22.54734802 10.52101421 2.380807638
23.18878174 10.85951233 3.340076685
23.49094009 11.02666759 4.306003571
22.59659195 10.59107018 5.078331947
22.23079109 10.41870403 5.91134119
28.36596489 13.30592155 0.5726184249
22.62809563 10.45811653 2.385721207
23.22405815 10.7759552 3.341587305
22.72432327 10.55189228 5.096838474
22.23654175 10.31974888 5.905400753
23.0292263 10.73938847 7.035434723
28.46800804 13.2267971 0.5749452114
22.54590607 10.31868935 2.37919426
42.95195389 20.49962234 5.50658226
22.78131294 10.48152161 5.102237225
23.02382469 10.63658237 7.025278091
28.45009995 13.10057163 0.5778785348
34.33275986 16.01581955 1.870734334
23.46542549 10.67451477 2.443385839
42.27269363 19.9869957 5.428016663
22.97747803 10.48492718 5.134282112
23.03192329 10.54086399 7.01888895
28.60305214 13.05209255 0.5797104836
23.63616562 10.66165829 2.454771996
42.00519562 19.67321396 5.394613743
23.46789169 10.62656498 5.22164011
22.41422653 10.12290382 5.926270962
23.05880737 10.4546833 7.017683029
28.68399429 12.96787453 0.5820870399
34.47131729 15.78639507 1.87767756
41.33768845 19.14370346 3.702178478
41.94729233 19.46414566 5.384313583
23.08912468 10.32202721 4.226680279
23.79112625 10.68292427 5.27730608
22.40796661 10.02338696 5.918232918
28.83142853 12.9152441 0.5840075612
62.6543808 29.16129875 2.771295071
41.52218628 19.05480957 3.714068174
41.69296646 19.16163635 5.352600574
22.44023132 9.910280228 4.126490116
24.01203346 10.68744659 5.313617706
22.3183918 9.883972168 5.891237259
29.04026031 12.89094067 0.5855277181
78.41537476 36.38811111 3.27334094
42.17495346 19.17899895 3.758938789
41.58974457 18.93399811 5.337545872
22.51501274 9.849991798 4.134125233
24.10538864 10.62427139 5.325634003
22.39602852 9.820971489 5.902255535
29.14671707 12.81084728 0.5879401565
42.48861313 19.12196922 2.13614583
41.71738052 18.80807114 5.347645283
22.46601868 9.730801582 4.123418331
24.21443939 10.57322025 5.340908527
22.62910271 9.84096241 5.949411869
29.27902031 12.7547493 0.5898964405
41.84148026 18.69771957 5.35777998
22.48642731 9.64967823 4.12324667
24.32324982 10.52660942 5.356426716
29.30961609 12.65091991 0.5925526619
59.85622025 26.81122398 2.692065239
35.16674042 15.40842533 3.262829065
41.73424149 18.47948265 5.342717648
22.40051842 9.514458656 4.107201576
24.37659645 10.45360184 5.361568451
29.59856033 12.65938091 0.5936703682
43.57295227 19.14929771 5.539805412
22.33554077 9.389929771 4.094339371
29.81325722 12.63208008 0.595323801
80.9826889 35.90918732 3.370942831
34.84682846 14.96599197 3.238909245
42.57007217 18.50854683 5.42699337
42.28788376 18.40571594 7.042237759
29.58854485 12.40574074 0.5998073816
79.53542328 34.91724777 3.328128099
41.91697693 18.03479385 5.352513313
42.24052429 18.2068367 7.029334068
29.64942551 12.30894661 0.6024585366
30.61032867 12.78016853 2.939809799
41.99863052 17.89594841 5.358173847
43.14368439 18.43495178 7.156876087
29.72096825 12.21673393 0.6050541401
30.05953407 12.4022646 2.900584459
42.11257553 17.77126694 5.367413044
29.28502846 12.1013937 5.106989861
29.92278481 12.17503357 0.6070284247
29.63758659 12.09224129 2.870492458
29.47891617 12.04063129 3.99121666
29.19950867 11.93598175 5.090329647
30.06735039 12.1134634 0.6092287898
29.49394798 11.90696526 2.860003471
29.54179192 11.94576645 3.995943546
53.44103241 22.37264824 8.655549049
30.1750946 12.03526878 0.6116715074
29.33838654 11.71810246 2.848715782
29.6628437 11.87582779 4.007030487
30.63596344 12.31402016 5.294144154
29.99915886 11.83611965 0.6157584786
29.21491623 11.54457569 2.839720964
29.65013695 11.74818802 4.003646851
29.9177227 11.88095474 5.184765816
30.07477951 11.7445488 0.6183925271
29.25426102 11.44110012 2.842197657
29.81472588 11.69591331 4.019537449
30.10365295 11.84292984 5.208600521
30.17008018 11.66710758 0.6207771897
29.21773148 11.30596828 2.839380264
29.20797157 11.32587337 3.95198822
29.97197342 11.66444206 5.185673714
30.18603516 11.55032253 0.6237636209
29.35001945 11.24730015 2.848462105
29.2592926 11.22784233 3.955725908
29.97639656 11.5499897 5.182979107
30.00087166 11.57925987 6.34847641
30.23456001 11.45323658 0.6264235973
30.28888702 11.49393749 1.768721461
30.25070953 11.49688339 2.911514044
29.63772011 11.27002335 3.994996786
30.20062637 11.520154 5.212383747
30.01050377 11.467206 6.345417023
33.55906677 12.67532158 0.6121152043
54.63658905 21.2363472 2.560032845
30.84986877 11.6233654 2.953429222
29.83265686 11.22890186 4.014338493
30.11296654 11.36182404 5.196148872
29.98715401 11.33582878 6.336085796
33.65636826 12.57823849 0.6150280833
29.81540298 11.082551 2.880683184
29.79506302 11.09291553 4.008573055
30.36462212 11.34134865 5.229644299
30.10947418 11.26385975 6.353780746
33.83520889 12.51307678 0.6175489426
29.85679817 10.97855091 2.883502245
30.16542435 11.12017155 4.046943188
29.89681816 11.03199291 5.15798378
29.91135979 11.0630455 6.312341213
34.64513779 12.69450188 0.6169973016
30.14666176 10.97240162 2.903797388
31.01762199 11.33485031 4.13736248
29.56363487 10.77995491 5.10615921
30.23088646 11.06916046 6.366581917
34.80237198 12.61627769 0.6197556853
29.68562889 10.67151737 2.871415854
30.20707321 10.89373684 4.048263073
29.51514053 10.64227104 5.096030712
29.80753899 10.78184986 6.283833027
34.92401123 12.52346992 0.6227128506
29.54312897 10.49754906 2.861428499
31.09222412 11.1148262 4.142253876
29.51780319 10.52508545 5.093442917
29.77033424 10.64805508 6.272443295
35.03981781 12.42786217 0.6257196069
29.50790977 10.36602306 2.85900569
34.96232605 12.47087288 4.558125019
29.70321083 10.47821236 5.117562294
29.84848404 10.55918598 6.28238821
35.20405197 12.34991074 0.6285300851
29.67002869 10.3096447 2.870469093
35.06232834 12.36938763 4.567275524
29.6792469 10.3508215 5.111214638
29.77528763 10.41248417 6.264557838
35.471241 12.30938721 0.6309171319
101.1151276 36.82178497 4.108860016
30.32559776 10.43680382 2.916610003
34.91792297 12.17593575 4.550142288
30.05924034 10.37545681 5.163749218
30.86927414 10.70556259 6.461362362
35.80050659 12.28996086 0.6330897212
101.3132782 36.49382019 4.120758057
30.39842987 10.3434782 2.921876669
31.31511307 10.70244598 4.160573959
30.10534668 10.27345753 5.167704105
36.04925537 12.23897839 0.635666132
30.39225578 10.22100258 2.921630383
31.06919289 10.48845577 4.132797241
30.16966057 10.18404293 5.174499989
36.08134079 12.11534214 0.6390013099
52.36624527 18.02340508 2.515938044
30.42689133 10.11362362 2.924283743
30.97362328 10.33734894 4.12133503
31.36979294 10.50133514 5.346273422
36.03425598 11.95643425 0.6428424716
30.47616005 10.01750374 2.927985907
30.92612457 10.1984396 4.115041733
30.54926109 10.08289528 5.224439621
36.04307175 11.81799889 0.6464538574
30.4461174 9.887210846 2.926163435
31.32056808 10.21710014 4.156338692
30.57570648 9.972449303 5.225752831
36.02115631 11.6690979 0.6501838565
30.42872429 9.761864662 2.92526269
31.6479187 10.20941448 4.190444946
36.16656113 11.81931591 6.034373283
36.00809097 11.52378654 0.6538752317
30.47304726 9.658349037 2.928730965
31.79702377 10.13756752 4.205421925
36.11282349 11.65942764 6.023753643
36.99365997 11.99746418 7.553070545
36.03798676 11.39357185 0.6574080586
37.1848793 11.83939457 3.400799513
31.09160042 9.771504402 4.128616333
35.15880585 11.1974926 5.882886887
36.04444122 11.26253796 0.6608471274
36.13257599 11.33831978 3.327347755
31.1584816 9.679409981 4.134918213
35.10269928 11.04176331 5.872162342
36.08667755 11.13670158 0.6643468738
35.55015945 11.0099926 3.286912918
35.5426445 11.03043652 4.604897499
35.16801453 10.92763329 5.879101276
36.18354797 11.02891541 0.6676726937
36.77170181 11.24629784 2.017807245
35.75413132 10.93997765 3.301823139
35.58552933 10.90713501 4.608553886
36.88375092 11.36211109 6.124937534
36.85087204 11.38283253 7.509954453
36.2363739 10.9063139 0.6711603403
36.83082199 11.12357807 2.021960497
35.76271057 10.80470657 3.303035975
35.68470001 10.80229759 4.61830759
36.81090927 11.19582653 6.111918449
36.819767 11.23041725 7.500230312
36.3744545 10.8110733 0.6743930578
61.06531525 18.80099869 2.837803364
35.77458191 10.67074871 3.3045187
35.961483 10.75456429 4.647177696
35.54260254 10.64218044 5.926155567
36.72809982 11.05882168 7.479577065
36.60188293 10.74353313 0.6773839593
35.85437393 10.55873775 3.31082058
35.9389801 10.60915089 4.643978596
35.49720001 10.4910593 5.917356014
36.60566711 10.87835026 7.45344162
36.84836197 10.68052578 0.6803658605
50.36356354 14.96118259 2.484587669
35.04518509 10.16565132 3.254584551
36.8833046 10.7702198 4.74456358
36.76566315 10.75724506 6.098425865
36.13125229 10.58724308 7.363370895
37.28594589 10.66816616 0.6830487847
50.4336853 14.79018784 2.490037441
34.98995209 10.00761414 3.251480818
36.72785568 10.57347965 4.727170944
36.82632065 10.63564396 6.105027676
35.97342682 10.18375778 3.321500301
36.19877625 10.27690125 4.669836998
37.18364716 10.61278439 6.154623508
36.60994339 10.45978928 7.443327427
35.94099045 10.04362869 3.320015907
36.10772705 10.11809158 4.659542561
36.06351471 10.12854767 5.990979195
36.63167191 10.32705498 7.44383955
35.94423676 9.901099205 3.3211689
36.20836639 10.00426388 4.669807911
35.99496841 9.963939667 5.979109764
36.64349747 10.18451786 7.442482948
37.81218719 10.31186867 3.453850031
36.38874817 9.91367054 4.688682556
36.03392792 9.83223629 5.982831955
37.68609238 10.13176155 3.445964575
36.24065399 9.732480049 4.672422886
36.0819931 9.710010529 5.988030434
36.18281937 9.554891586 3.340928078
36.33444214 9.622733116 4.682148933
49.43804169 13.451478 7.910744667
36.17466354 9.416118622 3.341393948
37.70566559 9.877764702 4.828845024
37.81468201 9.934314728 6.234368801
36.30812073 9.317517281 3.35189867
37.81151581 9.765788078 4.839968681
37.7983551 9.794556618 6.230516911
36.34729004 9.198832512 3.355730057
36.94167709 9.388575554 4.746592522
50.71560287 13.26913166 8.08866787
37.88892746 9.49227047 3.465801716
36.89459991 9.244086266 4.741446495
36.60097504 9.188024521 6.055330276
51.64151001 12.98431206 0.6999815702
36.0984993 8.859243393 3.340490341
37.04242325 9.139211655 4.757237911
50.76812363 12.89418793 8.092409134
52.42281723 12.9886961 0.7042294741
45.13195419 11.12494564 3.980947495
37.02276611 8.988718033 4.755141735
52.64659882 12.86139965 0.708940208
45.22333908 10.98910904 3.988917828
46.05234146 11.27775192 7.410949707
51.35177612 12.34123135 0.7158178091
46.06175995 11.04671097 4.049843788
38.08589935 9.003286362 4.869258404
46.31425095 11.17476654 7.447248936
52.44439697 12.42803383 0.7196068168
46.02557373 10.85779476 4.049070835
45.05694962 10.6489439 5.616561413
46.42251205 11.03065014 7.461537838
50.92716599 11.84397984 0.7269961238
46.16464615 10.72211838 4.060684204
45.37999725 10.55512333 5.651486874
46.69355392 10.92725182 7.499312401
51.62351227 11.83657932 0.7311430573
45.31954575 10.34992409 4.002448559
43.46176529 9.9180336 5.446214199
46.30517197 10.66608906 7.442451
51.63047409 11.65691662 0.7361130714
46.55008698 10.4920063 4.091512203
43.71520615 9.827674866 5.473767757
45.40203857 10.27277756 7.311676502
50.66064453 11.23397827 0.7422237396
44.1159935 9.725311279 3.920654535
43.51983643 9.619181633 5.453295231
45.31490326 10.08424759 7.298268795
51.10773087 11.14327812 0.7472749352
43.9874382 9.532308578 3.913378477
43.76074219 9.508235931 5.479690075
45.1113205 9.860542297 7.268191338
50.20648193 10.74614429 0.7530886531
44.87021637 9.568477631 3.97814393
44.65814209 9.557538033 5.576531887
45.14596176 9.702890396 7.272469044
50.32682037 10.57993412 0.7583799362
45.48560715 9.545084953 4.02391386
43.03633118 9.011859894 5.403315067
49.99580002 10.32106781 0.7636588812
45.67499542 9.412822723 4.039560795
43.02941132 8.852594376 5.4033041
45.79472733 9.511144638 7.364495754
