# .PCD v0.7 - Point Cloud Data file format
VERSION 0.7
FIELDS x y z
SIZE 4 4 4
TYPE F F F
COUNT 1 1 1
WIDTH 1332
HEIGHT 1
VIEWPOINT 0 0 0 1 0 0 0
POINTS 1332
DATA ascii
-10.59502792 54.18021011 0.3332581818
-10.59363651 54.18236923 2.212592125
-9.942079544 50.15382004 3.861104488
-9.728102684 52.08566666 11.27751827
-10.40337563 54.15885162 0.3234532773
-10.42101288 54.3081131 2.20421195
-9.754290581 50.04972458 3.844348192
-10.50926113 56.93694687 6.206380844
-8.911539078 45.86278534 8.400957108
-9.345845222 50.38252258 10.92467022
-11.56816578 64.91023254 2.410246134
-9.766876221 51.55814362 3.917359352
-8.812615395 45.4725914 6.731873035
-8.827307701 46.50253677 8.492596626
-9.287889481 51.40266418 11.11285686
-8.658462524 45.50178909 6.724366188
-8.688856125 46.63116455 8.501876831
-8.893613815 49.45849991 10.71371651
-8.928078651 47.36781311 3.664367199
-8.501535416 45.43682861 6.705625057
-8.520051003 46.56405258 8.478947639
-8.74639225 49.60274124 10.72935677
-8.592060089 44.9314003 0.4249499738
-9.63712883 56.12923431 6.081469059
-8.410528183 46.04499435 6.770989895
-8.366833687 46.63768387 8.478859901
-8.610930443 49.95053482 10.78454971
-8.358348846 44.23331451 0.4274130166
-9.831472397 57.38944244 2.210625648
-8.564031601 47.04024887 3.62612772
-8.253241539 46.06293488 6.762134552
-8.383271217 49.40559387 10.66366482
-8.208579063 44.2617836 0.4187234342
-8.467359543 47.66181946 3.649997473
-8.095890999 46.0803299 6.753278255
-7.964534283 45.83225632 8.325658798
-8.086602211 48.10949326 10.39530087
-8.036937714 44.08289337 0.4133172631
-8.423545837 48.83953857 3.703842878
-7.920249462 45.91150284 6.721232891
-7.811782837 45.88826752 8.323163986
-8.020982742 49.18226242 10.59354019
-7.878930092 44.02469635 0.406034112
-9.019625664 55.27676773 2.135909557
-8.813509941 54.47318268 3.99828124
-8.60061264 53.46903229 5.793125153
-7.753510475 45.82299805 6.699357033
-7.665232182 46.0145607 8.33200264
-7.781112671 48.40393066 10.42784882
-7.778143406 44.54507065 0.3893487155
-8.827361107 55.268013 2.12472415
-8.412987709 53.43980026 5.778584003
-7.632500172 46.22803497 6.738997459
-7.557004452 46.58106232 8.411328316
-7.617181778 48.43798065 10.42199516
-7.53907156 43.63980103 0.3959461153
-8.569402695 54.5617981 2.100557089
-7.708565712 48.91260529 7.061561584
-7.402909279 46.65538406 8.411816597
-7.436980724 48.27779388 10.37820721
-7.389717579 43.64949799 0.3876380324
-8.519296646 56.08486176 2.117810011
-8.152701378 53.39355087 3.906158686
-7.315608025 46.24605942 6.71976757
-7.240821838 47.9016571 10.29238987
-7.247797966 43.65802002 0.3797499537
-7.968048096 53.28182983 3.889609575
-7.875116348 53.62999725 5.759982586
-7.07801342 47.92794037 10.28548527
-7.088685989 43.55112457 0.3734132051
-8.744153976 63.2517395 2.225498438
-7.781589985 53.24985123 3.876818657
-7.706217289 53.83252335 5.766117096
-6.941215515 48.19968796 10.32716179
-6.928273201 43.32544708 0.3695639968
-7.956528664 56.19392014 2.08698678
-7.858533382 56.45401382 4.03564024
-7.388830662 51.97961044 5.592051506
-6.961913586 47.81046677 6.881443501
-6.78488636 48.33462143 10.34156799
-6.783460617 43.3768692 0.3605656326
-7.734196663 57.39357376 4.073408127
-7.206225395 51.93013763 5.576478481
-6.794379234 47.64848328 6.851287365
-6.778534889 49.02820969 8.733653069
-6.739787579 50.04349899 10.66289043
-6.781383514 45.3662262 0.3174374402
-7.807196617 63.20978546 6.552325726
-6.625218391 47.68912888 6.84509182
-6.563362598 50.1098938 10.66308498
-6.623435497 45.33534622 0.3094838858
-6.609745026 45.16231918 1.863916755
-7.646111488 61.92237091 4.286241055
-7.673326015 64.49393463 6.650858879
-7.112168312 57.81241226 8.075862885
-6.412439823 50.32342148 10.69313335
-6.45343399 45.00411987 0.3073593378
-6.450010777 45.0912323 1.853864431
-7.468045712 62.30708313 4.294189453
-7.136250973 59.26639557 6.182569504
-6.214658737 49.87245178 10.59377861
-6.291586399 44.8862648 0.3010556996
-6.309260368 45.18870544 1.847137332
-7.278418064 62.71987915 4.302841663
-6.633686543 54.19161224 5.729183674
-6.097228527 48.72743225 8.641730309
-6.046289921 49.76134491 10.56114864
-6.159448147 45.27422714 1.839744687
-7.084589005 63.10817719 4.31010437
-6.456843853 54.19459534 5.71860075
-5.918799877 48.50482178 8.595726013
-5.820296288 48.79548264 10.36223507
-5.995708942 45.25985336 1.830245018
-6.887529373 63.68796539 4.326448917
-6.094227791 50.97038651 5.427989006
-5.644268513 48.78592682 10.34862614
-5.763319969 43.9368515 1.799495935
-5.810425282 48.89059448 5.237544537
-5.613544464 47.02898026 6.702522278
-5.476519108 48.77136612 10.33473587
-5.61440134 43.96658325 1.791442871
-6.46451807 64.25853729 4.329170704
-5.735836983 50.97344208 5.406573296
-5.468626022 47.41009521 6.738731384
-5.319661617 49.0407753 10.37568665
-5.453550339 43.73810196 1.779295564
-5.837114334 54.87799072 3.840080738
-5.463519573 48.60450745 5.192840576
-5.305673122 47.39396667 6.726772785
-5.155172825 49.14088058 10.38404942
-5.293392181 43.48704147 1.766896963
-5.616600037 54.0720253 3.788373709
-5.290104866 48.42068863 5.167169571
-5.14342165 47.39312744 6.716742516
-5.043199539 50.96603012 10.72408485
-5.156705856 43.79689789 1.763282776
-5.092064857 47.47743607 5.076788425
-5.026722431 48.82065964 6.879039288
-5.057900906 53.36170959 9.290040016
-5.262874126 54.03596115 3.766157866
1.080135465 52.32366562 6.971182823
1.079574823 49.84426498 10.1932106
1.156778574 50.05899429 8.456207275
1.218456507 49.50482941 10.12343311
1.122195244 50.18870544 4.970112801
1.372432113 51.70011139 6.884241581
1.372558117 49.42407227 10.10217381
1.13738513 49.62858582 3.205192327
1.29269278 49.01740646 6.570855141
1.472767115 49.68495178 8.38561058
1.555463314 49.46057892 10.10212994
1.006409526 47.65183258 1.473643661
1.31383419 49.68014908 3.198690891
1.458864212 48.98763657 6.559995174
1.764110923 49.81206894 10.16086769
1.500230193 49.90883255 3.200222731
1.663194895 50.38981628 4.961068153
1.63330245 49.03634262 6.558109283
1.957010388 49.99850082 10.18906879
1.824253201 50.26720047 4.943337917
2.122614622 50.96056747 8.555194855
2.091228008 49.73560333 10.13451767
2.206659555 54.34473038 1.497122049
2.159509182 52.78770065 3.305155993
2.055060148 50.85645294 4.981408119
2.615228176 53.68969727 8.954339981
2.270959139 49.79962921 10.14027023
2.405158758 54.4359169 1.487617016
2.343859911 52.79986572 3.296491623
2.491129637 53.12175369 5.148873329
2.292043686 49.42208862 8.312774658
2.461153507 49.94501495 10.16114998
1.811327815 47.55952454 1.42895782
2.203579903 50.01462936 3.169952154
2.650096893 52.90727234 5.123788834
2.433018446 49.17520523 8.26958847
2.631181717 49.91984558 10.1506176
2.74506712 54.11154556 1.465036869
2.39439702 50.15953445 3.167394638
2.839450359 52.95360947 5.118960381
3.079462528 53.91653061 7.072123528
2.583749294 49.01821518 8.239897728
2.095129728 47.17999268 1.408692002
3.435340405 57.19563293 3.452821732
3.166965485 53.13336945 6.976288795
2.779367924 49.21395493 8.262627602
2.983553171 49.96330643 10.14719963
2.190701962 46.63235092 1.396351457
3.618146658 57.06650543 3.437601328
3.292750835 53.61383057 5.153042316
3.431607962 53.74163055 7.037086964
2.959657431 49.28339386 8.26668644
3.145392656 49.8758812 10.12553692
2.344967127 46.57262039 1.387290835
3.802752495 57.03315353 3.426911831
3.110593557 49.1964035 8.247970581
3.665916443 52.36804962 10.57909966
2.653078794 46.94180298 3.000581503
4.138628483 57.08817291 5.402380466
3.078551531 48.54043961 6.439473152
3.681643963 52.04341507 8.662926674
2.795554638 46.78977966 2.98634553
3.744472027 52.89960861 5.073903561
3.23443532 48.44740295 6.422372818
3.894053459 51.49234009 10.40720844
3.926605701 54.54550552 1.407400966
2.964332104 46.83124924 2.980105162
4.481273651 56.76414108 5.360517979
3.778956413 50.24085617 8.384274483
1.706935525 35.68172836 7.494989395
3.059847116 46.36180115 2.95304656
3.611176729 48.70811844 6.438333035
3.946039677 50.18528748 8.370165825
1.847113252 35.78909683 7.511176586
3.175259352 46.04841995 2.932505846
4.443201542 53.86077118 5.122704029
4.113420963 50.1330719 8.356654167
1.917361021 35.44488525 7.444484711
3.361819744 46.91862869 1.337503552
3.345303059 46.16275406 2.929768562
5.116807461 57.0191803 5.354001045
4.591934204 52.81587219 6.882937431
4.015557766 48.45899582 8.104654312
2.030472755 35.38233948 7.429641247
3.418569803 46.26895142 1.325974584
3.516435385 46.22586441 2.924563646
4.013195992 47.39441681 7.942538738
2.185552359 35.61553955 7.469313145
3.585583687 46.30191803 1.317527294
3.638073683 45.97252655 2.90667367
4.107326984 47.62081528 6.292153835
4.148647308 47.20914459 7.910057545
2.310642481 35.6219902 7.467272282
3.788858414 46.55940628 1.310100675
3.791259766 45.92405701 2.897067547
4.238703728 47.40675735 6.262281418
4.311213493 47.19133377 7.902310848
5.208611488 51.85028839 10.43858242
3.910894632 46.30677032 1.300326109
4.102140427 46.82933426 2.925404072
4.447813511 48.30634308 4.66525507
4.547031403 47.59819412 7.957008362
3.237735987 38.98901749 9.481398582
4.100352764 46.46811676 1.292395353
4.14685154 46.12111664 2.889601469
4.528770447 47.78756714 4.619262218
4.483665943 46.89922333 6.194096565
4.649278641 47.22808838 7.89770031
2.648595572 35.42547226 7.422093391
3.228670359 38.18208694 9.301437378
4.245017529 46.35857773 1.283310413
4.677443981 48.25491714 2.966049671
5.69575119 53.50106812 5.040323257
4.752755642 47.48684692 6.253268242
4.855359077 47.45011139 7.925375938
2.77020359 35.41280365 7.41688633
3.369772434 38.22152328 9.307814598
3.542812824 38.66409683 10.82069874
4.566555977 47.26925278 1.278187633
4.927471161 48.13633347 4.631509781
4.890957355 47.32575607 6.229627609
5.058802128 47.64791107 7.949540615
2.888210535 35.38035965 7.408141613
3.071335316 35.91640472 8.798809052
3.714803696 38.85455704 10.86836529
4.707827091 47.12667847 1.26887095
5.055037975 48.46302795 2.958252668
4.999843597 47.60106277 4.584668636
6.115943909 53.06559372 6.857359886
2.601614475 33.58470917 5.885666847
3.052816629 35.59509277 7.444683552
3.181840181 35.83525848 8.779010773
4.853205681 47.01123428 1.259701014
5.34874773 49.13111496 2.976275444
6.392836571 54.20057297 5.06936121
6.041269302 51.66888428 6.696982384
2.72800374 33.63029861 5.889074326
3.190350056 35.66026688 7.453932762
3.517709494 36.91280746 9.013946533
4.995323181 46.88156891 1.25052774
6.588886738 54.88353348 3.191485643
5.358481407 47.14863968 6.193041801
3.904740572 39.12625504 6.689678669
3.299623966 35.57808685 7.436328411
3.240165472 34.89060211 8.567927361
5.139009476 46.80800629 1.242010832
5.770647049 49.61206818 2.979539394
5.492462635 47.02241898 6.173885345
3.010336637 33.92419815 5.925981045
3.072282553 33.8421669 7.116883278
3.799504995 37.08505249 9.048412323
3.297696352 34.19624329 9.665847778
5.447529316 47.59631348 1.236029744
7.870174885 59.53121948 3.352519035
5.6113801 47.37031937 4.541371822
6.381858826 50.70700455 6.573608875
3.472921848 35.63368607 6.172513962
3.196892977 33.89850998 7.124979019
4.534682274 40.02774048 9.693037033
3.417522907 34.19300079 9.664357185
5.591056347 47.4667244 1.226812601
8.041098595 59.32305527 3.334833622
6.054213524 48.70271301 4.632931232
7.123117924 53.48398972 6.872619629
3.253714323 33.94584274 5.922958374
3.293997765 33.76126099 7.097582817
3.822650909 35.91165924 8.787528992
3.476030588 33.89900589 9.588184357
7.56982708 55.9284935 3.195880413
5.895722389 47.07278824 4.505970001
6.594582558 49.94391632 6.478023529
3.797106504 35.58624268 7.428398609
4.410077572 38.07544708 9.26116848
3.596987009 33.90458679 9.589184761
7.771135807 55.9369812 3.187123537
6.089719772 47.20059967 4.50892067
6.734022141 49.80221558 6.45716238
3.6616745 34.74052811 6.03285408
3.91758728 35.59001923 7.427008152
4.406546116 37.46569824 9.126033783
4.358243465 36.83739471 10.34318447
8.972910881 61.41788483 1.230323672
7.990760326 56.07975769 3.183910608
6.272101402 47.30781937 4.510686398
7.160478592 49.92227936 10.03804398
4.165113449 35.76253128 8.751012802
4.883383751 38.64215088 10.80713272
8.054998398 56.04018784 1.208788753
8.346606255 56.20410156 5.156867504
6.519681931 47.20870209 6.162878036
3.941281319 34.92119598 6.053465366
3.825088501 34.05688858 7.143523216
4.883971214 38.44100571 9.337723732
3.980453014 34.03342819 9.621675491
8.237922668 55.95657349 1.198158622
6.553228378 47.08568573 4.481956482
6.683943748 47.18807602 6.15550375
4.180943966 35.44109726 6.126276493
4.833691597 37.61594391 9.155632973
4.140444756 34.20357132 9.66543293
8.406847954 55.80979919 1.187455654
9.500631332 60.21780396 3.311044931
6.702878952 47.00038528 4.46942091
6.820385933 47.04266357 6.134581566
4.892304897 38.03028488 6.500009537
4.408997536 35.55475235 7.412719727
4.218675137 34.36746979 8.442046165
4.250620365 34.15384674 9.652750969
9.75071907 60.36764908 3.306940556
7.043233871 47.2808342 6.155564785
4.534092903 35.54738998 7.409589767
4.334267139 34.33797836 8.434815407
4.332381248 33.98480988 9.609492302
8.698306084 55.31958008 1.165967464
6.98163414 46.74470139 4.438345432
7.167141438 47.08201599 6.128974438
7.6086483 48.50630951 8.016062737
4.670957088 35.58941269 7.415533066
4.771692276 35.66101456 8.724336624
4.486972332 34.12309265 9.645388603
8.895000458 55.30794144 1.155595541
7.133621216 46.67550278 4.427183628
7.347945213 47.13073349 6.12941885
7.767030239 48.47440338 8.007982254
4.493904114 33.98310852 8.355745316
4.393141747 33.26295853 9.424556732
9.108421326 55.41080856 1.145838022
11.0597868 63.21906662 3.382949352
7.636689186 48.09509277 4.524093151
7.519314766 47.17288208 6.129440784
7.996570587 48.7019043 8.037459373
4.074862957 32.10963058 6.779218197
4.732298374 34.48406219 8.465156555
4.426958561 32.91854858 9.336493492
11.21317005 62.90002441 3.361256361
10.63440514 59.92487717 5.374961853
5.327113628 37.40328598 5.063833237
8.13293457 48.5397644 8.010471344
5.059906006 35.64105606 7.420360088
4.302240849 32.25834274 7.976683617
4.848585606 34.12693024 9.64799881
9.551680565 55.58812714 1.125140905
10.00932217 56.95724106 3.135487318
5.305160046 37.11304855 3.718031406
5.871539116 39.07290649 5.241275311
8.294989586 48.48489761 7.999148369
5.272583961 35.97909927 7.480456829
4.388397694 32.14125443 7.950735092
5.00880909 34.27418137 9.686653137
9.929688454 56.31592178 1.114905119
4.593751907 34.00390625 2.296980619
5.859201908 38.8162384 3.836222649
5.143919468 35.28570557 6.083199024
4.463510036 32.28022003 6.806496143
4.48645401 32.07321167 7.935633659
4.923917294 33.49207306 9.486251831
10.20094109 56.62851715 1.104886413
10.15689182 55.92598343 3.080828667
6.053795815 39.03357697 3.846970797
5.668643951 37.18173599 5.029096127
6.013598442 38.19645691 6.502524853
4.621493816 32.17094421 7.956974983
5.337563992 34.60932159 9.774735451
10.44545078 56.78223419 1.094229102
10.86961937 57.46164322 5.167535782
5.853774071 37.37961197 5.046983719
5.705143929 36.16897202 7.511318684
4.768214703 32.28757095 7.982542038
4.686478138 31.71153641 9.02999115
10.63530064 56.75514221 1.084094286
8.630076408 48.39209366 2.794835806
4.675222874 32.6162796 3.376771688
5.990965843 37.41270065 5.047242165
6.183276653 37.81495667 6.442634106
5.877192497 36.34896088 7.543004513
6.608469963 38.76607132 9.403216362
5.411205769 33.97641373 9.614110947
8.686469078 48.3583374 1.077412724
8.866392136 48.65771484 2.797095776
6.580850124 39.48098755 3.864908218
4.778283119 32.29841614 4.491392612
6.356265068 37.97510147 6.463641644
4.833369732 31.96602249 6.745504379
5.082369328 32.60722351 8.052886009
5.301801205 33.14685822 9.401797295
8.985007286 48.43292999 2.781561136
4.732586384 31.96489525 3.322351456
4.880098343 32.26377487 4.484878063
7.065861702 40.09505844 6.76799345
4.937652111 31.94500732 6.740917683
6.11192131 35.95209122 8.78663826
6.661492348 37.62630463 10.55659485
9.013400078 48.25868988 1.059335232
9.073386192 48.09973145 2.762297869
4.805559158 31.80541611 3.307074308
6.239310265 36.82418823 4.973593712
6.823191643 38.67189026 6.560002327
5.178881645 32.37846756 6.818896294
5.436691284 33.03007126 8.146241188
5.530320644 33.10290527 9.393371582
9.24100399 48.48167419 1.050485253
9.239878654 48.06366348 2.753574133
4.922102928 31.80943871 3.303519726
6.351299286 36.7675209 4.964405537
7.139793396 39.30488205 6.649353027
6.295076847 35.97478485 7.471556187
5.604475021 33.22010422 8.18834877
5.914069176 34.02894592 9.633518219
11.28022671 55.33715057 1.032916546
9.428435326 48.10798264 2.747685194
7.09865284 39.29644012 3.832760811
5.22182703 32.22815323 4.472541809
5.248185158 32.05569458 5.600187302
6.171985149 35.0753479 7.307522774
5.516066074 32.48576355 8.027832985
6.088434696 34.20280457 9.680085182
9.726812363 48.95281219 1.031566024
10.8440218 52.56989288 2.895290613
5.279220581 32.27882385 3.329454184
5.369811535 32.33607483 4.481405735
5.375081539 32.09067154 5.603611946
6.300727367 35.07672882 7.307209492
6.140331745 34.23396301 8.41193676
6.280974865 34.43365479 9.741471291
11.90763187 56.12278366 1.01075387
5.26897049 32.06591797 2.177980661
5.360191822 32.14863968 3.316401005
5.800287724 33.42842102 4.5960989
7.238696575 38.14785004 6.476331234
7.430565357 38.52301407 7.932598591
5.927304268 33.07844543 8.15920639
7.421972752 37.86807632 10.62874317
10.25190544 49.53300476 1.012059689
11.37259865 53.06141663 2.896014929
5.390101433 31.82305527 3.28938365
6.708434582 36.140522 4.884601116
6.774355888 35.78891373 7.435642719
7.052135944 36.4373703 8.897042274
6.552639961 34.49637222 9.761816978
10.06817245 48.22115707 1.004877448
11.56335735 53.0070076 2.88559413
5.693088055 32.46284103 3.330894947
6.812611103 36.01970673 4.868550301
6.015244007 33.04204559 5.73623848
6.711636066 35.13668442 7.316890717
6.505653381 34.1733017 8.401260376
5.982422352 32.17552948 9.165677071
10.74296379 49.92898941 0.9920085073
11.79091263 53.11184311 2.881048679
5.852133751 32.59754944 3.336641312
5.738582611 31.4860878 6.653792858
7.658570766 37.54562378 9.142429352
6.398972034 33.1462822 9.418319702
10.52981567 48.57435226 0.9858084321
11.86026382 52.71245575 2.85977006
6.179624081 33.29172897 3.381794691
5.872695923 32.01648712 4.433922291
6.837356567 34.96907806 6.011301517
8.075415611 38.74723434 7.972105503
6.504417896 33.11115265 9.4115448
10.47289753 47.8069191 0.9790554643
11.97540474 52.47400665 2.844067574
6.728700161 34.72109985 3.478713751
5.870624065 31.64143181 4.391422272
6.854665756 34.62495041 5.960386276
7.252168655 35.64525986 7.408807278
6.40074873 32.66179276 8.072788239
6.609734058 33.07568741 9.404776573
10.58944798 47.63207626 0.9709392786
12.13644123 52.35889053 2.832205534
13.37711239 56.04533768 4.972389221
7.252449036 35.7612648 4.829944611
7.588418007 36.57245636 6.239668846
5.945756912 31.07081604 6.578226089
6.424697876 32.35402679 8.006502151
6.415637016 32.07948685 9.150190353
10.77384472 47.65343857 0.9618498087
9.173694611 41.80157089 3.967437506
8.21237278 38.40982056 5.110451698
7.711417198 36.53081131 6.232350349
8.11058712 37.53881836 7.752753735
7.248805046 34.55839157 8.49199295
6.538409233 32.09067154 9.155733109
10.98277664 47.75241852 0.9524989128
12.19150066 51.27596283 2.780201435
6.343536854 32.28111267 3.29639411
7.406331539 35.40613937 4.78671217
8.092805862 37.3005867 6.341953754
8.227288246 37.46564865 7.739665985
7.150411606 33.85527039 8.339113235
7.027654171 33.22607803 9.451845169
12.38499546 51.27849197 2.77253437
6.500521183 32.39730453 3.30093646
7.663486004 35.79693604 4.825891018
6.657323837 32.41411209 5.637221336
6.706418991 32.34766006 6.810579777
7.309526443 33.9552002 8.362706184
7.240429401 33.49520493 9.524383545
8.051265717 37.36597443 0.9710757136
7.972775459 36.86994553 2.288933992
6.55037117 32.17649078 3.28196907
6.676954746 32.33591461 4.454088688
6.765235901 32.39244461 5.633168221
6.779593468 32.20252991 6.784552574
8.219729424 36.32209396 8.884617805
7.787164211 34.77864838 9.859178543
8.115246773 36.88323975 2.283860445
6.875281334 32.80592728 3.322299957
9.540930748 40.73294067 5.347332001
7.032509327 32.83535385 5.695986271
8.042716026 35.66162491 7.413149834
8.518212318 36.82671356 8.997419357
7.734440327 34.23459244 9.721827507
9.756316185 41.48311996 2.428994179
6.377370834 30.93670082 3.18892622
6.915296078 32.34284973 4.450519562
7.175043583 32.89333725 5.703454494
7.820402145 34.60039139 7.220932484
8.323789597 35.84211349 8.783037186
7.00301075 31.71099663 9.072285652
8.082632065 36.20003891 0.9549805522
8.430989265 36.99925995 2.276651859
6.464951038 30.85137177 3.179680824
7.734180927 34.42395401 4.669993877
7.23064661 32.69160461 5.673619747
8.160071373 34.96854019 8.593063354
7.063362122 31.53984642 9.03126812
7.982519627 35.48749161 0.9511778951
8.517407417 36.84014511 2.265994549
6.604903221 30.92278481 3.18134594
6.991018772 31.84864235 4.393679619
8.744822502 36.76585388 6.258912086
7.91519928 34.1166687 7.134343624
8.215864182 34.74781418 8.546713829
6.920539379 30.78894806 8.840190887
7.915791988 34.88984299 0.9471279979
12.52227688 48.26821899 2.629556417
9.531143188 39.17585373 3.749329329
7.016165257 31.57158852 4.362189293
7.548877239 32.8987999 5.701991558
7.947338104 33.83766556 7.084412575
8.103341103 34.05024338 8.395500183
7.01355505 30.72280693 8.826462746
8.236196518 35.44442749 0.9378966093
12.75131798 48.39963531 2.626598835
6.767733097 30.71845245 3.160716772
7.015375137 31.22515869 4.323404789
6.725997925 30.18541336 5.311188698
7.543678284 32.32396317 6.810189724
8.428434372 34.60360336 8.519680023
7.110795975 30.66918373 8.816074371
8.286334038 35.19901276 0.9323500991
8.797029495 36.43738937 2.2367661
6.782959461 30.42844582 3.137512445
8.747447968 35.82741547 4.810416222
6.851696014 30.21768951 5.315317631
8.543079376 34.55590057 8.511677742
7.406051636 31.16546059 8.948382378
8.776851654 35.98318481 2.216940641
7.107187748 31.02157211 3.175240278
7.02889204 30.5953083 4.252784252
7.310914516 31.18272018 5.45360136
7.513009071 31.55457306 6.672175407
8.826748848 34.97556686 8.606736183
7.728163719 31.72398376 9.097075462
8.378575325 34.69896698 0.921569407
9.513882637 37.67800903 2.265357733
7.211403847 30.98294067 3.169409752
7.153764248 30.61899376 4.253526211
7.419695377 31.15502167 5.449211597
8.018774986 32.61591339 6.866150856
10.88917446 40.2496376 9.77176857
10.89972305 40.00868988 11.25152969
8.506613731 34.72370148 0.915471971
8.735133171 35.15441895 2.181016445
7.538686275 31.59750557 3.208797693
7.205567837 30.47183228 4.236359596
8.307659149 33.31518555 5.759418011
10.96124554 39.82181168 11.20740223
8.370709419 33.99284363 0.913289547
9.586395264 37.13872147 2.23819828
8.996404648 35.27512741 3.457871675
7.178275108 30.09476662 4.194788456
7.913704872 31.89836693 5.555458546
8.441367149 33.13280869 6.962322235
10.88158607 39.4599762 9.60381794
9.976997375 36.7912941 10.42530155
8.723937988 34.60741425 0.9031981826
11.27427673 41.37100983 2.365065336
8.073842049 32.41249084 3.25843811
7.844443798 31.58494377 4.3510499
7.910998344 31.56204033 5.506881237
8.518346786 32.98116302 6.936109543
9.140849113 34.43699265 8.499083519
8.474034309 32.45597076 9.303302765
8.427783012 33.41892242 0.9034179449
9.339473724 35.67570114 2.181579828
9.259968758 35.25358963 3.449359655
7.701521873 30.86158371 4.272709846
7.99723196 31.45233536 5.490932465
8.687255859 33.07459641 6.954572678
9.272449493 34.41581345 8.497684479
7.765809059 30.26697922 8.73868084
8.577315331 33.45752335 0.8964472413
9.252293587 35.07279968 2.157730818
8.728690147 33.45825195 3.323126078
7.757552147 30.67955208 4.251791477
8.632713318 32.80435562 5.685128212
8.649815559 32.64268112 6.877442837
9.137861252 33.70318604 8.343710899
9.995620728 35.71825027 10.16175556
8.743296623 33.57275772 0.8896007538
9.337435722 34.93856812 2.148507833
8.861884117 33.46811295 3.320537806
8.798838615 33.11195755 4.507668018
10.21415615 36.58925629 6.229020596
8.712111473 32.49300003 6.851658821
9.248434067 33.66797638 8.339037895
8.735973358 33.21002579 0.885550797
9.442224503 34.87552261 2.141769171
9.007483482 33.5261879 3.321419716
8.909550667 33.0658493 4.501192093
8.816143036 32.63789368 5.661171436
10.40517998 36.50502777 7.583892345
9.418359756 33.78373718 8.367818832
9.240387917 33.12203979 9.495700836
9.122968674 33.90153885 0.8747554421
8.505862236 32.10664368 2.052471638
9.439697266 34.32262802 3.372519493
7.940062046 30.2637291 4.203553677
8.743900299 32.14558792 5.590493202
8.921317101 32.39861679 6.837700367
7.691646576 29.11490631 7.338772774
9.416796684 33.25634384 9.535579681
9.76618576 35.24193192 0.8591400981
9.523586273 34.40332031 2.117609262
9.545891762 34.26886749 3.365769148
7.947552681 29.9984417 4.174219608
9.000053406 32.47592545 5.638109207
9.046615601 32.41150665 6.841736317
9.610746384 33.62155533 8.338832855
8.663549423 31.06555748 8.969331741
9.085906029 33.14605713 0.8674381375
9.582521439 34.21091843 2.106842995
9.442834854 33.66854858 3.321835756
7.978277206 29.78139114 4.149977684
9.808960915 33.991539 7.131587505
9.374747276 32.71260452 8.141325951
8.766298294 31.01911354 8.962235451
9.197485924 33.10009384 0.8613671064
9.558437347 33.81223679 2.089938402
9.552488327 33.61254883 3.31490159
9.422545433 33.08888626 4.497848034
9.015680313 31.70980072 6.717595577
8.02358532 29.09248352 7.343317986
9.116598129 31.57462502 9.11247921
9.949119568 34.6608696 0.8430767059
9.67527771 33.77228546 2.083898067
9.041833878 32.0177002 3.203960657
9.521883011 33.01295471 4.488470554
9.350296021 32.39754486 5.627659321
10.42238998 34.83446884 7.289507866
10.2434206 34.19322968 8.476858139
11.5262022 37.07634354 10.55589294
9.505999565 33.22036362 0.8475917578
10.38396454 35.21126938 2.122178793
9.194584846 32.08328629 3.205459356
16.09980202 48.75614548 6.147688866
9.278287888 31.74059677 6.727268219
8.760204315 30.31063271 7.620180607
9.353123665 31.55934906 9.119040489
9.574551582 33.08258057 0.8425591588
10.46487045 35.06849289 2.112913847
9.524801254 32.57834625 3.23593092
9.097229958 31.18904877 5.454759598
9.374158859 31.68460655 6.7190938
10.13684654 34.13396072 0.8274977207
9.970551491 33.53400803 2.062647104
9.728294373 32.77327347 3.246276379
9.413312912 31.83042526 4.360091686
9.201116562 31.14215279 5.44852972
8.329637527 28.91343117 6.215303421
8.529028893 29.21551514 7.384431839
9.757214546 32.89079666 0.8312779069
10.08265591 33.48336029 2.056391716
10.79539776 34.80878448 4.672775269
9.958153725 32.63549042 5.663863659
8.577197075 29.22500229 6.274328709
9.025367737 30.10212326 7.585072994
9.807463646 31.74040031 9.183647156
10.31412983 33.90884781 0.8160970211
9.868004799 32.65656281 2.02749157
9.631103516 31.92740822 3.183665037
9.196548462 30.72620964 4.241574287
10.03115177 32.50179291 5.645307541
8.68279171 29.20005035 6.271978378
8.958767891 29.6711216 7.493265152
9.885238647 31.62766075 9.160078049
10.10289478 33.08856964 0.8166764379
10.00362015 32.6688385 2.023224354
9.204950333 30.63179588 3.093988657
10.05617237 32.25876617 5.611085892
8.740389824 29.06435776 6.249456882
8.590242386 28.55675888 7.249493122
13.13111687 38.72073364 11.02815342
10.24276733 32.92123032 2.025905848
10.41162205 33.14463806 3.259649515
9.088663101 29.91137123 4.153849602
9.656140327 31.04549408 5.437321663
8.847115517 29.04239845 6.247795105
9.003752708 29.23463821 7.404263496
10.28034115 31.94557571 9.255934715
16.99311829 48.46531677 0.6621394753
10.36380577 32.89533234 2.020515442
10.39474487 32.79988861 3.233752728
9.236786842 29.9754982 4.159715652
10.92663765 33.64596558 5.812385082
9.294920921 29.79017639 6.387076378
8.697224617 28.28264427 7.196454048
10.53385639 32.22373581 9.335492134
10.60303783 33.3222084 0.7949801683
10.35191345 32.58014297 2.007088661
10.20849609 32.07554626 3.182587624
9.507882118 30.31570053 4.194666386
9.42765522 29.81847 6.394835949
8.769997597 28.19109917 7.180158615
10.0093689 30.78917122 8.964316368
17.29501343 48.27716064 0.6451660395
10.24505711 32.03983307 1.987116098
10.313797 32.02068329 3.176240921
9.680600166 30.44212151 4.20719862
9.458500862 29.47055626 7.469363689
10.25622272 31.05664444 9.041182518
10.48116875 32.45388031 0.7906672955
10.29763794 31.88108063 1.97834599
10.60113621 32.38691711 3.198122978
10.43824577 31.85066032 4.35454607
9.058631897 28.64510918 5.095299244
9.382649422 29.20228386 6.287176132
10.91460323 32.39031219 8.125208855
10.26563168 30.81627083 8.984115601
10.95205688 33.2271347 0.7768391967
10.72850037 32.55145264 1.992791414
12.50169659 36.30003357 3.455883503
9.738517761 30.03946304 4.163419247
9.224410057 28.75346565 5.111913204
9.642504692 29.52258492 6.348536491
10.23642826 30.64953995 7.741380692
10.38526917 30.80316544 8.987341881
10.93220711 32.88301086 0.7737600803
10.93394947 32.72647858 1.993379712
10.65901661 31.94966507 3.163901329
9.751992226 29.80190849 4.137785912
9.859313965 29.88981628 5.276648045
8.841327667 27.53366852 5.986504555
9.486376762 28.770895 7.326543808
10.86195087 31.56528282 9.194990158
11.85006809 34.6187706 0.7495128512
10.64859867 31.64301682 3.140976429
9.652832031 29.33739281 4.088386536
9.34138298 28.51322174 5.079440594
8.568499565 26.72144127 5.840019703
9.410905838 28.37229729 7.241854191
10.63616276 30.81310654 9.003365517
11.92658329 34.47594833 0.7441267371
12.80215168 36.19021988 2.080481529
10.68807507 31.46237946 3.126609802
9.892443657 29.59325409 4.114706993
9.403790474 28.39725876 5.063908577
8.808151245 26.99777985 5.893518448
9.503130913 28.32124138 7.235117912
9.907139778 29.01802635 8.535722733
12.03762531 34.40921021 0.7379629016
12.08700657 34.33573532 2.024173021
12.12585068 34.25510406 3.309098959
10.48776436 30.59891701 4.219829082
9.389148712 28.11987305 5.025151253
8.748060226 26.63853264 5.830343246
9.651834488 28.38836098 7.25492382
9.99229908 28.94627762 8.523493767
12.17381477 34.39645004 0.7312179208
12.13194275 34.12941742 2.013722658
12.2163763 34.14672089 3.299262047
10.43560219 30.22330475 4.179884434
11.52217484 32.3417511 5.635444164
8.830788612 26.58238411 5.822902203
10.03809261 28.94560242 7.384684563
10.14337158 29.01079559 8.547451973
11.51084709 32.69044495 0.7434540987
12.57088089 34.75586319 2.026119232
11.66342258 32.69024658 3.200402975
10.90096092 30.93279457 4.253953457
9.316649437 27.48777771 4.936584473
9.372611046 27.47422028 5.989966393
10.17085743 28.97174072 7.395638943
11.00174904 30.51793671 8.954123497
11.66973019 32.7389679 0.7363393307
11.72403526 32.68561172 1.964962006
11.76024437 32.6088295 3.192546129
10.98295593 30.83643723 4.243433475
9.22961998 27.07448959 4.878308773
9.740582466 27.9939003 6.088793278
9.519833565 27.4012394 7.048333168
14.52289486 37.38904953 10.78547001
12.55698681 34.30081177 0.7115923166
11.79121304 32.5425148 1.956569552
11.90202713 32.62051392 3.190867424
11.12122059 30.85617828 4.245152473
9.289263725 26.9665947 4.864150524
9.700486183 27.6760025 6.033502102
9.463153839 27.0564518 6.975887775
11.44711208 30.89985847 9.070755005
11.82758713 32.5009613 0.7259722352
11.86785507 32.43435669 1.949389338
12.99965763 34.58232498 3.317610741
10.85869408 30.06072998 4.16134119
12.31747532 32.87145233 5.718560219
10.1609478 28.3693409 6.164659977
10.70884895 29.32200623 7.490309715
11.51829815 30.79603386 9.050624847
11.80999565 32.20025635 0.7233543992
14.00840187 36.51121902 2.054154634
13.47692776 35.25353241 3.359212875
10.92855549 29.96009064 4.150538921
10.5917635 29.13620567 5.180632591
9.796218872 27.41643715 5.992169857
12.9738884 33.58333588 8.454511642
13.3769083 34.20794296 9.96688652
11.91545582 32.1394577 0.7175821066
11.99208832 32.14857864 1.933062911
13.83363819 35.6853981 3.385153055
12.56703568 32.97966766 4.467290878
9.969172478 27.66735077 4.969912529
10.08176136 27.75301552 6.057761192
14.37969017 36.06866837 9.02080822
13.06206131 33.32170868 9.739319801
12.12572098 32.30303574 0.7093545794
12.1008873 32.09455872 1.927215695
12.45010948 32.6318512 3.182222128
13.8112812 35.18078232 4.698159218
10.76077843 28.99711227 5.163946629
12.21631145 31.72072983 6.794201851
10.09443855 27.42326736 7.078799248
13.15343952 33.22395325 9.722185135
12.43244553 32.64152527 0.6985058188
12.2104063 32.0419426 1.921427488
14.26995087 35.96302795 3.398391724
12.73036098 32.76454926 4.44442749
10.93990803 29.10693932 5.181689262
10.50028992 28.1217823 6.132993698
10.20111847 27.40476227 7.080131531
13.76476955 34.12755585 9.972531319
12.51588249 32.53219604 0.6932572126
12.55278206 32.44691849 1.927666426
14.45356369 36.00666809 3.398608923
12.79212761 32.61279297 4.428432465
11.05081081 29.08191299 5.179990292
10.42066288 27.72630119 6.063799381
10.53552628 27.81123161 7.177820683
10.6429224 27.89057159 8.314805031
13.11287022 33.41538239 0.6747261286
12.62062359 32.30911636 1.919634223
12.83034611 32.56038284 3.170723438
12.98499966 32.70214081 4.437798023
11.11864662 28.9737606 5.166315556
10.01160431 26.71858788 5.881017685
11.7082119 29.81492043 7.636582375
11.90433311 30.05202293 8.901023865
12.69019794 32.33074188 0.6826223135
12.65920258 32.11616898 1.910216331
12.80510807 32.24329758 3.147796631
12.98041153 32.43798065 4.410110474
11.4229393 29.31684113 5.218084335
10.10523796 26.6903038 5.879349709
14.1885891 34.26379395 8.649261475
11.98925591 29.96875763 8.887300491
12.72312832 32.12674332 0.6787368655
13.14821053 32.78830338 1.923190951
13.34182072 33.01529694 3.196133137
13.13752365 32.47084045 4.413651943
10.27376652 26.79176903 5.902005196
10.70765781 27.47527504 7.119150639
12.10693932 29.9469738 8.890153885
12.76039696 31.93353462 0.6747737527
13.13255215 32.48963165 1.911058426
13.44708157 32.94446182 3.18933177
13.65675354 33.18355942 4.488607407
11.37569332 28.75525665 5.140974522
10.30227089 26.62974739 5.87586689
10.56557178 26.99170494 7.015555382
12.94788837 31.25967026 9.251434326
12.98525429 32.09761429 0.6659044027
13.70385456 33.31407547 1.927921772
13.28050423 32.36411285 3.149384499
13.70138168 32.99784088 4.469316959
13.08511162 31.71119881 5.572145939
11.00406837 27.71436691 6.081351757
10.90830994 27.40723419 7.115895271
12.98756886 31.09550476 9.216207504
13.12136459 32.10455322 0.6595008373
13.70631504 33.04782486 1.916633844
13.36166191 32.25308228 3.140081406
13.70340347 32.74859238 4.443395138
13.04186153 31.2424221 6.741330624
15.00768566 34.68349457 8.774813652
13.17614937 31.19120789 9.251420975
13.7031908 32.92723846 0.6410557032
13.85726738 33.07353973 1.913026929
13.45297909 32.17463303 3.133042574
13.63515949 32.36028671 4.402935982
13.43872929 31.86403275 5.599397182
11.23527718 27.70701599 6.08835125
10.75887012 26.71518135 6.970775604
14.26507759 32.91960526 9.726211548
18.240448 41.05465317 0.5164340734
18.38939285 41.13830185 2.111222982
14.28201103 33.43334961 3.212779522
14.03628349 32.84519196 4.454190731
13.55605888 31.8230629 5.596152782
13.24945068 31.13489151 6.730957031
11.19622993 27.30135155 7.110178947
14.578866 33.22106934 9.817860603
13.93963146 32.84451675 0.6289026737
17.66499901 39.50187302 2.065001249
18.16252708 40.22361374 3.651390791
12.08547306 29.05904007 4.057018757
14.0149498 32.4088707 5.684024811
10.87216663 26.63267899 5.89678669
14.22283649 32.48065567 8.297037125
14.15318203 32.21798706 9.557049751
22.18021584 47.57074738 0.4021992087
17.75876808 39.35456085 2.055980682
12.43749523 29.59439468 2.959959984
12.19507504 29.03739738 4.055141449
13.93059635 32.00236893 5.627764702
13.31689453 30.77821541 6.67441082
15.28707981 34.12044144 8.678663254
14.19765377 32.04450607 9.520557404
17.87706947 39.25248337 2.048127174
14.50449562 33.06497574 3.183047533
12.55561447 29.45008469 4.098955154
12.47721577 29.17838669 5.219350338
11.06315041 26.56541634 5.892905235
14.11338615 31.6480732 9.423750877
18.00471878 39.16746521 2.040728569
14.63608646 33.03721619 3.179310083
12.59604263 29.29057693 4.082719326
12.51472759 29.01643944 5.198506832
11.16518593 26.537714 5.89229393
14.99400616 33.07993698 8.457856178
14.44133949 31.97087288 9.52177906
18.22467804 39.24556732 2.03734827
16.93217659 36.81340408 3.421500444
12.59700108 29.06369591 4.059448242
12.70939445 29.12988091 5.217873573
11.12420177 26.26162529 5.845285416
15.03907108 32.90127563 8.425448418
18.33436966 39.12813187 2.029200792
16.09945488 35.05880737 3.30598712
12.82428455 29.23235321 4.077789783
12.81954861 29.09462547 5.215632915
13.78725338 30.62930298 6.668271542
15.23860931 32.83924866 9.779520988
18.41557884 38.9618721 2.019912481
12.81473637 28.97842407 4.051800728
12.70365715 28.67161179 5.156815052
13.78485584 30.3894062 6.62889576
15.30012321 32.6916275 9.750782967
25.20717621 50.35803223 2.288536072
12.88442421 28.88526344 4.042685509
12.83449459 28.67390823 5.160155773
13.88232613 30.33303833 6.623691082
16.61709404 34.6516571 10.29637909
25.33896446 50.18887329 2.277694225
12.80597019 28.65494347 2.887807608
12.90791893 28.70334244 4.024315357
13.89850426 30.2494545 5.393732071
15.26933765 32.43143463 7.02365303
15.64712906 32.91991425 8.464875221
15.62231445 32.73178101 9.784992218
16.52294922 34.71184921 3.276118517
12.93136024 28.52329826 4.006184578
14.91261005 31.71578407 5.611749649
15.35261822 32.3229599 7.009520531
15.01608086 31.62255859 8.17524147
15.82479858 32.8182373 9.820506096
16.31010246 34.23606873 1.887601852
12.92528915 28.41784286 2.869570017
12.99164295 28.40663528 3.994763613
14.84047985 31.36646271 5.563968182
15.43741512 32.21766281 6.996055603
15.83965778 32.75158691 8.444018364
17.40889931 35.17991257 10.47808361
13.01525784 28.36192513 2.864607334
12.93118668 28.10177994 3.963529825
15.91074371 32.7629509 7.104946136
17.5017643 35.07903671 10.46295261
19.0880928 38.32962036 1.974325657
13.06467438 28.2390995 2.85537982
12.91756821 27.87759399 3.940817118
15.77458858 32.43315125 5.727647781
15.54919815 31.93892097 6.955818176
16.08328247 32.66730499 8.442937851
16.03327179 32.44406128 9.753407478
16.78476334 34.2497673 1.874466658
15.60279942 32.16983032 3.106108189
12.88542938 27.61530304 3.914171219
15.90200233 32.39541245 5.726020336
14.61316299 30.17416573 6.629424572
16.17183685 32.42374039 9.760273933
16.67617226 33.81248474 1.859820485
13.01348305 27.72112274 2.819379568
13.05952072 27.67941475 3.922005177
16.09688759 32.06316376 9.673683167
23.18851089 44.2843399 0.3189160526
16.21479034 32.80989075 1.832325339
15.78970242 31.98748207 3.091375589
17.33566475 34.20277023 6.000035286
16.12664032 32.14616013 7.015212536
16.22193909 32.02267075 9.675168037
17.13709831 34.05685806 1.856654644
13.50654316 28.10679626 2.841568232
13.1457386 27.41547966 3.89632678
15.31244373 30.7496109 5.495708942
17.18592834 33.58049393 7.294066429
17.73340416 34.16565704 10.27861309
17.2170105 33.94105148 1.849743366
15.14483547 30.50953484 2.994070768
13.21636295 27.33379936 3.888820887
15.38132572 30.64105225 5.483543873
16.33837891 32.01429367 7.003945351
17.72741699 33.91661835 10.22296047
17.46448326 34.07840729 1.848353386
14.91861153 29.93700027 2.956198454
13.35298824 27.35610962 3.892329693
15.39923382 30.44216919 5.458308697
15.69627953 30.78963661 6.778131962
17.50840378 33.47039795 8.68896389
17.4502182 33.94087982 0.4760602713
17.71100998 34.21107101 1.846825957
13.5957098 27.53246307 3.912218809
15.843009 30.77837563 6.783365726
17.51714897 33.77961731 0.4712515175
16.19199753 31.58906364 1.783881903
17.33015251 33.22677612 3.163603783
13.67569828 27.44353867 3.904220343
15.97176456 30.74992752 6.785088062
15.93458939 30.57728195 8.034619331
17.69852448 33.13172531 10.04744053
16.39117813 31.67496872 1.781838536
15.29832649 29.86285973 2.947707891
16.30673599 31.2891655 4.311994553
31.87823868 54.97354126 9.100317955
16.00208473 30.5823555 6.760017872
16.05102158 30.54190826 8.035927773
17.25196266 32.22812271 9.809671402
17.80189133 33.74350739 0.4576751888
18.07198143 34.02182007 1.829355121
15.41812992 29.83757591 2.944966793
15.48880959 29.82505417 4.158724308
16.21353912 30.68997002 6.787513733
16.61151314 31.16322899 8.191742897
17.86810303 33.59529114 0.4530616999
16.42196655 31.2566433 1.764364362
18.14486313 33.74585342 3.19276762
16.41599655 31.0088501 4.285587311
17.37825584 31.95027351 9.760235786
18.00411797 33.54178619 0.4462174475
20.35790253 36.96589279 1.884203076
18.72759056 34.37608337 3.231622219
15.57221985 29.50587273 4.128308296
19.21047211 34.82238388 6.13469696
15.95747852 29.85387993 6.642868042
18.54006577 33.56006622 8.776993752
17.50691605 31.89801979 9.760530472
20.7178154 37.3834343 0.3608308136
18.54036713 33.967453 1.814548969
18.78326607 34.19536591 3.218796253
15.682868 29.45635414 4.124780178
16.00119209 29.69202423 6.619701862
17.85752869 32.18196106 9.854346275
18.26203537 33.4616127 0.4334841073
20.45355606 36.59486389 1.866998315
17.20481682 31.63983154 3.055212975
15.76896095 29.39162254 4.119513035
16.33207893 30.10456276 5.44337225
16.20648766 29.81131935 6.649021626
19.05060005 33.8471756 8.867153168
20.53747559 36.45167542 1.859139323
18.44229889 33.22164536 3.154616117
15.920825 29.40226555 4.122464657
16.41798973 30.01317406 5.43457222
16.73179817 30.23005486 8.025817871
20.60943222 36.2918129 1.850969791
16.67854691 30.40220642 2.974373817
16.67574692 30.27928734 4.217506886
16.39534569 29.76463318 5.402408123
17.37467003 31.06243515 6.905745983
16.88758087 30.23809814 8.038716316
20.06952667 35.24155426 1.824073911
17.95303154 32.03259659 3.076920271
16.73660088 30.16046333 4.206796169
17.01660347 30.44602013 5.509018421
16.07711029 28.98945999 6.514061451
16.94848633 30.12024498 8.021390915
19.2029705 33.74547958 1.788344979
22.2168541 37.95752335 3.452017546
16.90447617 30.18518257 4.211480141
16.94361115 30.13471222 5.467393398
16.20772552 28.96899605 6.517940044
16.39282036 29.11779404 7.794806957
19.61212921 34.0896759 1.791110754
16.57101822 29.60824585 2.921200514
16.96466064 30.06584167 4.200808048
17.46376228 30.65813065 5.550854206
16.11343765 28.64005089 6.461898327
17.40414238 30.22637939 9.390135765
20.57152748 35.22465134 1.810379267
17.51451874 30.74722672 2.992604733
17.13974953 30.09907913 4.206519127
16.33828926 28.75278854 6.491682053
17.21556854 29.86771774 7.994922638
17.44532394 30.08095169 9.363041878
20.67600441 35.11945343 1.803624868
17.59642792 30.64321899 2.985150814
16.75790215 29.35911942 4.129868507
16.50401878 28.79069901 6.506733894
17.38585472 29.90381813 8.014555931
17.46226501 29.89249802 9.324520111
20.78003311 35.01394653 1.796896935
17.13985443 29.79665375 2.930732727
16.69127464 28.84677505 6.525858402
17.49939537 29.84967613 8.013401031
17.56880188 29.82873917 9.321432114
21.17143631 35.30954361 1.798341036
16.97327042 29.35362434 2.901907682
17.58807945 30.09386253 4.212761402
18.48586273 31.10958672 6.974236965
17.08568192 29.07367516 7.83967638
17.19203186 29.10604286 9.130854607
21.44675636 35.45153427 1.796844721
18.46577072 31.08740807 4.321212292
17.4391346 29.46276855 6.66270113
17.06958008 28.84807205 7.797360897
17.19601822 28.91812706 9.091498375
21.71052361 35.56181335 1.794448614
23.0790844 37.30252838 3.403486967
18.50196075 30.9283123 4.306675911
17.30505943 28.86302376 9.090826988
20.9460144 34.39442825 0.3200236559
21.61953735 35.19756699 1.78281188
23.187603 37.19865799 3.396118164
18.0857811 30.14664268 4.22576952
18.82452583 30.92495537 6.965660572
21.55607986 34.8621254 1.771614552
18.38527489 30.45090103 2.968632698
18.99834061 30.95161057 6.979925632
18.1872139 29.64220047 9.344203949
21.73034286 34.85016632 1.766864181
24.2312603 38.08693695 3.450760126
18.52757072 30.32588387 4.250157356
19.15758514 30.94672775 6.988638401
18.32252121 29.61460876 9.352319717
21.93718719 34.88061523 1.762947798
17.74219131 29.17944336 2.887123585
18.95627213 30.68232346 4.291133881
19.19036865 30.77431107 6.964597702
17.76108551 28.67609215 9.098297119
22.08204269 34.83944702 1.757864475
17.97678757 29.28558731 2.893311501
18.38494301 29.71580887 4.190367699
19.43954086 30.88609886 6.996468067
17.65014839 28.4409256 7.770712376
17.86116028 28.617836 9.096583366
22.19774628 34.74702835 1.751583219
19.78271866 31.45100212 3.029593945
19.71587372 31.04120064 7.036578655
17.92524147 28.50318909 9.079488754
22.36309814 34.73178482 1.747029305
25.38734245 38.54652405 3.477178812
19.87399673 31.02996445 7.044616222
18.17248917 28.6333046 9.132539749
26.60703659 40.00028992 1.842609644
37.91428375 54.48488617 4.48281765
19.47484779 30.52636719 4.286030769
18.22789383 28.50706863 9.112347603
26.81664848 39.99007797 1.837241292
18.8713665 29.12346268 9.308185577
40.30967331 56.98339844 2.150317907
36.54533386 51.80464935 6.585262775
18.22613335 28.11574364 9.031653404
41.24628448 57.16692352 9.710689545
18.79972267 28.63718033 9.200679779
44.9977684 61.27598572 2.199611664
37.20065689 51.21952057 6.544785023
42.00009155 56.94792938 9.716529846
46.31933212 62.0438385 2.197475433
45.51477814 60.01689529 4.827631474
44.58630753 57.9018364 2.086378574
44.6607666 56.8140564 2.045892239
45.80519104 57.94286346 4.697897434
44.88353348 56.28759384 2.022452593
44.66414642 55.65032578 2.004659653
44.72647476 55.17306519 9.634442329
44.80691147 55.42842102 1.993845582
46.05476761 56.66413116 4.619488239
44.87813568 54.96487045 9.618074417
44.94725037 55.22357178 1.983724713
45.09397888 54.84729767 9.615292549
45.03203201 54.93851089 1.972008348
45.28158188 54.67926407 9.605523109
46.42661667 54.99463272 1.945293784
46.52648544 54.74420929 1.934687257
47.78022003 55.9083519 4.578709602
46.60338211 54.47034073 1.923784018
47.82530594 55.5932312 4.560054779
49.02236557 56.08961868 9.95421505
48.64118195 54.38417435 7.112027168
57.586483 57.00101089 1.802662134
58.31838226 56.49339676 1.774415374
30.7961731 14.80175686 2.359527349
30.93900681 14.72036266 2.360798836
31.06071472 14.63676262 2.361512899
31.16736603 14.54665184 2.361697912
45.70691681 20.02044296 4.731992722
45.45660782 19.72779274 4.705691338
44.50509262 19.21111298 2.831053257
45.43236542 19.52368927 4.696181297
44.77804565 19.12309265 2.835738659
45.63085175 19.39443207 4.702731133
44.80387497 18.76896667 2.827050924
44.89851379 18.75511551 4.634971619
44.14126968 18.33566475 2.798464537
44.95665359 18.58564568 4.631947517
44.22803116 18.17938614 2.79671979
45.19436646 18.4810257 4.642062664
44.25030518 17.99979019 2.792737007
44.71487045 18.1283493 4.600488663
44.55157089 17.92871094 2.798913479
43.49527359 17.50876045 4.505162716
12.49274254 6.49580431 4.672533035
43.31276321 17.30661201 2.750558376
43.54996109 17.35369873 4.502759457
12.61321068 6.519402981 2.86497426
12.36386013 6.420226097 3.432121992
12.39004612 6.413955212 4.036709309
12.36229706 6.38889122 4.638268948
12.38855553 6.409614563 1.658761382
12.37455845 6.389655113 2.245852709
12.38629913 6.378593922 2.837180614
12.36985779 6.360843658 3.429360628
12.38303566 6.350161076 4.031059742
12.38498402 6.335530281 4.638262749
12.35777378 6.364048958 0.4852720201
12.35409355 6.347806454 1.070899248
12.35660172 6.33681488 1.656136394
12.36336899 6.324189663 2.242845535
12.38267803 6.315822124 2.833885431
12.38125801 6.303401947 3.427436113
12.39816093 6.294075012 4.029549122
12.43900204 6.292743206 4.645277023
12.35970116 6.302827835 0.4851061702
12.34268475 6.282222748 1.070133567
12.36976624 6.279700756 1.655117035
12.39917183 6.274847031 2.243250847
12.4108572 6.263949394 2.834096432
12.36708164 6.243569851 0.4847326577
12.38030529 6.233336449 1.069286585
12.4149456 6.233355045 1.655233145
12.48781395 6.243024826 2.247468233
12.57098198 6.255980968 2.848693132
12.40273285 6.199987411 0.4832746089
12.52721405 6.200568676 2.248376131
12.55934238 6.196499348 2.844891787
43.22597122 16.20684242 2.721950531
12.51902294 6.136222363 2.245685339
12.53417397 6.126658916 2.839381933
43.93321228 16.25600433 2.74232173
12.48409653 6.049122334 2.831221104
43.98377228 16.09917831 2.740156174
44.84017563 16.33048058 4.544876099
45.3333931 16.45392799 6.381282806
42.19664383 15.36079979 2.674711466
43.84436035 15.8406992 4.468250275
42.10938644 15.15881348 2.667858601
42.15111923 15.13224506 4.342124462
45.82043076 16.23335457 6.417690754
43.70963669 15.47900963 2.718949318
45.80999756 16.05225372 6.409004211
43.71224594 14.91143036 4.430693626
45.89268112 15.41278458 2.77823329
42.14453125 14.27390099 4.314840317
