# .PCD v0.7 - Point Cloud Data file format
VERSION 0.7
FIELDS x y z
SIZE 4 4 4
TYPE F F F
COUNT 1 1 1
WIDTH 1317
HEIGHT 1
VIEWPOINT 0 0 0 1 0 0 0
POINTS 1317
DATA ascii
11.59214497 -24.53072357 7.517912388
5.374913692 -12.14402771 0.4294058979
16.21118355 -34.52891541 2.319694281
10.54487991 -22.74810028 2.632885695
10.19008255 -21.97727203 3.392606974
10.45563602 -22.49914551 4.309319019
10.24520016 -22.03728867 5.076991558
10.28032303 -22.0725193 5.940134525
10.54127693 -22.58079338 6.95407629
5.320904732 -12.13655281 0.4313499928
16.1883564 -34.78355026 2.331839561
10.4425745 -22.7307148 2.630348682
10.10159969 -21.98212051 3.390793562
10.30879593 -22.38727379 4.28719902
10.11981773 -21.96632767 5.05738163
10.1851635 -22.07461166 5.933637619
10.58603477 -22.8685379 7.027486324
5.261073112 -12.11616516 0.4336849153
16.41360855 -35.58129501 2.36879015
10.26069832 -22.55429459 2.614362955
10.04788208 -22.06915092 3.39903307
10.13532543 -22.22637367 4.2570014
10.08351517 -22.09012985 5.07704258
10.06324577 -22.0198555 5.91342783
10.50810814 -22.91390228 7.031599045
5.216902733 -12.12358665 0.435046196
16.33378983 -35.74244308 2.376738548
10.26797485 -22.76678276 2.631258965
10.21187115 -22.62014961 3.464475155
10.05420971 -22.25784683 4.258179665
9.991441727 -22.0599308 5.916649342
10.370368 -22.83288383 6.999982834
5.154613495 -12.08636189 0.4377146065
16.53473473 -36.47768784 2.410835981
10.15777969 -22.73007584 2.627153158
10.11727238 -22.61590385 3.461571217
9.910209656 -22.13492775 4.234703064
10.16187954 -22.64620018 5.179190636
9.932329178 -22.11750603 5.924481392
10.23118019 -22.7265625 6.962181091
5.120586872 -12.115201 0.4383814037
16.18382072 -36.04320908 2.391601562
10.07300758 -22.74720192 2.627603292
9.95912838 -22.46335411 3.440570831
9.841511726 -22.18180275 4.238666534
9.958170891 -22.40642357 5.125703335
9.930858612 -22.3095417 5.964549541
10.22611809 -22.91650391 7.007853508
5.091047764 -12.15940094 0.4386451244
16.11736679 -36.22301102 2.400407791
9.952606201 -22.68600845 2.621477365
9.871499062 -22.48150826 3.440389156
9.912724495 -22.5342617 4.292166233
9.849787712 -22.3693428 5.113232613
9.823235512 -22.2834301 5.951574326
10.42322731 -23.55900764 7.180785656
5.040334702 -12.15156651 0.440435946
33.83752441 -75.78236389 4.208093166
9.926512718 -22.83133698 2.632752419
9.752380371 -22.41975975 3.430538177
9.786409378 -22.46757698 4.277583122
9.822386742 -22.50907135 5.136426449
9.831365585 -22.50049782 5.99767065
10.3128891 -23.52799225 7.163944721
4.99657011 -12.15360451 0.4418319464
33.51854324 -75.7371521 4.207259655
9.770588875 -22.68927383 2.619863749
9.730699539 -22.57321548 3.447142839
9.728307724 -22.53044128 4.284371376
9.730325699 -22.50715446 5.131144047
9.822641373 -22.67343521 6.033398151
10.29221535 -23.68362427 7.200156212
4.953301907 -12.1618309 0.4431036711
33.164505 -75.64525604 4.204368591
9.747768402 -22.84342194 2.631904364
9.794301033 -22.91031456 3.486377954
9.654819489 -22.56953239 4.287167072
9.76662159 -22.79230499 5.183570862
9.87597084 -22.99805832 6.105293274
10.15973091 -23.60243797 7.16937542
4.898849964 -12.14423466 0.4451518953
32.86455536 -75.67256927 4.206939697
9.6854105 -22.91007996 2.636599541
9.518324852 -22.49321747 3.433058262
9.681864738 -22.83643913 4.326756001
9.719932556 -22.8944416 5.199220657
10.06396961 -23.63230133 6.25150919
10.1417923 -23.77739716 7.210668564
4.839046478 -12.11354256 0.4475798011
32.52341461 -75.60340118 4.20511055
9.581269264 -22.88151169 2.633310795
9.489592552 -22.63364792 3.448110104
9.641347885 -22.95333481 4.342124939
9.850136757 -23.40197563 5.296120167
9.456792831 -22.46494293 5.964880943
10.10172653 -23.9046154 7.238548279
4.804653645 -12.14140034 0.4482197165
32.160923 -75.48140717 4.200874805
9.995200157 -24.05161476 2.730652332
9.403952599 -22.64462852 3.447330475
9.731443405 -23.37341309 4.406328201
9.549612045 -22.92528534 5.195856571
9.667336464 -23.15689468 6.124884605
10.08173943 -24.07979584 7.279871941
4.754136562 -12.13684654 0.4499025643
16.3450489 -39.46169662 1.090277314
31.44623375 -74.56574249 4.160376549
9.842025757 -23.91758919 2.718510389
9.399039268 -22.85421371 3.470751762
9.536381721 -23.14690781 4.366253376
9.409377098 -22.81188393 5.168498516
9.474012375 -22.93354607 6.065024376
10.00215149 -24.13053322 7.285974026
4.711501598 -12.13964558 0.4512051344
31.12837791 -74.49645233 4.158490658
9.747467041 -23.9186554 2.717725754
9.482701302 -23.26553345 3.518907785
9.412718773 -23.06171608 4.349348545
9.269265175 -22.69597435 5.14074707
9.702040672 -23.67261887 6.23624754
4.658504009 -12.1227932 0.453155756
30.79230309 -74.41647339 4.15619278
9.536569595 -23.64166832 2.693653107
9.395153046 -23.26558876 3.516932487
9.407073975 -23.26569939 4.378782272
9.234693527 -22.82770729 5.162517071
9.556646347 -23.55134583 6.201218128
4.609487057 -12.11495113 0.4548224509
30.46026993 -74.34243774 4.154176712
9.451610565 -23.66183662 2.694515944
9.331283569 -23.33298492 3.523096561
9.3803339 -23.42242813 4.400619984
9.610430717 -23.94524956 5.380791664
9.492038727 -23.62037468 6.211764812
4.539473057 -12.05505657 0.4580137432
20.2912674 -50.31167603 3.053519726
9.456876755 -23.90114975 2.713748217
9.305648804 -23.49392891 3.540679932
9.757702827 -24.5311451 5.492809772
9.680921555 -24.30285835 6.368659496
4.524486065 -12.13017845 0.4572052062
13.30074692 -33.86894608 1.058470607
20.12153816 -50.38946915 3.058032751
9.344034195 -23.85451317 2.709044218
9.41409874 -23.98620987 3.598614454
9.499641418 -24.1665554 4.513265133
9.665761948 -24.54300499 5.490465164
9.657086372 -24.4790535 6.404661179
4.476436615 -12.12362194 0.4587969184
10.79392052 -27.71686935 2.018354654
9.21897316 -23.77592659 2.70168829
9.272936821 -23.86952782 3.582392693
9.41281414 -24.18657112 4.513170242
9.639527321 -24.71678543 5.520356655
9.741485596 -24.9250412 6.504859447
4.434356213 -12.13174629 0.4599473178
13.05489731 -33.92186737 1.063650131
10.68832874 -27.72461891 2.019232035
9.121904373 -23.76527977 2.700038195
9.160723686 -23.82227898 3.574666262
9.282607079 -24.09789467 4.495741844
9.542712212 -24.71721268 5.515827656
9.677364349 -25.00940132 6.518939495
4.3966465 -12.15088558 0.4607680738
13.08243275 -34.33223724 1.069461465
10.60848713 -27.79700851 2.023083687
9.139282227 -24.04354858 2.722564459
9.035074234 -23.7394104 3.562651873
9.208497047 -24.148386 4.500611782
9.409006119 -24.62402344 5.492791653
9.637278557 -25.15532112 6.547676563
4.347515106 -12.14641762 0.462333262
19.27104378 -50.26302719 3.056089163
9.051762581 -24.05849838 2.723081589
9.021288872 -23.95175171 3.586434841
9.104563713 -24.12312317 4.493426323
9.518288612 -25.14717293 5.591985703
9.571288109 -25.25019836 6.564019203
4.313299656 -12.17459869 0.4628767073
12.62122631 -33.58335876 2.290225744
8.963759422 -24.08398628 2.72446084
9.074749947 -24.32950974 3.630382776
9.030440331 -24.18568039 4.500141144
9.463747978 -25.27151108 5.611868858
9.493432045 -25.30323601 6.570773602
4.280351162 -12.20641994 0.4633113146
12.40829468 -33.63171768 1.07057786
12.48912621 -33.58047104 2.290751934
8.89474678 -24.14669418 2.729001284
9.032479286 -24.46483231 3.644902945
8.972864151 -24.27968216 4.512053013
9.360496521 -25.25829315 5.604790211
4.227593422 -12.18572712 0.4652425349
12.28416061 -33.64858627 1.073000312
12.34237289 -33.53781128 2.289452791
8.868453026 -24.32295418 2.743036747
8.959778786 -24.52210045 3.649974346
8.909800529 -24.36063194 4.521906853
4.185465336 -12.19291687 0.4663640261
12.18443108 -33.73059845 1.075983644
12.20727444 -33.52446747 2.289507866
8.818660736 -24.43956566 2.752100706
8.868630409 -24.53077126 3.649183989
8.851855278 -24.45623398 4.534117222
8.804848671 -24.30103874 5.407071114
4.144016743 -12.20183372 0.4674275815
12.08627987 -33.54805756 2.291269064
8.739041328 -24.47759056 2.754619598
8.793431282 -24.58194923 3.653567791
8.89399147 -24.82242775 4.589354515
9.209842682 -25.640028 5.667074203
4.104607582 -12.21623325 0.4683272243
11.96528339 -33.57120514 2.293016434
8.720047951 -24.63848305 3.658623934
8.851035118 -24.96455383 4.608963013
9.129748344 -25.69026756 5.672695637
4.057039261 -12.20791531 0.4698578119
11.86603642 -33.6540184 2.297521353
11.67641258 -33.09059525 3.471526623
8.629398346 -24.64810371 3.658032417
8.767294884 -24.9969902 4.611176491
10.67051125 -30.18977737 6.554434299
3.995536566 -12.15983677 0.4724886417
14.97287083 -42.68440247 2.714722157
10.75302124 -30.87144852 3.285726309
8.851363182 -25.52695465 3.762480497
8.838831902 -25.46095085 4.681852818
9.023498535 -25.94168854 5.713769436
3.953625441 -12.16617393 0.4735806286
18.6955204 -53.65206528 3.22170949
10.52677441 -30.56669044 3.259588003
8.609973907 -25.12130547 3.7117486
8.757993698 -25.5063858 4.686151981
10.80266666 -31.21150589 6.745507717
3.905168295 -12.15981483 0.4750784338
13.46183395 -39.31059265 2.560761213
10.29221535 -30.23062897 3.230878353
9.227697372 -27.1642189 3.956474304
9.540607452 -28.0051384 5.078927517
10.63083744 -31.06329918 6.71145916
3.866549492 -12.17527485 0.4758979678
13.32935333 -39.38411713 2.565033197
10.13465214 -30.10803604 3.219985008
9.264143944 -27.56591415 4.003115177
9.072263718 -26.98044395 4.913554668
10.43751526 -30.84928131 6.664616585
3.829200745 -12.18803883 0.4767226577
13.20609474 -39.4412384 2.568473339
10.00908089 -30.05839157 3.215224981
9.175390244 -27.59634972 4.005077839
10.01718807 -30.0083847 5.38950634
10.27734184 -30.7087326 6.632555962
3.801345348 -12.22911167 0.4767638445
14.14286995 -42.62600708 2.716513872
9.821735382 -29.8251152 3.195200205
9.087802887 -27.63025475 4.007486343
9.923378944 -30.05061531 5.393118382
10.14105892 -30.63446236 6.613589764
3.735476494 -12.15627003 0.4799181521
13.1259079 -40.05255508 2.598369122
9.73065567 -29.87253571 3.198564291
9.651881218 -29.60193825 4.24324131
9.864102364 -30.19564629 5.413002491
10.06825924 -30.74594879 6.631081581
3.696558237 -12.19018078 0.480381459
16.34438705 -50.72128296 1.261812925
12.9766674 -40.12947845 2.60293746
9.61466217 -29.9131279 3.20126009
9.542488098 -29.659132 4.248026848
9.752763748 -30.25542259 5.418830395
10.01416588 -30.98546791 6.672756672
3.662234306 -12.21189117 0.480931133
14.23982239 -44.43173981 2.802968025
9.459831238 -29.76664925 3.188533783
9.795557976 -30.75342369 4.377942562
9.665442467 -30.3193531 5.425981522
9.929152489 -31.0649662 6.684053898
3.605122805 -12.16938877 0.4832696319
13.7029314 -43.26573563 2.749899149
9.388300896 -29.89042473 3.198279142
9.560669899 -30.3678875 4.329865932
9.748907089 -30.90975189 5.516126633
10.16447067 -32.14821243 6.891246796
3.558436155 -12.16537476 0.4846120477
13.54500675 -43.30794525 2.75287509
9.355249405 -30.1543026 3.219662428
9.358286858 -30.10925865 4.296943188
9.645026207 -30.96578026 5.521751881
10.04080963 -32.15877533 6.888593197
3.50724268 -12.1395607 0.4864685535
13.3857336 -43.34576797 2.755657673
9.432664871 -30.77384758 3.270623207
9.207069397 -30.00490379 4.282619953
9.724225044 -31.60030556 5.618460655
9.882742882 -32.06014252 6.864720345
3.475709438 -12.17657661 0.4866325259
13.20527935 -43.28911591 2.754017591
9.06035614 -29.94809341 3.201497078
9.085544586 -29.97412109 4.277262688
9.712215424 -31.93964386 5.668827057
9.897351265 -32.49009705 6.944194317
3.432890892 -12.1771698 0.487762779
13.27745628 -44.05097961 2.790373802
9.222873688 -30.83683205 3.274875641
8.987774849 -30.01879311 4.28099823
9.481281281 -31.57821274 5.609042168
9.790487289 -32.53733826 6.949083805
3.397594213 -12.20249367 0.4882280529
13.39735413 -44.98780823 2.83489871
9.173816681 -31.05183983 3.292277336
8.863731384 -29.97761536 4.274468899
9.401380539 -31.70171547 5.625552177
10.24376202 -34.41756821 7.3107934
3.354770899 -12.20278835 0.4893489182
13.29606628 -45.21026611 2.846283913
9.136590958 -31.31076813 3.313342094
8.964614868 -30.68174553 4.357321262
9.332743645 -31.86478806 5.64830637
10.15274715 -34.54131317 7.330442905
3.300173044 -12.16263294 0.4915238023
12.99132729 -44.75055313 2.825975657
8.908823013 -30.93333244 3.281572819
9.087830544 -31.47834969 4.451215744
9.253458977 -31.99554062 5.666013718
10.13400078 -34.90979004 7.397706985
3.255352259 -12.15488052 0.4928318262
14.59476948 -50.80166245 3.1084764
8.786907196 -30.90673256 3.27896595
9.073583603 -31.82620239 4.491320133
9.016718864 -31.59290886 5.600115299
9.44524765 -33.00941086 7.024244308
3.219397306 -12.17771626 0.4933306575
8.667513847 -30.88730812 3.276976109
8.987335205 -31.93386078 4.502671242
8.641917229 -30.70274353 5.45793581
9.303971291 -32.94373703 7.007484913
3.180069923 -12.18889141 0.4941274822
12.66244793 -45.34503555 2.856853008
8.54834938 -30.8674202 3.274969339
10.34581089 -37.09809113 5.119166851
8.526493073 -30.69449997 5.454100132
9.147595406 -32.82265472 6.980065823
3.119288683 -12.12287521 0.4969164133
9.751403809 -35.58709335 2.403382063
8.394330025 -30.72232246 3.2625916
8.574533463 -31.30327988 4.424267292
8.739117622 -31.84679031 5.631998539
3.068519354 -12.09128189 0.4987949729
12.33340836 -45.36668396 2.860061884
8.356132507 -30.98952675 3.284452438
8.566550255 -31.68697739 4.468747139
8.748952866 -32.30173111 5.700647354
9.241881371 -34.02713013 7.205828667
3.024800301 -12.08455849 0.5000184178
14.43788719 -54.21064377 1.344723105
9.515125275 -35.67728424 2.40931654
8.2034235 -30.84534836 3.27219367
8.659608841 -32.44842911 4.558382511
8.872046471 -33.18045044 5.835549831
9.126589775 -34.06271362 7.208879948
2.985282898 -12.09312344 0.5008396506
14.2331934 -54.19110489 1.347672462
10.9771328 -41.57812119 2.685521603
8.087201118 -30.8313427 3.27075839
8.635269165 -32.79665375 4.598612785
8.810578346 -33.40187454 5.867628098
2.945747852 -12.10154724 0.5016565919
10.92191696 -42.37368393 1.22591126
9.316101074 -35.908741 2.42187953
8.203178406 -31.68762398 3.341541529
8.457931519 -32.58072662 4.571465969
8.956037521 -34.40275955 6.021502972
2.904684544 -12.10402489 0.5026170611
10.74846268 -42.30117798 1.227567911
9.184094429 -35.90425491 2.422563553
8.116222382 -31.79501152 3.350209951
8.344423294 -32.60028458 4.572492599
8.857188225 -34.50434113 6.034851074
2.867595196 -12.12185097 0.5031799078
10.60690403 -42.35003281 1.230499148
9.044225693 -35.86832047 2.421783686
8.398465157 -33.33029938 3.477333784
7.968864918 -31.60982323 4.4529953
8.662231445 -34.23816299 5.990839481
2.822608948 -12.10853195 0.5045233369
8.912632942 -35.8628006 2.422430515
7.769722939 -31.34073448 3.312115669
8.04147625 -32.34177017 4.539138794
7.980091572 -32.0610733 5.648797035
2.782560587 -12.11444092 0.5053713322
12.28507519 -49.80462646 3.075649261
7.739090919 -31.66915321 3.339176893
8.449912071 -34.42698669 4.786690235
7.813723087 -31.86227417 5.615614414
2.739181519 -12.10661221 0.5065560341
10.26083183 -42.35899353 2.728370905
7.903317451 -32.79302216 3.432219267
8.66714859 -35.80390167 4.949660778
7.728507042 -31.98319244 5.632347107
2.698242188 -12.10833454 0.5074911714
10.16276455 -42.58663177 2.74012804
7.725538254 -32.54915619 3.41185689
7.748993874 -32.58007431 4.564095974
7.608208179 -31.96367073 5.627233982
2.65731287 -12.1099081 0.5084216595
9.934023857 -42.2759552 2.726675034
7.446563244 -31.87608528 3.355928183
7.416055679 -31.68546295 4.456390381
7.586435318 -32.35123444 5.685575008
2.609915972 -12.09231853 0.5098668337
9.788957596 -42.30834198 2.729300261
7.292246819 -31.70778656 3.341878414
7.303282261 -31.71420097 4.45874548
7.615501881 -32.96411133 5.778995037
2.571783066 -12.10526562 0.5104967356
9.648292542 -42.39249039 2.734419346
7.222006321 -31.89407921 3.357249975
7.218354225 -31.83802032 4.472510815
7.476737499 -32.90300751 5.767411709
2.522319317 -12.05913258 0.5125294924
8.134382248 -36.83665466 1.187904477
11.18059826 -49.71551895 3.079287529
7.17194128 -32.17352295 3.380364656
7.113097191 -31.87642097 4.476132393
7.370565891 -32.92935181 5.769685745
2.484280825 -12.07177734 0.513148725
7.988047123 -36.77110291 1.189160466
11.08815861 -50.10106659 3.098730087
7.04101944 -32.10296249 3.374480247
6.999927521 -31.85512161 4.472724915
7.67924118 -34.81380081 6.060846329
2.443382263 -12.08081436 0.5138956904
7.841430664 -36.70105743 1.190347552
10.99404526 -50.49045181 3.118382215
6.975899696 -32.32574081 3.392937422
6.907198906 -31.97542572 4.486118793
7.423141956 -34.22449112 5.967318058
2.402294636 -12.07950878 0.5148416758
7.668127537 -36.53400803 1.190516591
7.780602932 -36.61571121 2.467270374
6.916957378 -32.61001205 3.416514158
6.815731049 -32.07876205 4.4975667
7.32791996 -34.37679672 5.98905611
2.353806019 -12.04283905 0.516638875
7.496530533 -36.33747864 1.190224051
7.644066811 -36.58786774 2.466953278
6.820629597 -32.70206833 3.424175262
6.802945137 -32.55086136 4.552917004
7.200109005 -34.35363007 5.983669758
2.316994429 -12.06077957 0.5170974135
7.364666939 -36.32424927 1.191992164
6.750899315 -32.92257309 3.442507505
6.69004488 -32.56453323 4.553750992
8.941371918 -43.16285706 7.349825382
2.276479006 -12.06097031 0.5179795027
6.714471817 -33.31084824 3.474772215
6.568214893 -32.53501129 4.549483776
8.583864212 -42.18686676 7.196203232
2.211247444 -11.93750286 0.521830976
7.103866577 -36.30806732 1.195610762
6.48576355 -32.7674942 3.429811478
6.655147076 -33.52693939 4.666702747
8.444209099 -42.24149704 7.202675819
2.163110733 -11.89611435 0.5236845613
6.967895508 -36.26983261 1.197054148
6.370769024 -32.77222443 3.430315495
6.531876564 -33.50500107 4.663388729
8.192305565 -41.73732376 7.122520924
2.119839907 -11.87808514 0.5249645114
6.844427586 -36.29390717 1.199207902
6.968786716 -36.45664215 2.465815306
6.244273186 -32.71786499 3.425940514
6.375866413 -33.31497955 4.640133858
8.160664558 -42.33187485 7.21287632
2.080449104 -11.879529 0.5257687569
6.698861122 -36.20163345 1.199995041
6.840016365 -36.4571228 2.466864347
6.128807545 -32.7178154 3.426089764
6.275149822 -33.40317917 4.649987221
7.932789803 -41.93275833 7.149183273
2.048383236 -11.9201498 0.5256336331
6.571521759 -36.1685791 1.201365113
6.083073616 -33.05516052 3.454231739
6.175341606 -33.49888992 4.660765171
7.755370617 -41.78315735 7.124264717
2.007572174 -11.90328407 0.5268179178
6.439421654 -36.14208603 1.202891588
6.074581146 -33.63661957 3.502654076
7.575276375 -41.66825867 5.630749702
7.681796074 -42.14467239 7.17870903
1.969402552 -11.92238426 0.5272237062
6.310055256 -36.12888718 1.204562664
5.9757514 -33.74378967 3.511763573
7.483802795 -41.93528748 5.661846161
7.464349747 -41.77223969 7.119399071
1.925951958 -11.91180801 0.5283223987
6.173316479 -36.1084137 1.206226707
7.306793213 -41.91348648 4.189741135
7.142884731 -40.89841843 5.538050175
7.364312649 -42.08125687 7.165654659
1.879789948 -11.8731451 0.5300303102
6.039583683 -36.06665039 1.207533479
7.189376831 -42.08782578 4.204534531
7.010834217 -41.01021576 5.550746918
7.130192757 -41.63639069 7.095220566
1.850727201 -11.92270565 0.5296201706
5.907543182 -36.03226471 1.208914518
7.039550781 -42.07912064 4.20416975
6.869344234 -41.02836609 5.552393436
7.037971497 -41.91288376 7.136702061
1.821059227 -11.98237514 0.5290126204
5.778397083 -36.01317596 1.210466981
6.812551022 -41.60786819 4.165447712
6.713148594 -40.91555786 5.538556576
7.154892921 -43.48895645 7.379310131
1.777309656 -11.96924114 0.5301385522
5.65201664 -36.00941086 1.212193012
6.707827091 -41.86140442 4.18689394
6.597131729 -41.12982941 5.56355381
6.89330101 -42.83058167 7.276101112
1.742446303 -11.99908638 0.530218184
5.513998985 -35.97060013 1.213571429
6.478292942 -41.39152145 4.148348331
6.455307007 -41.14651871 5.565158367
6.578990936 -41.85974121 7.124592781
1.703623772 -12.01726532 0.5306022167
5.379433155 -35.91053772 1.214588761
6.498663902 -42.44962311 4.236641884
6.600507736 -43.04189301 5.78979826
6.442120552 -41.92516708 7.133569717
1.662951827 -11.99715328 0.5317870975
5.25246048 -35.89743042 1.2161659
6.170189381 -41.27389526 4.139519691
6.437448978 -42.91412354 5.774345398
1.618764758 -11.96530819 0.5332692266
5.124502182 -35.87594986 1.217629313
6.071906567 -41.58287048 4.165682316
6.058037758 -41.38418579 5.592498302
6.323103905 -43.09479523 7.312344551
1.580465913 -11.9728775 0.5338357687
5.001722336 -35.84521484 1.218881607
5.900451183 -41.35412216 4.147192955
5.92828846 -41.48743057 5.604549885
1.536341786 -11.92459583 0.5356356502
4.878069878 -35.85054779 1.220654726
5.770142078 -41.45326996 4.155985355
5.747471333 -41.23630524 5.574586391
1.495485902 -11.91206455 0.5366432667
4.742581844 -35.76826096 1.221329331
5.712100983 -42.13582993 2.753815174
5.638133049 -41.54409027 4.164114475
5.614909649 -41.26675034 5.578090191
1.457615376 -11.92119217 0.5371494293
4.612471104 -35.72113419 1.222425818
5.700525761 -43.13741302 2.802917242
5.489520073 -41.51597214 4.162389278
5.562355042 -41.94135666 5.658078194
1.415874839 -11.90043736 0.5383260846
4.506765842 -35.85996628 1.225840092
5.377230644 -41.81997299 2.741361141
5.337011814 -41.45569992 4.158016205
5.428495407 -42.03514862 5.669179916
1.375354648 -11.9035759 0.5389872193
4.366844654 -35.73258972 1.225908279
5.301365376 -42.36352921 2.768647909
5.210852146 -41.59650803 4.170382023
5.293881893 -42.18458557 5.68693161
1.340611815 -11.93809223 0.538898766
4.237217903 -35.73245239 1.227645874
5.264162064 -43.30843735 2.815235376
5.044606209 -41.48068619 4.161476612
5.212207317 -42.70719147 5.749015808
1.302774549 -11.96478271 0.5390170813
5.155660629 -43.65570831 2.833230257
5.007083893 -42.36265945 4.235536575
5.056306362 -42.70804977 5.749231815
1.270219445 -12.00480747 0.5387639403
3.979793072 -35.58361435 1.228955269
5.020880222 -43.7983551 2.841458559
4.875558376 -42.43234253 4.242049694
1.227261543 -11.95332146 0.5405541658
3.856737137 -35.57938004 1.230524182
6.856122017 -61.21080399 3.677043438
6.594948769 -58.82693481 5.606824875
1.186589122 -11.93766499 0.5415656567
6.371963501 -58.75208664 3.561157942
1.147629857 -11.95586872 0.5418472886
3.625362873 -35.70884323 1.235409498
6.166409492 -58.74207306 3.562601805
6.202050209 -58.9880867 5.62252903
1.107490063 -11.94389915 0.5427597761
3.504980803 -35.79350662 1.238185525
5.8582654 -57.83214569 3.520946264
6.149485111 -60.57058334 5.755549908
1.067640305 -11.93377399 0.543622613
5.624746323 -57.50424576 3.507107735
5.983373642 -61.0198822 5.794243813
1.021375895 -11.85382271 0.5460168719
5.409980774 -57.3464241 3.501435518
5.689630508 -60.17118073 5.724867821
6.278558731 -66.0825882 8.526501656
5.22099638 -57.45436478 3.508550167
5.483748436 -60.20635223 5.729139328
6.044033527 -66.03655243 8.521762848
3.50524807 -41.48544312 1.319065094
5.223041058 -59.72068787 3.619604826
5.515007496 -62.90906525 5.955785751
3.356154203 -41.40771484 1.319862843
4.892564297 -58.27344894 3.551898003
4.949489594 -58.84669113 5.618577957
5.596199989 -66.17546082 8.539925575
3.221675158 -41.41660309 1.321695805
4.85258913 -60.25323486 3.649343491
4.781367779 -59.16056061 5.646101952
3.073736429 -41.34182739 1.322503924
4.496566772 -58.24146271 3.554237366
4.510129929 -58.3183136 5.57730484
2.941230297 -41.37371445 1.324622273
4.289330482 -58.16504669 3.552554369
4.318265438 -58.31885147 5.578753471
2.791956425 -41.26799774 1.324991584
4.073564529 -57.8201828 3.53780508
4.123102188 -58.41289902 5.588116169
2.643356323 -41.26795197 1.326841235
3.861926556 -57.94091415 3.54585886
3.934431791 -58.75949478 5.618686676
2.503569841 -41.29486847 1.328954577
3.676040173 -58.00712204 3.550991058
3.838105202 -60.41754913 5.758778572
2.361876249 -41.29135895 1.330651879
3.496637821 -58.35049057 3.569662571
3.639970779 -60.59549332 5.77532959
2.221664667 -41.31330872 1.332682848
3.362926245 -59.53093719 3.628937721
3.44486928 -60.84640884 5.798027039
3.149137497 -59.37663269 3.623574972
3.222175121 -60.61705017 5.780619621
2.957967043 -59.64851761 3.638898134
3.318573236 -66.67893219 6.28946209
2.755087852 -59.93022156 3.654838562
3.04176712 -65.93786621 6.229579926
1.977301002 -49.35515976 1.449470878
2.65428853 -62.38220596 3.776203156
2.82011652 -66.08325958 6.243796825
1.809668541 -49.40170288 1.452134371
2.532549858 -65.02023315 3.906930685
2.592894316 -66.1124115 6.248329163
1.644771934 -49.28748703 1.452481151
2.325121641 -65.17788696 3.916872025
2.401582241 -66.8175354 6.3094244
1.475399613 -49.2769165 1.454337597
2.133661032 -65.85196686 3.951996803
2.16404748 -66.61415863 6.294576168
1.297412038 -49.25598526 1.456138134
1.888252854 -65.61560822 3.943036079
1.929968953 -66.87042236 6.318406105
1.642977118 -65.31442261 3.930908203
1.686441898 -66.82900238 6.317331314
1.42493856 -65.63918304 3.949218035
1.453140259 -66.71273804 6.309901237
1.201174378 -65.77545929 3.958353758
1.22622478 -66.89452362 6.327526569
1.119923115 36.1700592 1.316164494
1.89477706 34.73223114 1.255999088
1.983690977 34.53559875 1.248712897
2.037112951 34.1335907 1.240632415
2.246525764 34.66420364 1.23647356
2.160417557 33.47157669 1.225474834
2.229190826 33.19961166 1.218300104
2.284147978 32.89314651 1.211411715
2.396340132 32.87675095 1.205287576
2.568351269 33.17837906 1.200155377
2.65365386 32.98509216 1.193161726
2.822697878 33.28647614 1.188196182
2.933013916 33.28107071 1.182340384
3.055739403 33.30747986 1.176252961
3.030687571 32.61450577 1.168597817
3.159641027 32.67965317 1.16269958
3.239160538 32.48295975 1.156008005
3.343254089 32.43192673 1.149921536
3.431990385 32.31219864 1.143756628
3.530039072 32.23711395 1.137688756
3.616093159 32.11103058 1.131595254
3.736983299 32.16329193 1.125991225
3.872910261 32.2527504 1.120091438
4.007223606 32.33191681 1.114149928
4.112011433 32.286129 1.108142614
4.245260715 32.35651016 1.102157474
4.391216755 32.4748497 1.096136212
4.400908947 32.05167007 1.090235829
4.455097675 31.81282234 1.084400773
4.590573788 31.89134026 1.078432083
4.679327965 31.81217575 1.072865129
4.815000534 31.88778496 1.066862702
4.878845692 31.69650459 1.061163306
5.088229656 32.03728485 1.05475986
5.104614735 31.67778206 1.049372911
5.255447388 31.80153465 1.043231368
5.360331059 31.7612114 1.037370682
5.375107765 31.41134453 1.032207847
3.952326298 25.92442513 3.783012152
3.876851559 25.47310448 4.643277645
5.473479271 31.35335541 1.026470065
3.977378368 25.49721909 4.645711899
3.037155867 22.24751854 4.976166725
5.553823948 31.23563957 1.020904899
4.029206753 25.361866 4.625210762
3.105040073 22.2046566 4.968352318
5.65081358 31.1751709 1.015219569
4.127780437 25.394207 4.628973484
4.75000906 27.18741798 5.873113155
5.74105978 31.1121769 1.009851336
4.766171455 27.52807999 2.96632266
4.223674774 25.41671562 4.631360054
4.694416046 26.71192169 5.786858559
5.835124969 31.0622921 1.00445962
3.522079468 23.25907898 2.66467762
4.319253922 25.42242813 4.631328106
3.785015821 23.5875721 5.219672203
5.936010838 31.0161953 0.9987763166
3.630445719 23.3172245 2.666066408
3.403599501 22.45475388 3.40121007
4.48433733 25.64274406 4.662239552
3.170807838 21.41745758 4.825793743
6.040104866 30.96237946 0.9928413033
4.225952148 25.07909584 1.898648381
5.020204544 27.36719513 2.946006775
3.518614531 22.54148674 3.408829212
4.487436771 25.36116791 4.620943069
3.248380661 21.41353035 4.825302601
6.137755871 30.92489433 0.9874423742
4.309546471 25.05027771 1.893997788
3.427970409 22.16704559 2.58092761
3.657169104 22.72275162 3.426700592
4.092686653 23.88130569 4.407264233
3.33673954 21.45347977 4.832815647
6.238018036 30.87778473 0.9817980528
3.559518337 22.330019 2.59001112
3.721871853 22.66413116 3.418940067
4.114891529 23.6824398 4.378028393
3.572345018 21.91782188 4.917477131
3.439912319 21.37399483 5.601987362
6.344933987 30.85124207 0.9760807753
3.683361053 22.45324898 2.596199274
3.737486839 22.46007156 3.395731688
4.168177128 23.57943153 4.36263752
3.502599716 21.47395134 4.837231159
4.33287096 23.74735641 6.125284195
6.446109772 30.80723 0.9704424143
4.627618313 25.16489983 1.886665106
3.701030493 22.2581749 2.580317497
3.817027569 22.44835281 3.393049479
4.290732384 23.68070984 4.376680374
3.594741583 21.50978661 4.844168186
3.54640913 21.22326851 5.571439743
6.549006462 30.76857185 0.9647904038
3.819850445 22.36357117 2.585289478
3.908213615 22.47021675 3.39397049
3.979413033 22.52468872 4.209945679
3.892652273 22.13536644 4.958310604
3.618430138 21.20315361 5.568405151
6.649179459 30.72197914 0.9591838717
4.793295383 25.09850693 1.877170444
3.911509037 22.38726997 2.584612846
4.009426594 22.51990509 3.397877216
3.652944565 21.35048294 4.040686131
3.762992382 21.53194809 4.849207401
3.702823877 21.21784973 5.573095322
6.754358768 30.69018173 0.9535156488
4.652350426 24.41984749 1.851817369
3.984807491 22.34523201 2.579300404
4.068214893 22.44710922 3.388797522
3.611790895 21.00836563 3.991145134
3.862198591 21.57285309 4.857257843
3.83325243 21.34895706 5.603566647
6.862647533 30.6505394 0.9476017356
4.64110136 24.11270142 1.838320971
3.90073204 21.86950111 2.54426074
5.180479527 25.32816315 3.69327116
3.749381781 21.16194153 4.01290369
3.95151329 21.59602356 4.862112522
4.844229221 23.91652679 6.170831203
6.98288393 30.66136932 0.9417184591
4.014980793 21.94783401 2.54733181
4.12298727 22.11808205 3.35123229
3.881260872 21.30672264 4.03345108
3.997461081 21.48787689 4.843183041
4.973498821 24.01007462 6.193414211
7.216958046 31.02401161 0.9344744086
4.058335781 21.87314034 2.540335894
4.304181099 22.41062927 3.381148577
3.967633963 21.34542084 4.038808346
4.063315392 21.46861458 4.840352058
5.236243725 24.5110569 6.305521965
7.199131489 30.6288929 0.9305171371
3.991473436 21.45184898 2.509170294
4.419834614 22.483284 3.387571096
4.287547112 21.98231697 4.130151272
4.115799427 21.3805809 4.82517767
5.352024555 24.55887222 6.318233967
7.290066242 30.54064369 0.9249016047
4.618229389 22.92085838 2.607523203
5.771381378 25.88410568 3.746572733
4.381243229 21.99885941 4.132372379
4.276553154 21.59272003 4.864621639
5.418366909 24.47425652 6.301817894
7.382945538 30.47467232 0.9194688201
4.017511368 21.0748024 2.479092836
6.099485874 26.49506187 3.809919596
5.122535229 23.74097443 4.382638931
5.469995975 24.51906776 5.398052692
4.269382954 21.22384644 5.586504459
7.509657383 30.5002594 0.9134768844
4.118010044 21.12906647 2.48076272
6.180125237 26.43964386 3.802720785
3.962953806 20.47350121 3.912991047
5.539479256 24.45536423 5.387560844
4.347858429 21.22807693 5.589315414
7.604092121 30.45424843 0.9082232118
4.805110931 22.73448372 2.588269472
4.365470409 21.44688606 3.273374796
3.951462746 20.25127029 3.881033897
5.627340794 24.45183563 5.388021469
4.405810833 21.17908478 5.58042717
7.677760601 30.35371208 0.9033433199
4.348386288 21.33021927 2.490628719
4.520985126 21.64761925 3.293635368
4.040382862 20.2811451 3.885345697
5.677672863 24.33992767 5.368863583
5.556066036 23.89365578 6.18255949
8.297013283 31.64577103 0.8883243203
4.414402962 21.27931786 2.485061646
4.694631577 21.86884308 3.315971613
4.788832664 21.97705078 4.129138947
5.744459152 24.25938606 5.35553503
5.557476521 23.65390015 6.132115841
7.889415264 30.26170921 0.8917387724
6.936709404 27.48589897 2.904169321
4.573107719 21.33748817 3.258824348
4.847557068 21.9117794 4.119867325
5.910667419 24.44025612 5.389836311
5.600108624 23.5322876 6.107714653
8.136837959 30.60741043 0.8836807013
5.503583908 23.61418724 2.639346123
4.889196396 21.9340992 3.320949078
4.669067383 21.26636124 4.027245522
4.279889584 20.17632103 4.613901138
5.821563721 23.86421585 6.183633327
4.120944977 19.55721092 5.971189976
8.096103668 30.21718597 0.8809816837
5.258321762 22.78397369 2.581094027
4.715640068 21.30283928 3.25345397
4.437723637 20.49234581 3.916177988
4.349573612 20.16571617 4.613113403
5.856136799 23.72199249 6.154811859
4.214764595 19.60157394 5.985985756
8.203408241 30.18954849 0.8753522038
5.345060349 22.76873016 2.577887058
4.803164005 21.31506729 3.253887653
4.526190758 20.51465034 3.919607162
5.800653458 23.4912529 5.221075535
5.275170803 22.08479691 5.794863224
4.341132641 19.72268867 6.02093792
8.323248863 30.17800331 0.8693050146
5.483856201 22.89143372 2.584115982
4.710564613 20.87809563 3.206936598
4.765286446 20.89062881 3.973937511
4.58383131 20.34363937 4.648214817
4.784816742 20.70648384 5.491856575
4.258298874 19.33467293 5.922978878
8.404067039 30.08472252 0.8642053604
5.565756798 22.87319183 2.580842495
4.709908009 20.68062592 3.18534112
4.53541708 20.14507675 3.867055655
4.603397369 20.20147514 4.62363863
4.825524807 20.6115551 5.473308563
4.650930882 20.08152008 6.121902466
8.504193306 30.03931236 0.8587363362
5.699839592 22.97994614 2.586004257
7.525019169 27.20457268 3.872134447
4.646792889 20.23215675 3.879901886
4.803744316 20.48794746 4.677378178
4.869513512 20.5255909 5.456794262
6.401027203 23.98864555 7.148948193
8.612894058 30.02890968 0.8532713056
5.943156719 23.34362602 2.608433962
5.474612713 22.11568832 3.335112333
5.345989704 21.6892643 4.089841843
4.791699886 20.2814846 4.641076088
4.804141521 20.08112144 6.128904819
8.711247444 29.97909164 0.8478497863
6.000229359 23.27209091 2.601706743
5.525006771 22.02979469 3.325335503
6.761386871 24.78501892 4.535587788
4.798143387 20.1119194 4.61161375
4.900279045 20.2344532 5.397267342
4.567933083 19.35990334 5.943435192
8.817989349 29.94919586 0.8422611356
6.141840458 23.38774681 2.60745883
5.624576569 22.0589695 3.327711105
4.812065125 20.06386375 3.856966496
4.849232197 20.04740143 4.601387501
5.042329311 20.37639427 5.431550503
4.731055737 19.55679512 5.998828888
8.926245689 29.92258453 0.8366441131
8.978674889 29.87831879 1.936446548
8.197153091 27.92137146 2.90897584
5.74352932 22.1315136 3.334681988
6.937074184 24.73604393 4.529746056
4.808578014 19.77514458 4.553198338
4.778452873 19.59827042 5.2611866
5.034092426 20.06369209 6.135842323
9.034462929 29.89557266 0.8310308456
9.086753845 29.85131836 1.931469798
8.177571297 27.60804939 2.885542631
5.977641582 22.46410751 3.369044065
7.035264015 24.73464966 4.530224323
4.846295357 19.67501831 4.536605835
4.673167706 19.180439 5.171032429
5.096774578 20.02594185 6.129909515
9.170101166 29.91726494 0.8246618509
9.244616508 29.93741798 1.92974031
8.342297554 27.73007774 2.891374111
6.12914753 22.59350777 3.382015467
6.309449196 22.88577461 4.264813423
4.880941868 19.57809448 4.520553112
5.102682114 19.97230721 5.350116253
4.784055233 19.16084671 5.906281471
9.27417469 29.89340782 0.8193017244
9.445112228 30.13103485 1.931260824
6.226112843 22.61825562 3.38406682
6.384589195 22.85918617 4.261670113
6.529864788 23.05712318 5.159636974
6.469438076 22.80965614 5.985610485
5.213470459 19.94068527 6.115457058
9.311612129 29.7193222 0.8154239058
9.491241455 29.97499275 1.922839642
6.82008934 23.74206543 3.501706839
6.474416733 22.86483765 4.263212681
5.483732224 20.57323837 4.70633173
5.384849072 20.25674057 5.419239521
5.577201366 20.56430817 6.283847809
9.433153152 29.73508835 0.809691906
9.529087067 29.8025589 1.914005876
6.898933411 23.71546364 3.498393536
6.528874397 22.79261398 4.253581047
5.580137253 20.61214447 4.715311527
5.748608589 20.87548447 5.560362816
5.07978344 19.32719803 5.961659431
9.527098656 29.64879608 0.8041098118
9.677905083 29.83627129 1.910379767
8.862528801 27.8980484 2.893579006
7.017094612 23.74285507 3.500715256
6.602685928 22.73308372 4.245950222
7.75535202 25.09095955 5.539455414
5.107494354 19.29809189 5.211631775
5.558383465 20.16304016 6.187036991
9.62471199 29.6109066 0.7989243865
10.03332806 30.34440804 1.920385599
8.935588837 27.80984116 2.885505438
5.854828358 21.04307365 3.216582298
6.663571358 22.66600609 4.237191677
5.770089149 20.65358734 4.727085114
5.117277145 19.16210747 5.184168339
5.563683033 20.00228691 6.149049282
9.74396801 29.6067028 0.793088913
10.31841755 30.69080353 1.925769806
8.819628716 27.32914734 2.851567984
5.96634388 21.09909821 3.222084522
5.910910606 20.87291336 3.97962594
5.951972961 20.86080742 4.767281055
5.238960266 19.25489044 5.208079338
5.531850815 19.76626968 6.091156483
9.85660553 29.58750153 0.7874059677
10.39333153 30.5810585 1.918483138
8.905692101 27.27374458 2.845773458
6.000906467 20.99080086 3.210355759
6.528378963 21.88950539 4.95859623
5.304517746 19.22865105 5.205430508
6.413981438 21.42616272 6.535264015
9.970966339 29.57149124 0.781683445
10.13546562 29.76788902 1.891938329
5.600692272 20.07402229 2.367672443
6.035682678 20.88429642 3.198851347
6.312306404 21.35513687 4.051086903
6.649395466 21.9547081 4.972971916
6.591819286 21.72327423 5.767939091
5.514712334 19.40047646 6.003435135
10.07938194 29.54237366 0.7761029005
10.25404739 29.75824738 1.887560606
9.100384712 27.21071815 2.837438822
8.48388195 25.79209709 3.713937759
7.926627636 24.50983429 4.507416725
6.16604805 20.77544975 4.758363724
6.65134716 21.66246414 5.758111477
5.5550313 19.32101059 5.987000465
10.17308712 29.48217964 0.7708794475
7.121241093 22.88142967 2.549844027
8.489620209 25.5841198 3.691785336
6.543225765 21.47803688 4.070897579
6.260410309 20.79372787 4.764103889
6.098268032 20.36006737 5.469553947
5.919195175 19.9037323 6.146206856
10.26851845 29.43849564 0.7657702565
10.38701534 29.53487396 1.873525381
9.298295975 27.15343285 2.829598665
6.60667038 21.53386688 3.266299009
6.614838123 21.44348526 4.067044735
6.338424206 20.78673935 4.765129566
6.089247704 20.18152046 5.432954311
6.008789062 19.9187603 6.1551404
10.37052822 29.39566422 0.7603600621
10.47177792 29.45592117 1.867342234
8.619096756 25.4262886 3.674721479
8.480966568 25.02190781 4.585256577
6.828809738 21.59702492 4.917059422
7.34061718 22.50958252 5.960315704
5.793689251 19.32877731 6.003196716
10.47240639 29.35246658 0.7549587488
10.64819813 29.56318283 1.866165519
7.559838772 23.19211388 2.565260887
7.054881096 22.07502556 3.322745562
6.224607944 20.30961037 3.905562639
5.337814331 18.44908142 4.338865757
6.105307579 19.87456894 5.371610641
5.870141506 19.32151031 6.006217957
10.61107349 29.37096024 0.748503983
10.80414867 29.62661171 1.863798976
7.649950027 23.17871284 2.562730789
7.119736671 22.0118084 3.315972328
5.742830753 19.18916702 3.744747162
5.408705235 18.43815613 4.339158535
6.114251137 19.73003578 5.342877865
7.611252308 22.55867004 6.874297142
10.6972208 29.30791664 0.7436444759
10.88082981 29.53027344 1.857196093
5.415065289 18.55939674 2.258153915
8.824325562 25.20028305 3.650541067
5.689368725 18.92761612 3.708090305
5.529649258 18.53211975 4.358768463
6.991384506 21.28202438 5.696564198
7.648136616 22.4466114 6.850413799
10.81055164 29.28676605 0.737966001
10.87026978 29.26252937 1.84611702
5.479809761 18.54244995 2.255832911
7.246585369 21.90807343 3.304931402
5.801080704 18.9912529 3.718508959
7.387825966 21.98002815 4.998914242
7.074943066 21.27059555 5.698256016
7.204508781 21.41492081 6.580873013
10.92300129 29.26338577 0.73231107
11.06910706 29.40826988 1.845939159
9.885389328 26.97320938 2.8063097
8.718504906 24.58209991 3.585557222
6.713242531 20.59698105 3.952288151
5.641300678 18.44901276 4.348297596
7.119428158 21.1841259 5.683067322
6.666833878 20.22114563 6.267490387
11.02450657 29.21821594 0.7269387841
11.29936504 29.61161041 1.847225308
5.602532387 18.47987747 2.249244213
6.326406956 19.78432655 3.082013845
5.940675259 18.95336914 3.715575695
5.627095699 18.27440834 4.318480015
5.743293285 18.40769768 5.059557438
7.409128666 21.45884895 6.604520798
11.14517403 29.2099762 0.7210763693
11.28220177 29.33469391 1.836028934
9.981728554 26.71710777 2.785943031
6.26350975 19.5052433 3.052761316
5.937798977 18.79627991 3.694145679
6.011847496 18.85528946 4.428726673
8.341050148 23.02981186 7.031705379
11.3334856 29.33067322 0.7134498358
11.54053783 29.59919739 1.839056134
10.02135754 26.57489395 2.774899006
6.369251251 19.54892731 3.057416677
6.058420658 18.88102341 3.707738876
5.740451336 18.19769096 4.309415817
5.864994526 18.34438324 5.053028584
7.203818321 20.74730492 6.425581455
11.54204941 29.4990406 0.7054021358
11.82918835 29.90384293 1.84284389
8.46523571 23.42958832 2.568194866
6.542456627 19.72560883 3.076058388
6.104124546 18.81663513 3.699816942
8.380302429 22.96414948 5.197003365
5.898379326 18.26916122 5.039764404
7.387226105 20.92124748 6.478383541
11.46265125 29.10892296 0.7047911286
11.62733555 29.2822113 1.822958231
8.55105114 23.41124535 2.565576315
6.740059376 19.93641663 3.098321199
6.445701122 19.30015373 3.771478415
5.88219595 18.18081093 4.311511993
6.824924946 19.82459259 5.396986485
7.532664776 21.02248573 6.511835098
11.56465054 29.06358337 0.6994270086
11.77348518 29.31751633 1.819893718
5.746923447 18.02966118 2.214088678
6.47112751 19.28303909 3.029896259
6.452765465 19.16138268 3.752863646
5.903456688 18.07764244 4.295085907
8.633110046 22.95673943 6.113398075
7.160954952 20.18593025 6.292936802
11.66936588 29.02314949 0.6939955354
11.87891293 29.2880249 1.815390229
5.821823597 18.02560616 2.21271801
6.22739315 18.68591881 2.967396498
6.585733891 19.26097298 3.768839359
5.985161304 18.08513451 4.299284458
8.713640213 22.92215729 6.110849857
5.994942188 17.94402504 5.694469929
11.75762749 28.96390915 0.6891419291
11.93652439 29.15893364 1.808206677
6.523198605 19.16253662 2.285425663
6.34484911 18.760355 2.975419283
9.506401062 24.38444138 4.515642643
6.333672047 18.57865334 4.393956184
8.780678749 22.8722496 6.104613304
6.056128979 17.91512108 5.692212582
11.87842083 28.95256805 0.6832854748
12.77640724 30.46354103 1.837000966
6.501823902 18.89689827 2.990008116
6.700540066 19.1756916 3.759654045
6.147028923 18.10240936 4.308140278
6.960978508 19.46520996 5.333220005
6.049061298 17.77240753 5.658987045
11.99250221 28.93993187 0.6777391434
8.99460125 23.40857887 1.658003092
9.190375328 23.65482903 2.574259281
5.876169682 17.64071465 2.858335018
9.443764687 23.90255737 4.4497118
6.979710579 19.35618973 5.312803745
6.259218216 18.00541496 5.727676392
12.09501266 28.88296318 0.6722553968
9.035850525 23.28954124 1.651795745
9.273500443 23.61771011 2.570472956
5.962810993 17.65173912 2.859799385
7.153951645 19.67285728 3.835669518
6.250969887 18.00855827 4.296616077
6.437824726 18.25456047 5.066038132
6.173117161 17.71232224 5.654387951
9.068458557 23.26848793 0.7532358766
9.102991104 23.2266674 1.647158146
8.821658134 22.6279335 2.505042076
6.039840221 17.65188217 2.860136986
7.28922987 19.75842094 3.850008011
6.30264473 17.95458412 4.28975296
6.507093906 18.22908211 5.064982414
6.259917736 17.72823906 5.664510727
9.102909088 23.13875961 0.7501780987
9.175695419 23.16486931 1.642414927
8.820976257 22.4516449 2.492375612
6.697210312 18.65524483 2.965954781
7.596115112 20.1318531 3.906518698
6.682658195 18.4744072 4.390200138
6.603888512 18.25760651 5.076131344
6.298757553 17.65468407 5.650726318
9.164471626 23.06685066 0.7464833856
9.251218796 23.11719513 1.638189077
8.91493988 22.44171524 2.490489006
7.51944685 19.93344307 3.100721121
7.687975883 20.13648796 3.909205198
6.395304203 17.84275627 4.275111675
6.610651493 18.13167953 5.051949024
6.44404459 17.76893616 5.68776083
9.239658356 23.01904488 0.7424165606
9.337714195 23.09745216 1.634806156
6.155048847 17.44391441 2.839441299
6.381110668 17.76129723 3.564058542
6.398158073 17.71350479 4.254089832
6.635644913 18.04479218 5.03649807
8.971881866 21.89907837 6.818214417
9.352981567 23.04586029 0.7373766303
9.437306404 23.09984589 1.631962419
9.437309265 23.00017929 2.52410984
6.460139751 17.83799171 2.881301641
6.976623058 18.64309692 3.694769144
6.995631218 18.59483147 4.422677517
6.60494566 17.86520958 4.999761105
12.76783562 28.71705627 0.6387127042
12.8710413 28.76840401 1.763965726
9.471838951 22.89212608 2.516000748
8.320366859 20.85042 3.198642969
7.794435024 19.87736702 3.877399206
6.441188335 17.52841187 4.225707531
7.535527706 19.2824707 5.330750942
12.91219997 28.72958946 0.6320697665
12.99634171 28.74800682 1.759467602
9.540982246 22.8259182 2.510497808
7.14897728 18.72471809 2.975598097
7.539059162 19.29538345 3.794444561
6.80976963 18.00325775 4.318572521
6.907664299 18.09461594 5.062560081
8.604663849 20.80736351 6.543104172
13.00065231 28.64690781 0.6270239949
13.09226227 28.68875885 1.754256368
9.644734383 22.81772614 2.508755684
7.175049305 18.62117386 2.965299845
7.190202713 18.57471657 3.690966606
6.294110775 17.02113342 4.137048721
6.946009159 18.02383041 5.051253319
6.786195278 17.68564606 5.695969105
13.09243393 28.59203339 0.622130394
13.24704933 28.73831367 1.751803279
9.875220299 23.03585243 2.521687269
8.615391731 20.86282158 3.201895952
7.226944923 18.50411606 3.682630777
6.415427208 17.10033798 4.155170918
9.825001717 22.58251762 6.109262943
6.830396652 17.63411522 5.688014984
13.21193981 28.58307648 0.6164405942
13.36365414 28.7123909 1.747394443
9.945304871 22.98659134 2.517457724
12.30681992 26.75246811 3.822897911
7.129300117 18.20838737 3.641376495
6.681428909 17.41255569 4.217368603
7.102333069 18.01901054 5.060121059
13.31040478 28.52799225 0.6112446785
13.48237514 28.68940353 1.743065
10.04168797 22.96306038 2.514794588
7.292924881 18.41506386 2.945423841
6.787426472 17.52203941 3.542692184
7.437100887 18.49444771 4.425590992
7.382241249 18.25828171 5.872861862
13.47310448 28.5667572 0.6040625572
13.6158123 28.68976212 1.739283919
7.384253502 18.41982269 2.946652889
6.782243729 17.38552475 3.524751902
6.876633167 17.46447563 4.234538078
8.09277916 19.32476234 5.37381649
6.89744997 17.35824966 5.632027149
13.63400841 28.62258911 0.5971539617
13.67459488 28.56890488 1.732734799
7.430551529 18.36545563 2.941610813
6.823758125 17.3248558 3.517988205
6.566732407 16.85275269 4.122153282
8.122138023 19.23733902 5.359025478
6.958867073 17.32936668 5.630793571
13.67132282 28.46755219 0.5937626958
13.80484295 28.56324959 1.728842378
7.500890732 18.34277725 2.939976454
8.323082924 19.5661335 3.850445747
6.93589592 17.3114357 4.212760448
8.143661499 19.1313858 5.340243816
6.992858887 17.25762367 5.617790699
13.79601288 28.45317268 0.5878062844
13.8926096 28.48936462 1.723413825
10.48075294 22.99163818 2.512511969
10.0192461 22.17164993 3.344835043
8.296194077 19.38147545 3.825771332
6.816114902 16.99953842 4.157305241
8.244244576 19.14928818 5.350325108
7.150203705 17.37726212 5.657758236
13.91866589 28.43487167 0.5819101334
13.94526196 28.37097168 1.717196226
10.55764294 22.9430542 2.508423328
7.024792194 17.33365059 2.835049152
8.295028687 19.24598885 3.80822897
7.056377888 17.24946022 4.20858717
9.599871635 21.10174179 5.811706543
7.644685268 18.01868248 5.842106819
14.01726818 28.38875771 0.5768437386
14.10664082 28.41286278 1.714407325
10.65379333 22.92444038 2.506276369
8.341574669 19.25600052 3.03886795
7.336895466 17.6278019 3.571741343
7.058726311 17.13552094 4.190587521
9.773955345 21.22346878 5.846539497
7.041685104 16.9706459 5.558719158
14.1335001 28.35940933 0.5711424947
14.20304298 28.36293221 1.709759235
10.73530293 22.89113235 2.50326252
7.587866306 17.95725441 2.90255928
7.291316509 17.43769646 3.545939684
7.114118099 17.09757423 4.187272072
9.881325722 21.23375511 5.855823517
7.057184219 16.87958336 5.540089607
14.20803642 28.2755909 0.5668084621
14.37271404 28.41522026 1.707197547
11.45558357 23.82858849 2.562132835
8.462724686 19.1708374 3.03172946
7.515688896 17.65421295 3.580451727
7.157855511 17.04807663 4.18159771
7.63967371 17.70679855 5.036389351
7.092238426 16.81273842 5.528562069
14.35139656 28.28731346 0.560294807
14.47067833 28.35622597 1.702185631
7.627782822 17.7674427 2.884281635
8.456433296 18.94826698 3.774770498
7.596826553 17.58707428 4.288611412
7.680683613 17.6425209 5.027159691
7.159506321 16.79438782 5.53058672
14.46760178 28.25658607 0.5546008348
14.58937359 28.32860374 1.697877288
11.3497448 23.33228493 2.528743029
12.39686489 24.81519318 3.631177425
8.749537468 19.25205803 3.82262826
7.731832981 17.66378593 4.307508469
10.71082211 22.02131844 6.061714172
7.537678242 17.2359066 5.661087513
14.58381081 28.22537994 0.5489087105
14.64168644 28.20055199 1.691404581
11.06653881 22.73901749 2.490122795
12.37586594 24.60453415 3.610284805
8.761320114 19.13236809 3.807743788
7.792351723 17.62843704 4.305042744
10.85587502 22.07825089 6.082667828
7.638341427 17.26265717 5.676095009
14.682271 28.16706276 0.5437614918
14.81347656 28.25192451 1.688833237
11.40878773 23.08456802 2.511296034
12.13182735 24.06565857 3.554637671
11.16967106 22.55090904 4.318918705
7.812773705 17.53406715 4.291302204
8.1173563 17.91121864 5.108451843
