# .PCD v0.7 - Point Cloud Data file format
VERSION 0.7
FIELDS x y z
SIZE 4 4 4
TYPE F F F
COUNT 1 1 1
WIDTH 1297
HEIGHT 1
VIEWPOINT 0 0 0 1 0 0 0
POINTS 1297
DATA ascii
30.44397545 -13.18511677 3.706347704
30.63210487 -13.23132706 4.888952732
30.97002411 -13.5890789 1.423612714
30.13687515 -13.21883392 2.544104576
30.18108368 -13.20168018 3.689082384
30.46710968 -13.28861427 4.876529217
29.9979496 -13.31323338 1.408331513
30.01230049 -13.29030895 2.543160677
30.0253067 -13.26050854 3.682060242
30.28005219 -13.33587265 4.86111021
29.90457916 -13.39698029 1.411088228
29.98529816 -13.40177631 2.547929764
29.95777512 -13.35513592 3.683544636
30.17004967 -13.41389656 4.856037617
29.82020378 -13.48411369 1.414025307
29.82718849 -13.45820808 2.545003653
29.8807621 -13.44558811 3.684132576
30.0653553 -13.49362373 4.851690292
29.81285286 -13.60371494 1.418585896
29.76278877 -13.5535326 2.547590256
29.81816483 -13.54185963 3.686136723
29.99885368 -13.58900261 4.852527618
29.75543022 -13.70209789 1.42209816
29.70360565 -13.65089798 2.550496817
29.75890923 -13.63943291 3.688493013
29.99595261 -13.71132946 4.862035275
29.52229118 -13.83863831 0.3003894091
29.63124275 -13.77750587 1.424415231
29.6638279 -13.76273251 2.554898262
29.69343758 -13.74032402 3.690675735
29.84448242 -13.77615261 4.851891041
29.38515282 -13.9070673 0.3058101833
29.62409019 -13.90360832 1.429248929
29.62545586 -13.87524891 2.559410334
29.66960526 -13.85924625 3.696969509
29.81302643 -13.8923645 4.858113289
29.30314636 -13.99320412 0.3101556897
29.51631927 -13.97932243 1.431669831
29.57069206 -13.97440815 2.562637806
29.62572289 -13.96337223 3.700929403
29.74891281 -13.98813725 4.859424114
29.20812225 -14.07318211 0.3146979809
29.64933014 -14.16218662 1.439370036
29.54477119 -14.08636856 2.567620039
29.58146858 -14.06734943 3.704888582
29.79694557 -14.1335535 4.876158237
29.19298935 -14.1890974 0.3179377913
29.61375237 -14.27046204 1.44340241
29.57305717 -14.22291183 2.575909615
29.5568409 -14.1801424 3.710823536
29.78275108 -14.25186825 4.884447098
29.15014458 -14.29254246 0.3216200769
29.56868362 -14.37449169 1.447232962
29.65890694 -14.38627148 2.587748289
29.54085732 -14.29703808 3.717662573
29.90910339 -14.43406296 4.912190437
29.20127487 -14.43960285 0.3238042295
26.82362556 -13.23693657 1.390395522
26.776474 -13.1887188 2.418838263
26.99416924 -13.25600338 3.47281456
30.03273582 -14.61647415 4.93972826
29.28071594 -14.60072708 0.3255545497
26.78942871 -13.33463383 1.394043088
26.56112862 -13.20226955 2.411746502
26.56363487 -13.17126846 3.437670708
26.81966972 -13.26251793 4.50494957
29.33406639 -14.75063038 0.3277336359
26.35288048 -13.24395657 1.388524532
26.3876133 -13.23392677 2.407163858
26.43156052 -13.22797012 3.432580948
26.7561779 -13.34666157 4.505641937
29.77783775 -15.09374619 0.3239996135
26.21342087 -13.29594517 1.389924645
26.27706337 -13.29975796 2.406721115
26.26014519 -13.25979328 3.423137426
26.53037643 -13.3600893 4.484226704
30.01114464 -15.33363533 0.3234644532
26.11400986 -13.36059952 1.392006516
26.14151764 -13.34751987 2.40441823
26.18741417 -13.34296703 3.423970222
26.27116585 -13.35047054 4.457581997
30.00205612 -15.45833874 0.3267042041
26.01086426 -13.42298985 1.393989205
26.05097008 -13.41608143 2.404883385
26.01104164 -13.36505032 3.41357708
26.20569801 -13.43161201 4.457957745
30.69116402 -15.92516518 0.3192917705
25.93637657 -13.49879074 1.396631122
25.99978638 -13.50334835 2.407799482
25.99041939 -13.46689129 3.419295073
26.05061722 -13.46936893 4.445780277
30.46468353 -15.94628143 0.325901866
25.90298653 -13.59443474 1.400239587
25.91601944 -13.57462215 2.408692598
25.90854645 -13.53904247 3.418836117
25.95982361 -13.53745842 4.442615509
26.53851318 -14.12278175 0.3881543577
25.8459301 -13.67850399 1.403295398
25.85893822 -13.65870285 2.411260366
25.87116241 -13.63276005 3.422916889
25.85641289 -13.59893703 4.437676907
26.49941635 -14.21890068 0.3914930224
25.79397774 -13.76499653 1.406474948
25.86236191 -13.77280331 2.417654991
25.77278519 -13.69626141 3.420800924
25.89155769 -13.72856236 4.452351093
26.50635147 -14.3384037 0.394143194
25.75244713 -13.85668564 1.40991056
26.53094482 -14.22123814 2.466173887
25.70276833 -13.77351475 3.421590567
25.82140732 -13.80624294 4.45218277
30.4816761 -16.48745155 0.3383052349
25.75160217 -13.96905041 1.414343834
26.12072372 -14.12962532 2.446542501
25.68052483 -13.87468147 3.427305698
25.79530907 -13.90593338 4.45830965
30.22454262 -16.48922729 0.3452438116
25.89624596 -14.15625858 1.422364354
26.22716522 -14.29871559 2.459691286
25.64849854 -13.97669029 3.432459831
25.66626358 -13.95343018 4.449804306
30.08214188 -16.55554008 0.3506222069
25.91851044 -14.28769875 1.427663445
25.84758949 -14.22447968 2.442148209
25.64494705 -14.08783722 3.440197945
25.61079788 -14.04359245 4.452303886
29.95301819 -16.62138557 0.3556264639
23.28424454 -13.03032494 1.366697907
23.3257618 -13.02785683 2.286479473
25.66921234 -14.21379948 3.450880766
25.63487816 -14.16917324 4.465755463
30.01117706 -16.78565407 0.3579258323
23.00806618 -12.98871994 1.363889098
23.07624435 -13.00062752 2.276180744
23.15697098 -13.0137291 3.19765377
25.62496185 -14.27766514 4.474416733
29.92034149 -16.87145042 0.3623601794
22.88266182 -13.02488136 1.364805222
22.88192177 -13.0007391 2.269369602
22.94521713 -13.00513363 3.183027983
23.1884861 -13.10907555 4.133064747
29.74474525 -16.91129494 0.3679752648
22.77314949 -13.06881905 1.36610198
22.7495575 -13.03251839 2.266525984
22.81115723 -13.03638363 3.176458597
23.03500366 -13.13115597 4.120130062
29.52705574 -16.92723274 0.3741479218
22.56679535 -13.05996704 1.364902496
22.62076187 -13.06542206 2.263887167
22.90315247 -13.19321156 3.193980217
22.83791924 -13.12891674 4.100821972
29.3664608 -16.97959328 0.3796400428
22.48690033 -13.12343502 1.367110968
22.50743675 -13.11100769 2.262521505
22.55160713 -13.10613346 3.164498806
22.72103119 -13.17369938 4.093556881
29.27872086 -17.0645752 0.383943826
22.39672279 -13.17583847 1.36884129
22.39797401 -13.15299129 2.261103392
22.47367287 -13.16555786 3.163767576
22.58537865 -13.20247841 4.083071232
29.38121796 -17.25513458 0.3856307864
22.43595314 -13.29933453 1.373942375
22.35843468 -13.23292255 2.264284849
22.41478729 -13.23515797 3.165061712
22.52284241 -13.27055836 4.083245754
29.38158035 -17.38985634 0.388731271
22.34184265 -13.34929085 1.37556994
22.28719139 -13.29527092 2.265382767
22.39399529 -13.32575226 3.17042613
22.43927193 -13.32683277 4.080357075
29.21601105 -17.43121338 0.3940715194
22.2668438 -13.40950584 1.377690196
22.28546333 -13.3963089 2.271108627
22.26161957 -13.35412407 3.163921356
22.35905647 -13.38459778 4.077966213
28.98797226 -17.43594742 0.40021649
22.20734596 -13.47822762 1.380218744
22.3163147 -13.51617432 2.279051542
22.22471809 -13.43553734 3.167607784
22.2752552 -13.44001293 4.075053692
22.90729904 -14.07382393 0.4839091599
22.15980721 -13.55360317 1.383067012
22.1436348 -13.52074718 2.273394346
22.15290451 -13.49713802 3.167573929
22.29311943 -13.55276871 4.087194443
22.84740257 -14.14564514 0.4871337712
22.13625908 -13.64278507 1.386569738
22.08546448 -13.58990097 2.275398016
22.1443367 -13.59991264 3.174755096
22.26054001 -13.6372242 4.091938019
22.81430435 -14.23835087 0.4901222587
22.20350456 -13.79000568 1.392768025
22.03175354 -13.66665936 2.278010368
22.08240891 -13.66701412 3.175830364
22.17211914 -13.69475937 4.088900566
29.01008987 -17.99621582 0.4124320745
22.20838165 -13.89665222 1.397095799
22.01451302 -13.75949001 2.282814026
22.04037666 -13.75074482 3.1794734
22.05326271 -13.7290144 4.08083725
28.90127182 -18.05457878 0.416621536
22.25526619 -14.01806736 1.402184606
22.03239632 -13.86291027 2.289441109
22.0071125 -13.81897545 3.182527781
22.04165268 -13.81511879 4.087834835
29.00989914 -18.26304054 0.4184906781
22.12793541 -14.05248356 1.40310216
22.04125977 -13.97708797 2.296405077
21.97136307 -13.9065094 3.18691802
21.97503281 -13.88454533 4.088098049
28.98382378 -18.39192772 0.4220892787
22.11898041 -14.15708256 1.407311559
22.02560043 -14.07714748 2.301733255
22.02759552 -14.04906178 3.201427221
22.05815697 -14.04297829 4.110944748
28.93975639 -18.50335121 0.425758034
22.12045479 -14.26308346 1.411622286
21.97762299 -14.15282249 2.304561138
22.0649395 -14.17602539 3.213563681
22.20225143 -14.23408604 4.142672062
28.9017601 -18.61173058 0.4291923046
22.09926033 -14.35574055 1.415313244
22.06140518 -14.30326557 2.316224575
22.04036522 -14.26624203 3.218959093
22.20783806 -14.34316158 4.153615475
28.87386894 -18.73347473 0.4326554239
22.11242867 -14.46443462 1.419786692
22.04329109 -14.39781857 2.321197033
22.19722176 -14.46754932 3.244479656
22.25933456 -14.47542477 4.171114922
28.90999985 -18.89541435 0.435339272
22.16015244 -14.60033607 1.425498366
19.80243492 -13.12108898 2.170928478
22.27565002 -14.61716461 3.261054277
22.62715149 -14.80832767 4.237477779
28.85387611 -19.00040436 0.439150393
37.19356155 -24.07303619 1.865585923
19.48488426 -13.01924229 2.154326677
19.73869514 -13.15039635 2.986772537
22.47864342 -14.82542324 4.225304604
28.44911575 -18.88512611 0.4471291006
19.78807831 -13.32572651 1.365046263
19.3239212 -13.01287937 2.148610592
19.56898689 -13.13992405 2.975275517
19.54930878 -13.10564041 3.786496162
28.40985298 -18.99933243 0.450691849
19.73103523 -13.38610554 1.367318392
19.2307682 -13.04818058 2.147634983
19.28798103 -13.06276512 2.951590538
19.37534142 -13.09127998 3.768982649
28.3535099 -19.10976982 0.4546076655
19.25526619 -13.18409252 1.357397079
19.13041306 -13.08310795 2.146414757
19.17126846 -13.08290195 2.945869684
19.39386177 -13.20240879 3.781552553
19.45218468 -13.21713829 4.610199928
28.40235138 -19.2813797 0.4571393728
19.18027878 -13.2306366 1.359050274
19.02380371 -13.10874557 2.144448042
19.045784 -13.10142326 2.939498901
19.21347809 -13.18229103 3.762954235
19.24068832 -13.17760181 4.579719067
28.30304337 -19.36455917 0.4615517259
19.07620049 -13.26273251 1.360016346
18.92180443 -13.14143181 2.143070698
18.9510231 -13.13422298 2.936197758
19.01964951 -13.15687275 3.742632866
19.2183857 -13.26277924 4.587045193
28.03795242 -19.33137321 0.4676848948
18.88055038 -13.22972012 1.358002424
18.88553619 -13.21167374 2.146118402
18.85792351 -13.1676178 2.933071136
18.94318962 -13.20143223 3.740026236
19.06048965 -13.2555685 4.566998482
27.95517731 -19.41695023 0.4717071354
18.81231308 -13.27900314 1.359805703
18.79560089 -13.24674892 2.145308971
18.76482391 -13.20051193 2.92992878
18.88158226 -13.25538921 3.739743471
19.04659271 -13.34125328 4.575497627
28.25475693 -19.7575016 0.4714396894
18.77728271 -13.35006428 1.362621069
18.79555702 -13.34083366 2.151005507
18.72489166 -13.26800632 2.932860851
18.8877182 -13.35381126 3.750100613
18.98124313 -13.39337254 4.573812485
28.15896606 -19.83587837 0.4756256938
18.74697685 -13.42436314 1.365590096
18.69210052 -13.3664093 2.149210453
18.66647911 -13.32325077 2.933695555
18.76124382 -13.36465454 3.739676237
19.00618744 -13.5051527 4.590210915
19.21309662 -13.91829109 0.5768672228
19.85754585 -14.26662254 1.403982162
18.62349892 -13.41478634 2.14994216
18.59468651 -13.36935997 2.932997942
18.73215866 -13.43983555 3.744575024
18.84358025 -13.49232769 4.569100857
19.14777565 -13.97171593 0.5797114372
19.20343399 -13.9239893 1.387717962
18.72836685 -13.5803442 2.163416386
18.57558441 -13.45079231 2.938402414
18.75374413 -13.54933834 3.757546663
18.77784729 -13.54352474 4.567390442
27.68911743 -19.94373322 0.4900623858
19.15617752 -13.98973942 1.390293837
18.51894569 -13.53306675 2.153811932
18.58576965 -13.55239677 2.947253704
18.95027733 -13.77840042 3.79841733
18.67118263 -13.56672573 4.557431698
27.60446358 -20.02770615 0.4940550625
18.63768005 -13.73112297 1.377948403
18.52233505 -13.63032818 2.159884214
18.52979279 -13.60918808 2.94845891
18.74128723 -13.73229408 3.774930477
18.76815605 -13.72847557 4.588683605
27.51628876 -20.10901642 0.4980732799
18.59602547 -13.79832554 1.380611777
18.45140076 -13.6766386 2.160472393
18.44520569 -13.6508522 2.946718454
18.54264832 -13.69165516 3.752963305
18.64489937 -13.74001312 4.57541275
27.58645821 -20.30864906 0.5005862117
18.54859352 -13.86633015 1.383295655
18.41087341 -13.7486496 2.163624048
18.4510231 -13.7503109 2.955202341
18.63697815 -13.85783482 3.778367281
18.60702324 -13.81482887 4.580082417
27.45007706 -20.35622215 0.5050950646
18.49500847 -13.92518806 1.385585546
18.41478157 -13.84719372 2.169835806
18.47039604 -13.86460686 2.965746164
19.08993912 -14.27186394 3.861209631
18.55983543 -13.87837219 4.582309723
27.27464294 -20.37518692 0.509978652
18.75922775 -14.20938873 1.398220539
18.41822243 -13.94591999 2.176058292
18.60104942 -14.0486145 2.988748312
18.55356216 -13.99304199 3.784800291
18.64142418 -14.03262997 4.610993862
27.22606659 -20.48423004 0.5135531425
18.93221092 -14.43166351 1.408007383
18.44883537 -14.06451893 2.184382915
18.42279816 -14.02417469 2.976034403
18.53331566 -14.07593918 3.791550159
18.56129646 -14.07346725 4.606614113
27.04405975 -20.5040493 0.5186077952
18.84027481 -14.47051716 1.409364343
18.44733238 -14.16575241 2.19063592
18.75836563 -14.36217785 3.024089575
18.48458099 -14.14362144 3.794238567
18.58147049 -14.19054508 4.623547077
26.97715759 -20.59946251 0.5223426223
18.73611259 -14.49505138 1.410092354
18.74676132 -14.48055649 2.219617605
18.47065926 -14.25369167 2.997920513
18.48296165 -14.24038982 3.804142952
18.57938766 -14.2874155 4.635396957
26.79875374 -20.61288452 0.5271544456
18.672369 -14.54850674 1.412151456
18.7442646 -14.57876873 2.225681543
18.54441452 -14.40584278 3.01497674
18.58832932 -14.41543293 3.831653595
18.72688675 -14.49333858 4.678431034
26.64468956 -20.64315796 0.5317001939
32.48514557 -24.81777191 1.881472111
18.73488235 -14.67238998 2.231259346
18.59806442 -14.54454899 3.029742479
18.62711716 -14.5433321 3.848426819
18.71872902 -14.58754063 4.689326286
26.62697029 -20.77429008 0.5349261761
32.49774933 -25.0023632 1.889258385
32.56993866 -25.0169239 3.308382988
32.47351074 -24.89766502 4.717180729
40.46073914 -30.75061798 7.45898056
47.31211472 -35.74691391 10.68141747
26.40723228 -20.75411034 0.5400505662
32.49022675 -25.1729908 1.89641118
32.50774002 -25.14700508 3.314661503
32.48816299 -25.08435631 4.733728409
40.18058777 -30.76124001 7.435651302
46.95316315 -35.73629379 10.63848782
26.36654472 -20.86785507 0.5434751511
32.68957901 -25.50012398 1.91071558
32.4529953 -25.28295708 3.321564674
32.55445862 -25.31084251 4.756705761
39.83735657 -30.72277069 7.401726246
46.57278442 -35.70703125 10.59082794
26.25540733 -20.92820168 0.5475440025
32.60462189 -25.57541084 3.344700098
32.64498138 -25.55726051 4.782830238
39.5740509 -30.74196053 7.380916119
46.24831009 -35.71709824 10.55473709
26.1251564 -20.97336578 0.5517677665
15.78094006 -12.95019817 1.337097526
15.74945641 -12.90701199 2.028287888
16.10331726 -13.15265179 2.76589632
39.2195549 -30.69009209 7.344744205
45.86149216 -35.67767715 10.50526428
25.98540115 -21.01054573 0.5560560822
15.74034309 -13.00636482 1.339365244
15.59809589 -12.87796307 2.021851063
15.70636177 -12.93747234 2.724507809
38.94146347 -30.69397926 7.321177959
15.87890434 -13.03022194 4.163458824
25.89302635 -21.08388138 0.5599045157
15.5825758 -12.97181702 1.337504148
15.48976898 -12.88096809 2.018769503
15.54273033 -12.89847374 2.711691856
15.8882618 -13.14546108 3.462757826
15.83299255 -13.08300972 4.165018082
25.74383354 -21.11234856 0.5642334819
15.44100666 -12.94861412 1.336167932
15.40837765 -12.90422535 2.017804623
15.38114071 -12.85970592 2.699034929
15.45991039 -12.90169525 3.399894714
15.64350986 -13.02449131 4.135880947
25.62141991 -21.16111755 0.5683082342
15.36738777 -12.97768021 1.337218523
15.28775311 -12.89625835 2.013677359
15.28270626 -12.86903858 2.694161654
15.34582043 -12.89929295 3.389887571
15.46707344 -12.97451401 4.109370708
15.86263561 -13.26288605 4.918735027
25.56739998 -21.27103996 0.5719370246
15.32925224 -13.03883743 1.339720964
15.20599556 -12.92241764 2.01291275
15.18228912 -12.88048267 2.689377546
15.29991341 -12.95408726 3.391893387
15.34795856 -12.97244453 4.09562254
15.61645603 -13.16346455 4.868732452
25.51292229 -21.38083649 0.5755671263
15.20179939 -13.02880669 1.338990927
15.15547657 -12.97300911 2.014662266
15.10225677 -12.90744781 2.687121153
15.20723057 -12.97173786 3.385936499
15.2924366 -13.01987934 4.095556736
15.38567638 -13.0694561 4.821782112
25.360466 -21.40435219 0.5798463225
15.13596535 -13.06295967 1.340288997
15.0913372 -13.0082798 2.015034437
15.03987503 -12.94381046 2.686706543
15.14151478 -13.00605202 3.384104013
15.11716557 -12.96723938 4.068948746
15.30744648 -13.09483242 4.814684391
25.26089287 -21.46997452 0.5836720467
15.04520512 -13.07668781 1.340664148
15.02869225 -13.04449463 2.015523911
14.97432137 -12.97739506 2.685891151
15.04950333 -13.01891613 3.377744675
15.16221619 -13.09019566 4.09016943
15.22464657 -13.11612606 4.806363583
25.12868881 -21.50853348 0.5877440572
15.00257683 -13.12908363 1.342800736
14.96442604 -13.07916927 2.015878439
14.9380703 -13.03450966 2.688802719
14.94988346 -13.02505112 3.370038986
15.14683247 -13.16521072 4.098348141
15.09769726 -13.10129929 4.786326885
24.99498177 -21.54514694 0.5918064713
14.97058582 -13.19020176 1.345337391
14.87231636 -13.09077072 2.013932943
14.87541771 -13.07008934 2.688366413
15.01774979 -13.16731358 3.39132762
15.06232929 -13.18420792 4.091449738
15.04092693 -13.14261341 4.784836292
24.90900803 -21.62070274 0.5954782367
14.85514164 -13.18246841 1.3447541
14.812644 -13.12854767 2.014647722
14.87721157 -13.15854073 2.69619894
14.86896324 -13.13263226 3.37508297
15.06778145 -13.27659798 4.104324818
14.99467087 -13.19236088 4.786166191
24.86265373 -21.72932053 0.5988397002
14.8029356 -13.22651196 1.346525311
14.84496975 -13.24262619 2.023019791
14.76217175 -13.1505518 2.689047098
14.8365984 -13.19318485 3.379068613
15.08036804 -13.37545109 4.118889332
14.94219494 -13.23696232 4.785876751
15.32150555 -13.82796383 0.6731348038
14.79042339 -13.30375195 1.349805593
14.84148121 -13.32759953 2.028467178
14.70691967 -13.19169617 2.689575434
14.82530689 -13.27143097 3.386790037
15.02427101 -13.4177618 4.118354797
14.93327332 -13.31765556 4.797309399
15.24047947 -13.84631252 0.6755019426
14.67585087 -13.29078674 1.349012256
14.83824158 -13.40882874 2.033688545
14.64915371 -13.22621155 2.689399242
14.62915516 -13.19036198 3.361566067
15.03070354 -13.50790215 4.131148338
14.85257626 -13.33423901 4.788816452
15.20284271 -13.90590668 0.6776350141
14.65227795 -13.3587265 1.351879001
14.63101959 -13.30286884 2.695165634
14.64340973 -13.28987026 3.37381649
15.01036549 -13.58048058 4.138679504
14.7390871 -13.33158779 4.772830486
24.52791405 -22.03082085 0.613191247
14.58978462 -13.3979845 1.353440404
14.6207552 -13.3821907 2.70162487
14.63081837 -13.37160873 3.381906986
14.62328911 -13.34139252 4.064117908
14.69668961 -13.38403893 4.775348186
24.4419899 -22.10577965 0.6168085933
14.52097893 -13.42274666 1.354370475
15.13718414 -13.93442059 2.076772213
14.55428123 -13.4135828 2.700750589
14.56206608 -13.39669991 3.379085779
14.62884998 -13.43452644 4.077328205
14.70543671 -13.47580051 4.791131496
24.385952 -22.20672417 0.620211482
14.48922634 -13.48378944 1.356937051
14.59536743 -13.55694866 2.036501169
14.56671238 -13.50856018 2.709890366
14.54059315 -13.46676445 3.385199785
14.59362984 -13.49308681 4.081454277
14.65064812 -13.51792717 4.790407658
24.3370285 -22.31412888 0.6235636473
14.53396416 -13.61188698 1.362540483
14.68479347 -13.72456837 2.050109625
14.71221161 -13.72916126 2.73754406
14.55917931 -13.57195568 3.398557186
14.64151859 -13.62395668 4.104458332
14.61718941 -13.5828886 4.796274662
24.2419796 -22.38855553 0.6273719072
14.59974766 -13.76412773 1.369228363
14.98073673 -14.08009434 2.081988335
14.69706821 -13.80658913 2.743649483
14.50193405 -13.61595249 3.398886204
14.48466301 -13.58128548 4.081714153
14.60338783 -13.66071129 4.806907654
24.23552704 -22.5342598 0.6304423213
14.65191936 -13.90119934 1.375241041
14.82099438 -14.03164387 2.074300051
9.77674675 -9.550071716 2.094516516
14.5804615 -13.7554493 4.115875721
14.55167961 -13.71006775 4.807905197
24.20075226 -22.6630249 0.6338557005
14.42825699 -13.79755878 1.370368481
14.65204048 -13.97814941 2.066032887
14.54910469 -13.82303715 4.121809006
14.5430975 -13.79307652 4.820170879
9.811180115 -9.786185265 0.7265065312
14.31922054 -13.79028893 1.369867206
14.56759548 -13.99445438 2.064777613
9.77100563 -9.654247284 2.568135262
14.71075249 -14.05886269 4.171576023
14.50782013 -13.85269928 4.825125694
9.772741318 -9.813625336 0.7279819846
14.38371563 -13.93948746 1.376438498
14.39295387 -13.92863846 2.055556774
9.769438744 -9.727800369 2.110156298
9.769643784 -9.71476078 2.574940205
14.8342905 -14.2630043 4.212946415
14.62229061 -14.04708195 4.871977806
24.02330017 -22.96246338 0.6440973282
9.781665802 -9.830550194 1.190746069
9.768901825 -9.805778503 1.652364969
9.763464928 -9.784544945 2.11498189
9.772386551 -9.779361725 2.582559824
14.41781807 -13.97949314 4.129486084
14.70074368 -14.21086597 4.909105778
23.94179535 -23.04207611 0.6476373672
14.43061256 -14.16665173 1.38637042
14.37642288 -14.09746265 2.066419363
9.752809525 -9.837322235 2.119211435
9.770401001 -9.84008503 2.589378357
14.42559052 -14.07876587 4.144117832
37.81444168 -35.37761688 11.42878819
23.87905312 -23.13910866 0.6510620713
14.43553257 -14.2644186 1.39062655
14.59396267 -14.39131641 2.092101812
9.753612518 -9.900918961 2.125048876
9.763739586 -9.896868706 2.595393658
14.44879246 -14.19293499 4.162489891
37.52544403 -35.35530472 11.38705254
23.81594276 -23.23596382 0.6544854045
26.02112961 -25.15795517 1.88196075
14.69274521 -14.57807159 2.107361555
9.76720047 -9.976829529 2.132701159
9.758250237 -9.955068588 2.60168457
14.39907551 -14.24044514 4.163926125
37.26583862 -35.35797501 11.35340881
23.79605103 -23.37385178 0.6576699018
31.39603424 -30.37369347 2.116957426
9.756983757 -10.03424549 2.13742137
9.764052391 -10.02416134 2.610143185
14.45297432 -14.38457775 4.189785957
36.98342133 -35.34967422 11.3150959
23.73201942 -23.4705143 0.6610975266
31.18603134 -30.3923111 2.117470264
25.11533546 -24.60896683 3.065824032
9.743738174 -10.08592033 2.141470671
9.76788044 -10.09510136 2.618682384
31.41104889 -30.41016769 8.21067524
36.71904755 -35.34413147 11.27971935
23.6430378 -23.54349709 0.6646521091
30.92871666 -30.34383774 2.11500001
25.19278526 -24.84896278 3.084158897
9.731697083 -10.13897991 2.145725012
9.76449585 -10.15325165 2.62519145
31.20831108 -30.42581177 8.191857338
36.46123123 -35.33083725 11.24402428
23.50489998 -23.56892204 0.6684458852
30.72464371 -30.35468292 2.115200281
25.20542908 -25.02906799 3.096724272
30.96730423 -30.40371132 8.163825035
36.18936539 -35.31439972 11.20609856
23.33530235 -23.56300354 0.6723726392
30.49498749 -30.33946991 2.114237309
30.58208466 -30.38103104 3.603260517
30.75530052 -30.40757561 8.142548561
35.92654037 -35.30461502 11.17057133
23.21464348 -23.60373878 0.6760339141
30.29164505 -30.34807205 2.114358664
30.32981491 -30.34288216 3.594009161
30.53796387 -30.40485954 8.119870186
35.67408752 -35.30295944 11.13785648
23.04411888 -23.59477806 0.6799098253
30.12857819 -30.39479446 2.116208076
30.13243103 -30.35633469 3.589748859
30.24351311 -30.36903572 6.574500084
30.29701996 -30.37763023 8.091363907
35.40060425 -35.29110336 11.10085678
23.03751755 -23.75510788 0.6831647158
27.95916176 -28.47251701 2.029371738
29.91877556 -30.36279106 3.584613323
30.04136086 -30.38778877 6.561277866
30.07118225 -30.37361145 8.067802429
35.140728 -35.27846909 11.06558895
23.20669746 -24.08410645 0.6855051517
12.32776928 -13.14357471 1.338861585
12.34507751 -13.1432991 1.947544098
12.26243591 -13.04390907 2.545575142
29.78829956 -30.34453201 6.536915302
29.86076927 -30.37285233 8.046360016
34.87953186 -35.27461624 11.03175831
23.0410881 -24.07983589 0.6893340945
12.05735302 -12.95891571 1.330454707
12.30639935 -13.19047928 1.949785471
12.08947563 -12.95238495 2.528239965
12.28369045 -13.12829208 3.168529749
29.66194725 -30.38207626 8.027607918
34.62675095 -35.25315857 10.99612999
22.88703728 -24.08606339 0.6930850148
11.94472408 -12.92996788 1.329064488
11.97345734 -12.94181156 1.924109697
11.96150684 -12.90843964 2.517656088
12.0097971 -12.939538 3.12541604
12.07479858 -12.98700523 3.747027397
34.37817383 -35.24606323 10.96358204
22.78363228 -24.14291573 0.6966069341
11.78331947 -12.85056782 1.325407863
11.84712505 -12.89826965 1.91787529
11.84379196 -12.87365341 2.508466959
11.8949604 -12.90807629 3.113035917
12.08359432 -13.08069515 3.761471033
34.1411171 -35.24876022 10.934268
22.09415054 -23.59745216 0.7023769617
11.70933914 -12.85873127 1.325697303
11.75198078 -12.88534641 1.914560676
11.77666664 -12.88928127 2.506578684
11.82078266 -12.91692829 3.108543396
11.88303566 -12.96263981 3.72431612
11.94548702 -13.00384903 4.352212429
22.47914505 -24.15465927 0.7039756775
11.58527374 -12.81493664 1.323652625
11.64037037 -12.85474682 1.909616351
11.70541191 -12.90031624 2.504068613
11.78408051 -12.96366978 3.111410141
11.75649738 -12.91798973 3.70523715
11.8493681 -12.99079037 4.337992668
22.36187744 -24.19543839 0.7074953318
11.53108788 -12.84231567 1.324814796
11.54853249 -12.84360313 1.906530142
11.63488197 -12.91589069 2.50204277
11.75270557 -13.01599407 3.115368366
11.65651608 -12.89945698 3.692631721
11.7363472 -12.96382141 4.319324017
22.18949127 -24.18598175 0.7113416791
11.49412155 -12.89166927 1.326966047
11.54189777 -12.92464447 1.911993504
11.60374451 -12.96781063 2.505429983
12.01308823 -13.37566471 3.177936077
11.56838417 -12.89656639 3.683517456
11.58499813 -12.89194775 4.28821373
22.09300423 -24.24728203 0.7147514224
11.46732807 -12.94759846 1.329419732
11.43642044 -12.8983593 1.907535434
11.50294113 -12.95116615 2.4988904
11.52968025 -12.957798 3.091902018
11.46617603 -12.87412548 3.670187473
11.53788853 -12.93133259 4.289226055
22.0032177 -24.31546593 0.7181285024
11.40109444 -12.96625996 1.33019793
11.3902626 -12.9337883 1.908861399
11.39220333 -12.91896534 2.490401745
11.43488407 -12.9253664 3.674664021
11.48061275 -12.9557848 4.286444664
21.93505096 -24.40672112 0.721431911
11.33499813 -12.97626686 1.330596328
11.35765839 -12.98358822 1.911535978
11.34457874 -12.95276737 2.491309643
11.29389763 -12.87778378 3.064963579
11.37361717 -12.94500828 3.671593428
11.41198349 -12.96378422 4.279453278
21.90049744 -24.53445244 0.7246355414
11.2709341 -12.99232578 1.331267715
11.29490089 -13.0012064 1.911229849
11.26906395 -12.95245934 2.487617254
11.23149586 -12.89532471 3.062563896
11.30290699 -12.95432186 3.666111469
11.34131622 -12.97342396 4.272536755
21.85992432 -24.65632057 0.7278615832
11.21911812 -13.02128506 1.332522869
11.25520611 -13.0434227 1.913221121
11.20239735 -12.96539688 2.485638857
11.29725838 -13.0504055 3.086232424
11.21750736 -12.94742298 3.656839371
11.2787199 -12.99131584 4.268080711
21.80660057 -24.76492691 0.7311266661
11.18889141 -13.07356739 1.334830403
11.22751904 -13.09872246 1.916432977
11.16950512 -13.01456738 2.48878479
11.30024624 -13.13914013 3.097294092
11.17242241 -12.98348141 3.657861233
11.24326897 -13.04245567 4.272769451
11.64360523 -13.73767471 0.7592045665
11.14281082 -13.11297989 1.336560726
11.1839819 -13.14118958 1.918370724
11.12888527 -13.05974102 2.491193771
11.14799118 -13.06352806 3.077112675
11.13309193 -13.03001118 3.661027431
11.15725136 -13.03875923 4.261786461
11.57509613 -13.75646496 0.7611300349
11.10733891 -13.16405964 1.338819504
11.10811329 -13.14803505 1.917034268
11.10013294 -13.1180191 2.495452404
11.11643219 -13.11884308 3.081655264
11.11877632 -13.10409069 3.670730114
11.12501526 -13.08903217 4.266793251
11.08716011 -13.2279768 1.341660619
11.03314495 -13.15109062 1.915462971
11.01061916 -13.10490513 2.489943743
11.1717701 -13.26622486 3.10373497
11.01237392 -13.07256603 3.655908108
11.08467865 -13.13052845 4.269323349
21.67183304 -25.30093384 0.7442059517
11.00141621 -13.21885777 1.341222167
10.93515682 -13.1236105 1.911196828
10.98504734 -13.16244125 2.494317532
11.23811722 -13.42741108 3.128321409
10.94401741 -13.07812214 3.650280952
11.0546608 -13.18353176 4.275155067
21.57865143 -25.36738968 0.7475667596
11.07987309 -13.38979435 1.348881602
10.93473911 -13.20937061 1.917262912
10.90764141 -13.16197681 2.490641594
11.25033092 -13.52513313 3.141270161
10.95363235 -13.17490578 3.665752649
10.99657154 -13.2010088 4.271399021
21.53005981 -25.48465347 0.7508425117
10.99389172 -13.38035965 1.348435998
10.9087677 -13.26685047 1.92073369
10.86940098 -13.20098114 2.492654324
11.06549358 -13.40549183 3.113480568
10.92350101 -13.22767353 3.67089057
10.97789383 -13.26696682 4.280948639
22.52826118 -26.80615234 0.7524906993
10.91074657 -13.37348175 1.348108888
10.85624409 -13.29427528 1.921459675
10.83542824 -13.24922371 2.495782852
11.11831188 -13.55403423 3.135625124
10.88141441 -13.26707363 3.672923326
10.8760767 -13.23899746 4.26403141
22.65214157 -27.13283157 0.7556880713
10.85530853 -13.39786911 1.349190712
10.79841328 -13.3154726 1.921630025
10.81169796 -13.30938148 2.500567675
11.09989834 -13.62250137 3.142874002
10.88326359 -13.35676479 3.686693192
10.90218735 -13.35623074 4.288060188
22.53314972 -27.17982292 0.7592488527
10.86512566 -13.4976902 1.353666186
10.82795143 -13.43758488 1.93102026
10.84496021 -13.43570137 2.514474154
10.91250706 -13.49638557 3.114176512
10.80972958 -13.360322 3.680435181
10.81720638 -13.34679508 4.276502132
21.90844917 -26.63241005 0.7633532882
10.86396122 -13.58559608 1.35760951
10.82039928 -13.51764107 1.936567545
10.74004936 -13.40248013 2.506410837
10.94188309 -13.61987019 3.131648064
10.76716614 -13.39933872 3.6824615
10.77206421 -13.38283634 4.277768612
21.76172829 -26.64148712 0.7668321133
11.19900894 -14.06952477 1.379353762
10.78654194 -13.56742382 1.939360499
10.7207098 -13.46856117 2.51203084
11.28058243 -14.10666656 3.21588397
10.72190857 -13.43520737 3.683792114
10.74080276 -13.43506241 4.28358984
21.7026577 -26.75402069 0.7702163458
10.86147785 -13.76335907 1.365594506
10.80400753 -13.67805862 1.947686553
10.74861622 -13.59081268 2.525346041
10.93692017 -13.79541683 3.153347015
10.73135757 -13.53547955 3.700001955
10.75399876 -13.54421997 4.304836273
22.05593109 -27.37111664 0.7735065222
10.82578659 -13.81682205 1.368000865
10.88655281 -13.87185192 1.963456631
10.78251171 -13.72594166 2.540221214
10.70564651 -13.61711216 3.115203857
10.76593494 -13.67096233 3.723927736
10.71856689 -13.59683895 4.310335159
21.96392822 -27.45788956 0.7771467566
11.33316612 -14.52321625 1.399754882
10.67536545 -13.71538258 1.9474895
10.70212078 -13.72557831 2.536581993
10.69093513 -13.6769619 3.718076706
10.73667526 -13.70897961 4.332766056
21.83941078 -27.49572182 0.7806201577
11.21549511 -14.47789097 1.397729516
10.66734791 -13.79708767 1.953199029
10.65331936 -13.75816917 2.537639141
11.28676701 -14.50404263 3.266415596
10.66612339 -13.73830223 3.72530365
10.7365942 -13.80035019 4.349400043
20.98185539 -26.63398361 0.7841947675
10.67614555 -13.91730213 1.372549891
10.71461391 -13.94672298 1.965039372
10.62211037 -13.81208706 2.541613579
10.76165771 -13.96389389 3.162842989
10.78515816 -13.97435379 3.772428513
10.72728539 -13.88131809 4.363136768
20.86174393 -26.6697216 0.7875173688
10.63818645 -13.96374226 1.374655247
10.63360596 -13.94068146 1.962829947
10.62588692 -13.90907383 2.551437616
10.75463295 -14.04878998 3.173165083
10.77785397 -14.05901527 3.784890413
10.70388031 -13.94574738 4.372309685
20.7892704 -26.76416206 0.7908303142
10.66789532 -14.0940094 1.380531788
10.64316845 -14.0458746 1.97065413
10.65042019 -14.03249931 2.564827681
10.67348576 -14.04308128 3.167071581
10.78002357 -14.15601254 3.800139666
18.82502747 -24.48864937 0.7935446501
18.42536163 -23.85035515 1.819087267
10.91214275 -14.47471523 2.007562637
18.48774338 -23.8583889 3.888984919
10.63974285 -14.09556484 3.17154932
10.82372093 -14.30527878 3.82721591
18.75504303 -24.56986237 0.7965512276
18.37997627 -23.95820236 1.8239851
18.31508636 -23.84630394 2.847089767
18.45690346 -23.98475266 3.90030241
10.63299274 -14.18198299 3.182160139
20.58424187 -27.06520081 0.8007701039
18.3092308 -24.03468513 1.827479362
18.34127808 -24.04444122 2.862062216
18.3449955 -24.00993919 3.898000479
18.60065079 -24.30036545 4.997920036
23.26656532 -30.12976074 7.386498928
20.11363029 -26.65140724 0.803761065
18.24806786 -24.1235199 1.83153522
18.35642433 -24.23050308 2.875939608
18.39196777 -24.23613548 3.922756672
18.45218277 -24.28100967 4.985814095
23.08803368 -30.11467361 7.368628025
20.00406075 -26.69613838 0.8069695234
18.1987896 -24.22797585 1.836300015
18.25014877 -24.26286507 2.876066685
18.31378555 -24.30472755 3.926329613
18.3346405 -24.29985809 4.980663776
22.92567253 -30.11886597 7.355252743
20.33857536 -27.31722832 0.8106673956
18.16124153 -24.34817505 1.841778994
18.17441559 -24.33419609 2.879698515
18.27682686 -24.4264698 3.937046528
18.53819656 -24.73083496 5.049296379
22.7478466 -30.1020813 7.337319851
20.29487038 -27.45158386 0.8140089512
18.15599632 -24.51115227 1.849188328
18.40513802 -24.80361557 2.918844461
18.4714241 -24.81714439 5.056190968
22.57643318 -30.09221649 7.321098804
18.43969536 -25.05408096 1.873690724
18.13724136 -24.62668419 2.900357008
22.37482834 -30.08130264 5.985477924
22.40297127 -30.07839012 7.304149628
19.7552948 -27.12291145 0.819978714
18.19825363 -24.91114616 1.867357969
22.13194656 -30.06259537 3.381150723
22.18235207 -30.04080772 5.96807909
22.25258064 -30.09346008 7.293800354
19.64953613 -27.1822834 0.8233274817
21.95842361 -30.09365463 2.100558519
21.9646759 -30.06368446 3.377835751
21.99608612 -30.01736832 5.953344345
22.07464409 -30.08185768 7.276971817
19.52672577 -27.20892143 0.8264628649
21.8909893 -30.216465 2.106212854
21.88282204 -30.16720009 3.383810759
21.85696983 -30.04462242 5.948215485
21.91641808 -30.08442116 7.26412487
19.44432259 -27.28975868 0.829667449
21.66473007 -29.99977684 5.93043232
21.73726273 -30.05782509 7.244957447
21.2791996 -29.99184227 0.8373517394
21.54014587 -30.04472542 5.928624153
21.57730865 -30.05566406 7.23135519
21.11176491 -29.97528076 0.8406732082
25.23049545 -35.39207458 3.836225271
21.37568665 -30.03488159 5.917243481
21.42811394 -30.0670414 7.220876217
20.97747612 -30.00331116 0.8440519571
8.635094643 -12.8086195 1.323420048
8.628561974 -12.78411961 1.836634159
21.18593979 -29.98901749 5.899644375
21.25938225 -30.05068779 7.204419136
21.25727654 -29.99722862 8.502411842
18.47480583 -26.72087479 0.8406159878
8.552581787 -12.78187275 1.322283506
8.535609245 -12.74290562 1.831772327
8.568564415 -12.76869297 2.349554539
8.746520042 -12.99914646 2.909754515
21.09565926 -30.03988647 7.189333916
21.1031189 -29.99967384 8.487045288
18.3649292 -26.75744629 0.8436049819
8.400624275 -12.65713978 1.316738605
8.454666138 -12.71740913 1.828319073
8.532731056 -12.80653572 2.352026463
8.789468765 -13.1485405 2.932037354
8.784976959 -13.12590694 3.46797514
8.659619331 -12.9305954 3.963899136
20.46567154 -29.95052528 0.8540955186
8.319555283 -12.63872337 1.31598866
8.394126892 -12.72857285 1.827993393
8.448765755 -12.78564262 2.346558094
8.553824425 -12.91754532 2.887401104
8.672533989 -13.06802177 3.449570894
8.665288925 -13.0368042 3.984755516
20.33211327 -29.97585297 0.857380569
8.239393234 -12.61208153 1.314863801
8.353847504 -12.75937748 1.829525948
8.348602295 -12.73212051 2.337101936
8.457915306 -12.87123299 2.875557661
8.53307724 -12.96147633 3.421168804
8.53547287 -12.94399166 3.953886032
8.53372097 -12.92479134 4.492856026
20.18201447 -29.96587181 0.8604000211
8.166397095 -12.59484863 1.314164996
8.225197792 -12.65946579 1.819651246
8.301413536 -12.75296497 2.337421179
8.360161781 -12.82115746 2.863128185
8.410153389 -12.87198925 3.396875858
8.444674492 -12.90480328 3.937253475
8.477908134 -12.93531704 4.488416672
20.03848457 -29.97517395 0.8636055589
8.093372345 -12.57256126 1.313236952
8.141921043 -12.62742043 1.815703154
8.175837517 -12.66097069 2.323024511
8.250240326 -12.74798679 2.846935987
8.249800682 -12.73158073 3.361378431
8.488509178 -13.0528307 3.9700737
8.52765274 -13.09194183 4.529266834
17.57679749 -26.59496117 0.857560575
8.066145897 -12.62046337 1.315476775
8.069151878 -12.60972404 1.813032508
8.071129799 -12.59303188 2.311943531
8.097173691 -12.61538029 2.820328951
8.151050568 -12.67762375 3.344822407
8.433457375 -13.06457043 3.966865778
8.266739845 -12.80761814 4.434545994
17.5960331 -26.81661797 0.8609599471
7.983442783 -12.58745003 1.314074516
8.004495621 -12.60318756 1.811356187
7.996407032 -12.57184315 2.306884766
8.084042549 -12.68428993 2.828751564
8.131931305 -12.73834419 3.353217602
8.012610435 -12.54452419 3.824975967
8.253365517 -12.87776566 4.448617458
19.56879997 -29.93947983 0.8729106188
7.916768074 -12.5771656 1.31369853
7.946707249 -12.60624504 1.810533881
7.957712173 -12.60290051 2.308651447
7.996974945 -12.64524269 2.818500996
8.037062645 -12.68846607 3.337685823
7.981538296 -12.58681679 3.830099583
8.115866661 -12.76707363 4.40750742
18.34988785 -28.33684349 0.8711205125
7.848041534 -12.56323528 1.313160658
7.883415699 -12.60077286 1.808980346
7.920184612 -12.64015007 2.311124086
7.912492752 -12.60901928 2.808798552
7.950374603 -12.64948082 3.32459712
7.930648327 -12.60452175 3.828560352
7.990254879 -12.67621231 4.372292042
18.20724297 -28.34054565 0.8741739988
7.811861515 -12.60186195 1.314998865
7.834849834 -12.6212368 1.809651256
7.864630699 -12.64617062 2.309673786
7.867118835 -12.63455009 2.80962944
7.894926071 -12.66043854 3.322125435
7.938545704 -12.70500374 3.848829031
7.941147804 -12.69261742 4.370213032
19.12338448 -29.94059944 0.8822671175
7.791923046 -12.66067314 1.317745805
7.788287163 -12.64015007 1.81025064
7.822484016 -12.67649174 2.311281681
7.817139149 -12.64866257 2.808688164
7.803357124 -12.61245155 3.307241917
7.926375866 -12.78103924 3.862442017
7.907189369 -12.73598957 4.376018047
18.95562363 -29.91668129 0.8853598833
7.714693069 -12.63734913 1.316797495
7.742927551 -12.66522408 1.81134522
7.768053532 -12.68373203 2.310031652
7.756374359 -12.65069771 2.805536032
7.705836773 -12.55873775 3.290992737
7.771197796 -12.63733768 3.819559336
7.867607117 -12.76659298 4.378332138
18.80856895 -29.91215515 0.8883427382
7.668194771 -12.65579605 1.317730308
7.690816879 -12.67542648 1.811208129
7.722493172 -12.70871449 2.31098628
7.681480408 -12.6262722 2.798049212
7.69508028 -12.63154221 3.302180052
7.719221592 -12.65252399 3.817571163
7.806621552 -12.76926327 4.371901989
18.65348625 -29.90515518 0.8914428949
7.62393713 -12.68210888 1.319026232
7.668132305 -12.73528099 1.815345287
7.676754951 -12.72885513 2.311441183
7.649039745 -12.67084599 2.802262306
7.649626732 -12.65624523 3.302847385
7.629797459 -12.60556602 3.799913883
7.751000404 -12.77517319 4.366864204
18.51451111 -29.91104889 0.8944194317
7.561137676 -12.67497921 1.31881094
7.567353725 -12.66964245 1.808648109
7.601908684 -12.70367908 2.306083441
7.591619968 -12.67242336 2.799301863
7.600816727 -12.67118835 3.301678896
7.587523937 -12.63035393 3.800792217
7.708079815 -12.80037498 4.367694855
7.984553337 -13.52521801 0.3138455451
7.994707584 -13.52522278 0.8353592157
7.534995556 -12.72486401 1.321171165
7.519699574 -12.68584347 1.809069276
7.543384552 -12.70326328 2.303939819
7.552420616 -12.70209217 2.801169395
7.560499191 -12.69918919 3.303331614
7.547286987 -12.65827656 3.802510262
7.733240128 -12.93144226 4.400362492
7.926624298 -13.53577614 0.3159847558
7.492578506 -12.74936581 1.322389007
7.490166664 -12.73050594 1.811965823
7.507384777 -12.74250698 2.306806803
7.53220892 -12.76171398 2.808158875
7.474654675 -12.6556282 3.28977561
7.501725674 -12.68241978 3.803023577
7.556298733 -12.75190639 4.339516163
7.8783288 -13.5565815 0.3176060617
7.88843441 -13.55184364 0.837993145
7.426763058 -12.74115944 1.322138906
7.434948921 -12.73456669 1.811355591
7.5855093 -12.95874214 2.332466602
7.462104797 -12.74726677 2.802396536
7.472194672 -12.74313164 3.304151058
7.461291313 -12.71005535 3.804734707
7.503119946 -12.76002979 4.335421085
7.846899986 -13.59964848 0.3182741404
7.863188267 -13.60990047 0.8394839168
7.427572727 -12.83015347 1.326268911
7.398789406 -12.76885319 1.813370585
7.76750946 -13.34432507 2.379746437
7.415244579 -12.76011086 2.80162406
7.462947845 -12.82074547 3.316412449
7.470616817 -12.81244183 3.825810909
7.539723873 -12.90620041 4.372938156
7.366943359 -12.82537174 1.326173306
7.359333038 -12.79794407 1.814944506
7.413959026 -12.86628914 2.316655874
7.354829788 -12.75554466 2.797771454
7.426233768 -12.85496998 3.319473267
7.420423985 -12.82503414 3.823720455
7.412284374 -12.79571342 4.333521843
15.73488903 -26.7326355 0.8981284499
7.303303719 -12.81519985 1.32583642
7.309322834 -12.80990696 1.815048814
7.334510803 -12.83570862 2.310656071
7.327735901 -12.80465412 2.803043365
7.372849941 -12.86227226 3.316862822
7.390719414 -12.87529945 3.830989599
7.389666557 -12.85727119 4.345175743
17.4872303 -29.84742928 0.9144067764
7.292780399 -12.89649391 1.329641461
7.26761198 -12.83996582 1.816678762
7.274029732 -12.83060932 2.308037996
7.278697014 -12.82288265 2.802953005
7.313292027 -12.86390686 3.312890768
7.317947865 -12.8508749 3.819583893
7.357654095 -12.89936733 4.351368427
17.28946686 -29.74700928 0.9167476892
7.282829285 -12.97489262 1.333313704
7.230959415 -12.87374592 1.818683386
7.227024555 -12.85200596 2.308721066
7.236839771 -12.84812641 2.804223061
7.277365685 -12.89934349 3.316293955
7.296093941 -12.91423702 3.830233097
7.341456413 -12.97246933 4.366465569
16.15255737 -28.07548141 0.9119951725
7.207714558 -12.95001411 1.332327366
7.178740501 -12.88642025 1.818835139
7.189211845 -12.88390732 2.310853481
7.239692211 -12.95252132 2.818707943
7.225971222 -12.91401005 3.315145969
7.253815651 -12.93949223 3.83150816
7.264848232 -12.94143105 4.351043701
15.45926189 -27.11697197 0.9100999236
7.146207333 -12.94240665 1.332117319
7.139826775 -12.91649628 1.820538759
7.152215004 -12.92205715 2.3136971
7.199407578 -12.98102856 2.820550919
7.17668438 -12.92721558 3.313928127
7.236383438 -13.01116371 3.844279051
7.257121086 -13.02936459 4.370565414
16.87143707 -29.74116898 0.9250862598
7.138571739 -13.02579784 1.336025953
7.107886314 -12.95847034 1.823272824
7.12127924 -12.96104336 2.316847801
7.173121452 -13.03325081 2.826399803
7.184543133 -13.03676128 3.332953215
7.150033951 -12.9576273 3.825997114
7.214530468 -13.04988289 4.370793819
15.95958328 -28.402174 0.9212824106
7.124391079 -13.09892559 1.339474678
7.073719978 -12.99692917 1.82571125
7.142307281 -13.09383011 2.331794262
7.150557041 -13.09226894 2.833396673
7.117964745 -13.02092075 3.325690746
7.1016469 -12.97227287 3.824714661
7.170730114 -13.07316589 4.371573448
16.68873215 -29.89110756 0.931221962
7.125824451 -13.19976616 1.344181538
7.077405453 -13.10085297 1.833771229
7.100561619 -13.12032986 2.333276987
7.090833664 -13.08797836 2.829788923
7.076355457 -13.04727745 3.327306032
7.062111855 -13.00191879 3.82724309
7.140548229 -13.11972141 4.379237175
16.45062065 -29.70946884 0.9329885244
7.03700161 -13.1448288 1.341841221
7.065533161 -13.17901611 1.839621782
7.057718754 -13.14496803 2.334538937
7.050034046 -13.11598778 2.831622124
7.025780201 -13.05816078 3.325716257
7.120390415 -13.2005825 3.872191906
7.107204437 -13.16118908 4.385425568
16.31155396 -29.6988163 0.9355828762
6.99022913 -13.1623373 1.342782497
6.983982086 -13.13599396 1.83509779
7.02269125 -13.18325996 2.337539196
7.037644386 -13.19367409 2.841776848
7.018289566 -13.14396095 3.339781761
7.072985172 -13.22306633 3.872673512
7.112316132 -13.26978493 4.411306858
15.31377697 -28.16976547 0.9303401113
6.993394375 -13.27308655 1.347957611
6.950786114 -13.1822834 1.838191867
6.994143009 -13.2382412 2.342563868
6.987445831 -13.21068192 2.841661453
7.037293434 -13.28240299 3.364602804
7.020682812 -13.23687267 3.871027231
7.093425751 -13.34275723 4.426430225
15.23021221 -28.24398804 0.9332091808
7.019294262 -13.42585659 1.355042219
6.981992245 -13.33858871 1.850738406
6.956522942 -13.27757645 2.345626354
6.978964806 -13.30165005 2.853898764
7.081725121 -13.46278 3.398288012
7.468234539 -14.13083553 4.089342117
7.135458946 -13.51913357 4.472043037
15.13756466 -28.29080582 0.9358037114
7.010709286 -13.50841427 1.358935237
6.976531982 -13.42609024 1.857439876
6.952101231 -13.36648464 2.355113268
6.96656847 -13.37647438 2.863719225
7.080133915 -13.55822182 3.414469957
7.054382324 -13.49553204 3.92616725
7.140641689 -13.62709427 4.497903824
14.40166569 -27.17542267 0.9321212769
7.005520344 -13.5980463 1.363153219
6.99826622 -13.56901836 1.868832827
6.936581612 -13.43636131 2.362205505
6.956621647 -13.45654774 2.874409676
6.991725445 -13.50358486 3.399340868
7.046121597 -13.58486271 3.943593025
7.118413925 -13.69243145 4.511023045
14.3358593 -27.28423119 0.9351842999
7.013568401 -13.72353268 1.369018316
6.968941212 -13.62600899 1.872849584
6.965024948 -13.59756947 2.380582333
6.984666824 -13.61716557 2.898190975
6.999277115 -13.627285 3.421007872
7.038850307 -13.68235111 3.962792635
7.119774342 -13.80651283 4.538020611
14.64789486 -28.09545517 0.9422451258
7.016978264 -13.84222031 1.374581218
6.949753284 -13.70223713 1.878512144
6.987626076 -13.75041866 2.397889137
6.968089104 -13.69819736 2.908742428
6.959850311 -13.66655064 3.425198078
7.035084248 -13.78216839 3.982789993
7.165028572 -14.00239563 4.588715076
14.53313541 -28.10933495 0.944711864
7.00958252 -13.93700314 1.379056692
6.944648266 -13.80011368 1.886061192
6.95673418 -13.80090332 2.402449131
6.967371464 -13.80419064 2.92356205
7.036658764 -13.91568184 3.472899437
7.033501148 -13.88726616 4.004074574
15.24914265 -29.67889977 0.9561600685
15.34787273 -29.68336868 2.093934059
7.024844646 -14.0534668 1.90688169
7.020264149 -14.02837944 2.429151773
6.928619385 -13.84054947 2.926855326
7.199715137 -14.32379532 3.553451777
15.46803093 -29.69974899 7.910357475
14.17092133 -27.87117767 0.9479086995
12.06200981 -23.70336533 1.822813272
6.979726791 -14.07961369 1.908321619
6.990082741 -14.08257961 2.434170008
15.30106258 -29.70502472 5.544184208
15.32899475 -29.72037315 6.718070507
15.340518 -29.69194794 7.8985672
13.62761402 -27.05843925 0.945330143
11.88110638 -23.55236053 1.816275954
9.407688141 -18.81461906 2.309971094
15.17228222 -29.70551491 5.538336277
15.19190121 -29.70556831 6.706941128
15.20492458 -29.69236755 7.887891293
9.388777733 -19.08478737 0.8988801241
11.74538898 -23.49462318 1.813992023
9.387869835 -18.93735123 2.319309473
15.14580727 -29.91332626 5.566418648
15.12207127 -29.83052635 6.724198818
15.10034275 -29.75104141 7.891689777
13.87927532 -28.02462006 0.9560127854
11.52513599 -23.27099228 1.80417192
9.382819176 -19.09030724 2.331216335
9.377632141 -19.04966164 3.047475576
11.72044468 -23.5547142 4.514236927
15.11397934 -30.07591248 6.766165257
15.08883572 -29.97669601 7.937132835
13.90037632 -28.30116272 0.9600428343
11.64691257 -23.70253754 1.824117661
9.367272377 -19.21697235 2.340945244
9.366589546 -19.18479156 3.06198597
11.63461781 -23.58299255 4.514391899
15.07527256 -30.25250435 6.794409275
15.0812912 -30.21304703 7.985160828
13.68157959 -28.10470009 0.9610880017
11.39112377 -23.39535141 1.810486555
9.35365963 -19.34908485 2.351138115
9.359205246 -19.32892609 3.077611685
11.48324871 -23.48217964 4.493403912
15.0712204 -30.49930954 6.837001324
15.0562849 -30.41836166 8.025531769
13.61333942 -28.20595741 0.9640098214
11.27572441 -23.36168098 1.809292674
11.24791527 -23.2784462 2.682976246
11.33628273 -23.38766289 4.473540783
15.06474972 -30.7446804 6.879263401
15.03970814 -30.64304924 8.070620537
13.50911427 -28.23535156 0.9664638042
11.12773323 -23.26130104 1.805066347
11.12243938 -23.22287369 2.677084923
11.17686176 -23.26584435 4.449297428
15.05672169 -30.99036789 6.921551228
15.04799938 -30.92037201 8.128545761
12.58305931 -26.58686256 0.9577901959
11.02920818 -23.25872993 1.805293441
11.04516888 -23.26325417 2.679337502
11.07355785 -23.28281975 3.560804844
11.14316654 -23.39499092 4.46619606
15.05067921 -31.24339676 6.965302467
15.04671669 -31.18235779 8.182659149
